-22.8275 57.1436 4.33487 0.305105 -0.949711 -0.0704275
-21.7891 57.425 4.34365 0.236246 -0.970049 -0.0564993
-20.5034 57.737 4.35363 0.235353 -0.970357 -0.0549255
-19.1248 58.029 4.36259 0.180579 -0.982962 -0.0343088
-18.1913 58.2041 4.36519 0.184804 -0.981626 -0.0475229
-16.7328 58.4621 4.36833 0.171439 -0.984245 -0.0432461
-15.5005 58.6784 4.37063 0.173703 -0.983522 -0.0501274
-14.5915 58.8345 4.37214 0.166767 -0.984679 -0.0509604
-13.3482 59.0391 4.37417 0.153654 -0.986263 -0.060628
-12.2845 59.2075 4.37741 0.153606 -0.986111 -0.0631662
-11.3646 59.3519 4.3811 0.155059 -0.985446 -0.0696653
-10.2379 59.5353 4.3858 0.157089 -0.98561 -0.0624233
-8.99533 59.7268 4.38836 0.149233 -0.986013 -0.0742204
-7.70296 59.9446 4.39197 0.169326 -0.982765 -0.0741692
-6.74799 60.107 4.398 0.164467 -0.981728 -0.0957075
-5.41918 60.3317 4.41212 0.153037 -0.979991 -0.127272
-4.24914 60.5139 4.4281 0.148986 -0.979186 -0.137836
-3.24869 60.6581 4.44041 0.138032 -0.980618 -0.139051
-1.85166 60.8356 4.46047 0.11637 -0.98389 -0.135716
-0.825023 60.9277 4.47135 0.0774941 -0.982895 -0.167068
0.477598 60.9887 4.47453 -0.00296707 -0.977418 -0.211293
1.58962 60.9737 4.47323 -0.0189993 -0.981634 -0.189825
2.81193 60.9108 4.46938 -0.0684759 -0.981708 -0.17765
4.16288 60.7891 4.45377 -0.117551 -0.975487 -0.186028
5.41769 60.6182 4.43453 -0.169429 -0.974216 -0.148986
6.73581 60.4135 4.42081 -0.141607 -0.979333 -0.14441
7.8754 60.2243 4.41246 -0.16208 -0.98115 -0.105241
8.92258 60.0465 4.4036 -0.170999 -0.981234 -0.0890966
10.0685 59.8578 4.39451 -0.165396 -0.982727 -0.083019
11.1592 59.6793 4.38799 -0.159449 -0.984273 -0.0760448
12.123 59.5203 4.38381 -0.166839 -0.984178 -0.0596452
13.4078 59.3092 4.3781 -0.158244 -0.985605 -0.0595147
14.8265 59.0815 4.37356 -0.159064 -0.98574 -0.054919
15.951 58.8997 4.36868 -0.16219 -0.985268 -0.0542324
16.9033 58.7393 4.36433 -0.174908 -0.983004 -0.0557765
18.2009 58.512 4.35894 -0.165342 -0.985395 -0.0407229
19.165 58.3433 4.35654 -0.188218 -0.981494 -0.0352592
20.3145 58.1183 4.3513 -0.187116 -0.981469 -0.0412942
21.4723 57.8863 4.34308 -0.207152 -0.976354 -0.061815
22.7429 57.5903 4.33396 -0.227285 -0.972859 -0.0434421
24.088 57.2497 4.32277 -0.264009 -0.963003 -0.0540768
25.0786 56.96 4.31224 -0.316526 -0.946664 -0.0603233
26.1243 56.607 4.2979 -0.329295 -0.943319 -0.0414032
27.3156 56.1789 4.28289 -0.340246 -0.939024 -0.0496655
28.668 55.6569 4.2609 -0.390735 -0.918636 -0.0586074
29.6623 55.2191 4.24458 -0.393288 -0.918337 -0.0445088
30.6104 54.8198 4.23485 -0.390166 -0.920166 -0.0326439
31.6745 54.4115 4.22934 -0.339088 -0.940752 0.00230455
32.7625 54.067 4.22839 -0.25911 -0.965736 0.0146746
33.777 53.8034 4.22426 -0.236814 -0.971448 -0.0144422
34.8085 53.5938 4.22552 -0.161344 -0.98688 0.00592591
36.1809 53.475 4.23062 -0.0571052 -0.998366 0.00206972
37.2436 53.4359 4.23407 -0.0208015 -0.999781 -0.00239429
37.3964 53.4328 4.23459 -0.0152333 -0.999872 0.00482614
37.5518 53.444 5.29927 -0.00955678 -0.999886 0.0117129
36.3574 53.4582 5.29614 -0.0358304 -0.999358 -0.00056075
35.4541 53.5093 5.29401 -0.0866647 -0.996236 -0.00146566
34.3416 53.6642 5.29297 -0.161789 -0.9867 -0.0157128
33.3314 53.866 5.29249 -0.253576 -0.966543 -0.0386399
32.1817 54.2177 5.29234 -0.314185 -0.949062 -0.0238661
30.9154 54.6662 5.29644 -0.331805 -0.943188 -0.0173872
29.9404 55.0593 5.30869 -0.382052 -0.922853 -0.0487725
29.043 55.4292 5.32413 -0.379893 -0.923547 -0.0523716
27.9891 55.8634 5.34667 -0.376052 -0.924876 -0.0564745
27.1289 56.197 5.36308 -0.342144 -0.93885 -0.038721
26.0899 56.5622 5.37888 -0.3226 -0.945135 -0.051474
25.0445 56.9073 5.39542 -0.302332 -0.950873 -0.066602
24.1621 57.1597 5.40856 -0.258131 -0.962968 -0.0778525
23.1191 57.4344 5.42071 -0.243598 -0.967563 -0.0669532
21.6078 57.7858 5.43411 -0.222117 -0.97223 -0.0737156
20.1276 58.0911 5.44601 -0.196755 -0.97783 -0.0716631
19.1833 58.2721 5.45122 -0.182757 -0.98069 -0.0696158
18.2583 58.4442 5.45507 -0.173485 -0.982873 -0.062165
17.3283 58.6036 5.45854 -0.173653 -0.983364 -0.0532819
16.406 58.761 5.46309 -0.164381 -0.984274 -0.0646832
15.2485 58.9517 5.47095 -0.159997 -0.98491 -0.0659845
13.9443 59.1576 5.47745 -0.156682 -0.985915 -0.0585002
12.6104 59.3619 5.48164 -0.152852 -0.985165 -0.0780127
11.4978 59.5416 5.48825 -0.158529 -0.984369 -0.0767169
10.323 59.7195 5.49572 -0.146587 -0.985274 -0.0880234
9.25632 59.8837 5.50436 -0.144042 -0.983415 -0.110215
8.03538 60.0727 5.51547 -0.152144 -0.980613 -0.123492
6.54021 60.2835 5.528 -0.137563 -0.981608 -0.132369
5.0514 60.473 5.53895 -0.122039 -0.976563 -0.177286
4.08779 60.586 5.55165 -0.0933982 -0.978928 -0.181596
3.15683 60.6693 5.56462 -0.0665738 -0.980402 -0.18542
2.1275 60.7241 5.57276 -0.0387964 -0.976075 -0.213945
0.961479 60.7467 5.57642 -0.0164925 -0.977086 -0.212204
-0.457141 60.7335 5.57156 0.0157583 -0.973461 -0.228311
-1.52458 60.6688 5.56213 0.0685179 -0.979762 -0.188074
-2.87157 60.5418 5.54891 0.121639 -0.977686 -0.171272
-4.2759 60.3546 5.53093 0.124658 -0.98005 -0.1548
-5.60134 60.1622 5.51435 0.146659 -0.980849 -0.128166
-6.98352 59.955 5.49971 0.155341 -0.981553 -0.111461
-8.21925 59.7571 5.4929 0.150016 -0.98334 -0.10265
-9.3077 59.5939 5.48926 0.150488 -0.984793 -0.0868151
-10.6693 59.3809 5.48246 0.155282 -0.984814 -0.0776416
-11.7947 59.2085 5.4784 0.148188 -0.986064 -0.0756214
-12.6901 59.074 5.4759 0.153654 -0.986263 -0.0606278
-14.0589 58.8631 5.47371 0.152986 -0.985805 -0.0691688
-15.5764 58.608 5.46977 0.168614 -0.983446 -0.0663627
-16.9774 58.3713 5.46579 0.171439 -0.984245 -0.043246
-18.3585 58.1116 5.46062 0.188398 -0.980483 -0.0562104
-19.3316 57.9185 5.45499 0.189831 -0.979874 -0.0617364
-20.4936 57.6776 5.44534 0.219977 -0.973323 -0.0652105
-21.4175 57.4525 5.43662 0.237244 -0.969849 -0.055749
-22.913 57.0315 5.41888 0.301368 -0.95059 -0.0745337
-23.8491 56.7344 5.4076 0.317157 -0.944998 -0.0799452
-24.9456 56.3575 5.38713 0.322893 -0.940539 -0.105487
-26.207 55.8497 5.35139 0.385834 -0.917914 -0.0925567
-27.074 55.489 5.33042 0.384172 -0.919046 -0.0881309
-28.2742 54.9853 5.29794 0.390441 -0.91608 -0.0913981
-29.1139 54.6429 5.27661 0.323061 -0.943384 -0.0752163
-30.4427 54.2045 5.26864 0.285561 -0.957418 -0.0424882
-31.4726 53.9603 5.27217 0.225135 -0.973335 -0.0439742
-32.6568 53.7297 5.27408 0.130759 -0.99138 -0.00827596
-33.6421 53.6042 5.27706 0.092103 -0.995133 -0.035026
-34.5422 53.5348 5.28104 0.077042 -0.996406 -0.0352002
-35.5559 53.4764 5.28622 0.0398751 -0.998964 -0.0219301
-35.7803 53.4664 5.28752 0.0442557 -0.998874 -0.0170946
-35.783 53.4414 6.35219 0.0339752 -0.999237 -0.0192778
-34.8529 53.4733 6.34632 0.0688224 -0.997244 -0.0277253
-33.9177 53.5642 6.3426 0.0959467 -0.995345 -0.00905284
-32.6523 53.71 6.33791 0.125137 -0.991821 -0.0251302
-31.3601 53.9337 6.33385 0.226369 -0.972862 -0.0479285
-30.4728 54.1416 6.33046 0.255411 -0.965624 -0.0483311
-29.5921 54.4015 6.33396 0.272469 -0.960243 -0.0607751
-28.4505 54.8059 6.35481 0.341133 -0.934917 -0.0977678
-27.3151 55.2863 6.3926 0.387816 -0.917389 -0.0894191
-26.2991 55.7056 6.42148 0.381367 -0.919972 -0.0906133
-24.8625 56.2894 6.46589 0.357408 -0.930436 -0.0809218
-23.4959 56.7415 6.48958 0.295031 -0.951237 -0.0900275
-22.6242 57.0163 6.50356 0.287504 -0.95192 -0.105784
-21.5231 57.3264 6.52192 0.254182 -0.961328 -0.10602
-20.4512 57.5974 6.53521 0.249755 -0.964336 -0.087629
-19.456 57.8294 6.54598 0.194424 -0.978682 -0.0661859
-18.5546 58.006 6.55315 0.188491 -0.979106 -0.0763061
-17.3108 58.2366 6.56054 0.181355 -0.980543 -0.075133
-15.9147 58.4742 6.56604 0.165485 -0.983812 -0.0687693
-14.8436 58.6593 6.57103 0.168611 -0.983446 -0.066366
-13.8416 58.819 6.57529 0.153883 -0.98562 -0.0698029
-12.4324 59.0317 6.5817 0.144398 -0.986932 -0.0715195
-11.5161 59.1656 6.58351 0.146293 -0.986502 -0.0735729
-10.4455 59.3254 6.58652 0.141393 -0.986022 -0.088142
-9.43733 59.4696 6.59063 0.144616 -0.985298 -0.090966
-8.45821 59.6138 6.59526 0.140861 -0.984639 -0.103173
-7.3059 59.7695 6.59921 0.133913 -0.983508 -0.121571
-6.2189 59.9272 6.60918 0.134864 -0.982018 -0.132107
-5.19378 60.0659 6.62121 0.139675 -0.979805 -0.143086
-3.94212 60.2192 6.63448 0.125367 -0.978582 -0.16328
-2.824 60.3405 6.64464 0.104397 -0.976993 -0.185975
-1.81124 60.4365 6.65505 0.0622972 -0.979299 -0.192595
-0.86286 60.4864 6.66148 0.0439548 -0.980969 -0.189126
0.378524 60.5255 6.66979 0.0119257 -0.980936 -0.193967
1.54479 60.5128 6.66903 -0.0244761 -0.981285 -0.191001
2.83634 60.4709 6.66158 -0.0443999 -0.98136 -0.186979
3.83597 60.4022 6.65242 -0.0947053 -0.97645 -0.193847
5.22247 60.2671 6.64065 -0.100524 -0.982628 -0.156003
6.45491 60.1297 6.63182 -0.122201 -0.980504 -0.153877
7.42707 60.0138 6.62374 -0.12795 -0.982827 -0.132969
8.41773 59.8749 6.61423 -0.134882 -0.983407 -0.121317
9.62706 59.7076 6.60337 -0.140307 -0.98426 -0.107456
10.7285 59.5555 6.59499 -0.142201 -0.984754 -0.100192
11.7128 59.4074 6.58743 -0.149799 -0.9841 -0.0954278
12.7768 59.2498 6.58161 -0.143835 -0.985682 -0.0879924
13.7424 59.1051 6.57789 -0.147609 -0.985677 -0.0815613
14.772 58.9519 6.57137 -0.148803 -0.985221 -0.0848389
15.9744 58.7606 6.5633 -0.159993 -0.984911 -0.0659807
16.9069 58.6026 6.55883 -0.168279 -0.983186 -0.0709115
18.3495 58.3598 6.5513 -0.172901 -0.983053 -0.0609264
19.2509 58.1919 6.54639 -0.183142 -0.981709 -0.0520198
20.1553 58.0159 6.53939 -0.196974 -0.978965 -0.0531874
21.5389 57.7353 6.52675 -0.211858 -0.97602 -0.0500054
22.9726 57.3872 6.50915 -0.26069 -0.961947 -0.0818511
23.9769 57.1132 6.49577 -0.262358 -0.961335 -0.083683
25.0502 56.8088 6.47941 -0.289369 -0.953756 -0.0813279
25.982 56.5308 6.46272 -0.286239 -0.955012 -0.0775836
27.2289 56.0883 6.43552 -0.361276 -0.928644 -0.0842598
28.3321 55.6541 6.41016 -0.369209 -0.925663 -0.0826551
29.1709 55.3168 6.39224 -0.373764 -0.923795 -0.0830808
30.4576 54.8008 6.3672 -0.363584 -0.930984 -0.0327884
31.5329 54.4069 6.3541 -0.318695 -0.946461 -0.0514235
32.8374 54.0097 6.3503 -0.269754 -0.962819 0.0145935
34.0027 53.7282 6.35709 -0.19437 -0.98092 0.00393605
34.9541 53.5788 6.35962 -0.116119 -0.993208 0.00743259
35.8942 53.48 6.35986 -0.0414397 -0.998791 0.0264463
37.1006 53.461 6.3628 -0.0154634 -0.999768 0.0150252
37.1492 53.4603 6.36298 -0.00810125 -0.99988 0.0131928
37.2709 53.4569 7.43165 -0.0172316 -0.999851 -0.00121496
36.2197 53.4902 7.42854 -0.0479395 -0.998774 -0.012358
35.1816 53.5614 7.42547 -0.0723246 -0.997282 -0.0140741
34.2837 53.6952 7.42134 -0.156202 -0.986955 -0.039002
32.8723 53.9644 7.41345 -0.216056 -0.97586 -0.0319082
31.9645 54.1895 7.41354 -0.322297 -0.944456 -0.0642507
30.8567 54.5666 7.42495 -0.340164 -0.937659 -0.0713056
29.8141 54.9679 7.44348 -0.359658 -0.929924 -0.07673
28.6179 55.4424 7.47037 -0.371772 -0.924479 -0.0844013
27.7705 55.7796 7.49227 -0.354893 -0.928831 -0.106414
26.7422 56.1602 7.52065 -0.348247 -0.930043 -0.117237
25.8197 56.4853 7.54825 -0.304921 -0.946431 -0.106259
24.5729 56.8697 7.57303 -0.303777 -0.950152 -0.0702173
23.0939 57.2619 7.59201 -0.257412 -0.963898 -0.068117
21.8006 57.6005 7.61454 -0.252276 -0.963064 -0.0941561
20.4026 57.9009 7.63117 -0.202884 -0.976714 -0.0697641
19.2922 58.1191 7.64121 -0.181273 -0.980382 -0.0774
18.2438 58.2971 7.65011 -0.166505 -0.9821 -0.0880684
16.7809 58.5398 7.65846 -0.16094 -0.983592 -0.0815237
15.8815 58.6846 7.66323 -0.149759 -0.985345 -0.0816569
14.9356 58.8279 7.66793 -0.152546 -0.984646 -0.0848634
13.9026 58.986 7.67586 -0.150767 -0.984681 -0.0875936
12.8451 59.1359 7.6821 -0.136038 -0.986885 -0.0869025
11.8571 59.2771 7.68865 -0.143289 -0.984244 -0.1036
10.6495 59.4435 7.69748 -0.137 -0.984365 -0.110711
9.65186 59.5776 7.70527 -0.128077 -0.984417 -0.120498
8.49258 59.7298 7.71508 -0.123181 -0.984121 -0.127796
7.01203 59.9013 7.72775 -0.117106 -0.982614 -0.144067
5.95021 60.0164 7.73775 -0.103584 -0.981903 -0.158544
4.63161 60.1314 7.74613 -0.0859157 -0.980863 -0.174717
3.64355 60.2081 7.74987 -0.0762666 -0.981236 -0.177084
2.54746 60.2687 7.75614 -0.0520254 -0.978951 -0.197354
1.46436 60.2965 7.75867 -0.0193409 -0.980198 -0.197071
0.0213116 60.3023 7.76169 -3.47457e-05 -0.979566 -0.201123
-0.905696 60.2699 7.75783 0.0364324 -0.980555 -0.192832
-1.8102 60.2141 7.75006 0.0747835 -0.979136 -0.188946
-3.1692 60.0982 7.73755 0.0956847 -0.980845 -0.169672
-4.208 60.0019 7.73061 0.094169 -0.98321 -0.156303
-5.38743 59.8768 7.71811 0.11106 -0.983953 -0.139652
-6.36721 59.7552 7.70697 0.121048 -0.983181 -0.136755
-7.35376 59.635 7.70402 0.12426 -0.985606 -0.114633
-8.32362 59.5069 7.70152 0.134857 -0.984813 -0.109348
-9.36893 59.3669 7.69623 0.136766 -0.984942 -0.10576
-10.3323 59.2304 7.69183 0.133592 -0.986436 -0.0953812
-11.268 59.1033 7.6892 0.137777 -0.985843 -0.0955525
-12.4927 58.9295 7.68381 0.146244 -0.985392 -0.0872639
-13.4415 58.7885 7.67652 0.150035 -0.984846 -0.0869882
-14.7573 58.5902 7.66937 0.146684 -0.985912 -0.0803876
-16.2147 58.342 7.66113 0.171159 -0.982297 -0.0761393
-17.3625 58.1412 7.65525 0.179513 -0.980433 -0.0807796
-18.3626 57.9535 7.64705 0.183225 -0.979145 -0.0877735
-19.33 57.7615 7.63761 0.215531 -0.973302 -0.0789324
-20.3421 57.542 7.62459 0.232331 -0.969119 -0.0826456
-21.5547 57.2174 7.60443 0.26175 -0.961852 -0.0795454
-22.5325 56.9387 7.58923 0.29627 -0.951134 -0.0869914
-23.4142 56.6497 7.57021 0.292797 -0.949136 -0.115808
-24.7969 56.1988 7.53687 0.356364 -0.925643 -0.12724
-25.7392 55.8172 7.50743 0.384689 -0.915662 -0.116522
-27.0445 55.2647 7.46341 0.388118 -0.913105 -0.124916
-27.8899 54.9056 7.43433 0.394408 -0.910706 -0.122707
-29.1227 54.4507 7.40584 0.341133 -0.934917 -0.0977678
-30.3465 54.1128 7.39548 0.245683 -0.965323 -0.0882674
-31.4581 53.8459 7.39556 0.234538 -0.969273 -0.0741691
-32.3875 53.693 7.39964 0.1305 -0.989691 -0.0590052
-33.7933 53.5366 7.40421 0.0902631 -0.994668 -0.0498858
-35.0271 53.4487 7.41063 0.0363158 -0.999194 -0.0170876
-35.3307 53.4376 7.41252 0.0363182 -0.999194 -0.0170884
-35.5827 53.4084 8.48042 0.0225557 -0.999684 -0.0110995
-34.3179 53.4607 8.47318 0.0454414 -0.998886 -0.0127504
-33.3025 53.5416 8.46753 0.0867272 -0.995874 -0.0267136
-32.2414 53.6559 8.46251 0.118322 -0.992545 -0.0292428
-30.7893 53.9198 8.45931 0.226065 -0.970661 -0.0819242
-29.7696 54.167 8.46267 0.275685 -0.957254 -0.087536
-28.6298 54.5075 8.47604 0.313722 -0.944839 -0.094111
-27.6672 54.8796 8.50168 0.369503 -0.924451 -0.0941115
-26.2203 55.4684 8.54857 0.392191 -0.90892 -0.141604
-25.2534 55.8756 8.58794 0.356138 -0.92358 -0.142008
-23.8026 56.3929 8.63325 0.333349 -0.933254 -0.133848
-22.7265 56.753 8.66006 0.315022 -0.940685 -0.125986
-21.5644 57.111 8.68825 0.252984 -0.960393 -0.116811
-20.6003 57.3599 8.70504 0.253694 -0.960853 -0.111359
-19.6261 57.6162 8.7255 0.216896 -0.968306 -0.12385
-18.5876 57.8136 8.73716 0.185083 -0.97722 -0.103851
-17.4824 58.0226 8.74732 0.186766 -0.978655 -0.0857453
-16.5225 58.2036 8.7554 0.171159 -0.982297 -0.0761396
-15.5708 58.3614 8.76145 0.160844 -0.981574 -0.103158
-14.5407 58.5294 8.76834 0.153018 -0.983641 -0.0950544
-13.6248 58.6642 8.77355 0.149243 -0.985027 -0.0863058
-12.4178 58.8457 8.78272 0.140005 -0.98647 -0.0853014
-11.0911 59.0208 8.79271 0.126476 -0.987102 -0.0981527
-9.84977 59.1835 8.79904 0.130818 -0.985671 -0.106481
-8.84728 59.3127 8.80336 0.131558 -0.984776 -0.113613
-7.93328 59.4302 8.80811 0.105421 -0.987265 -0.119139
-6.52229 59.5883 8.81325 0.117928 -0.984227 -0.131871
-5.12974 59.7411 8.82308 0.0960491 -0.984046 -0.149759
-4.11949 59.8345 8.83373 0.0943645 -0.983757 -0.152701
-3.15511 59.918 8.8394 0.0801254 -0.982263 -0.169524
-1.87687 60.0091 8.84545 0.0589449 -0.984391 -0.165831
-0.81913 60.0587 8.85044 0.0392698 -0.981467 -0.187564
0.347513 60.0855 8.85377 0.00863946 -0.980825 -0.194698
1.53675 60.0791 8.85253 -0.0204668 -0.981048 -0.192683
2.77234 60.0458 8.85035 -0.0436188 -0.983009 -0.178302
4.02061 59.9791 8.84711 -0.0656929 -0.983127 -0.170721
5.20957 59.902 8.84148 -0.0790025 -0.984038 -0.159462
6.23939 59.8144 8.83303 -0.0989764 -0.984003 -0.14813
7.38545 59.7013 8.82323 -0.0979579 -0.984139 -0.1479
8.46859 59.5824 8.81433 -0.114737 -0.984481 -0.132784
9.51528 59.4641 8.80657 -0.117231 -0.985696 -0.121076
10.7341 59.31 8.79679 -0.125813 -0.985717 -0.111951
11.6629 59.1874 8.79005 -0.125847 -0.987225 -0.0977206
12.6249 59.0633 8.78398 -0.131174 -0.986636 -0.0966607
13.7763 58.9074 8.7767 -0.145891 -0.98463 -0.0960143
14.7671 58.7561 8.77018 -0.148955 -0.984948 -0.0876879
16.0395 58.5684 8.76186 -0.149566 -0.985148 -0.0843454
17.4252 58.3477 8.75161 -0.166587 -0.982918 -0.0782314
18.6462 58.1323 8.74163 -0.176019 -0.980793 -0.0840344
19.5896 57.9683 8.73138 -0.170325 -0.980774 -0.0952431
20.6953 57.7488 8.7172 -0.215808 -0.97214 -0.0914958
22.0596 57.4341 8.69738 -0.241652 -0.966065 -0.0912289
23.1275 57.1655 8.68077 -0.234425 -0.968701 -0.0816225
24.1467 56.9124 8.66452 -0.277479 -0.953419 -0.118315
25.2795 56.5429 8.6356 -0.314696 -0.943665 -0.102285
26.6427 56.0611 8.59336 -0.330412 -0.936789 -0.115125
27.6546 55.6937 8.56242 -0.342707 -0.932738 -0.112038
28.6423 55.3201 8.53383 -0.362846 -0.926891 -0.0959987
29.697 54.9158 8.50925 -0.357364 -0.929471 -0.0915112
30.5594 54.5841 8.49038 -0.33203 -0.939923 -0.0793722
31.7718 54.1888 8.47657 -0.276287 -0.960266 -0.0394343
32.8261 53.9398 8.47634 -0.222915 -0.974483 -0.0263131
33.9383 53.7215 8.48271 -0.181356 -0.983189 -0.0211986
35.2193 53.5467 8.49134 -0.0763354 -0.997022 -0.0109923
36.5788 53.4726 8.4986 -0.0270937 -0.999613 -0.0062365
37.1916 53.4559 8.50028 -0.013157 -0.999911 -0.00214189
36.9776 53.4567 9.56969 -0.0084547 -0.999961 -0.00265987
35.6219 53.5075 9.56145 -0.0570044 -0.998373 -0.00168307
34.3985 53.6294 9.5517 -0.106087 -0.994178 0.0188636
33.4919 53.782 9.54458 -0.146271 -0.988438 -0.0399307
31.9907 54.0673 9.54172 -0.260278 -0.962818 -0.0723646
30.7156 54.4574 9.554 -0.317361 -0.94629 -0.0617798
29.5919 54.8516 9.572 -0.344416 -0.9359 -0.0739531
28.3893 55.2914 9.60554 -0.343648 -0.93132 -0.120623
27.4335 55.6539 9.63981 -0.340232 -0.934271 -0.106679
26.3724 56.0312 9.6746 -0.337268 -0.934917 -0.110368
25.127 56.4708 9.71494 -0.313558 -0.942621 -0.114662
24.017 56.816 9.74478 -0.280457 -0.952386 -0.119601
22.8364 57.1221 9.77081 -0.260872 -0.958037 -0.118787
21.6958 57.4121 9.79091 -0.234125 -0.967569 -0.0948444
20.4295 57.6916 9.80901 -0.200039 -0.973857 -0.107643
19.4248 57.8895 9.82314 -0.182054 -0.977075 -0.110363
18.224 58.108 9.83728 -0.176056 -0.979803 -0.0948141
17.0445 58.3135 9.84845 -0.161929 -0.982163 -0.0955797
15.787 58.51 9.86078 -0.147802 -0.984783 -0.0914205
14.605 58.6785 9.87113 -0.135978 -0.986414 -0.0921797
13.2187 58.8704 9.87909 -0.137483 -0.985087 -0.103453
12.0177 59.0244 9.88575 -0.123818 -0.986095 -0.110838
10.7576 59.1765 9.8939 -0.115431 -0.98671 -0.114366
9.51147 59.3202 9.904 -0.10646 -0.986117 -0.127433
8.32942 59.4482 9.91429 -0.104493 -0.984674 -0.139637
7.21895 59.5603 9.92297 -0.0944448 -0.986115 -0.136595
6.22976 59.6461 9.92873 -0.0905384 -0.984494 -0.150248
5.25203 59.7256 9.93493 -0.0654067 -0.984609 -0.16207
4.25738 59.7861 9.94122 -0.0531049 -0.985098 -0.163587
3.25876 59.8335 9.94743 -0.0420139 -0.985385 -0.165079
2.23637 59.8768 9.95419 -0.0282949 -0.984551 -0.172797
1.0172 59.8876 9.9532 -0.00839212 -0.984524 -0.175048
-0.194688 59.8708 9.94821 0.0153643 -0.985016 -0.171778
-1.18977 59.8418 9.94538 0.0371344 -0.985726 -0.16421
-2.14027 59.8061 9.94465 0.0403835 -0.985033 -0.167569
-3.31175 59.727 9.93937 0.0710864 -0.985598 -0.153436
-4.27945 59.6487 9.93176 0.088532 -0.983897 -0.155272
-5.20644 59.5675 9.9249 0.0991916 -0.98473 -0.143068
-6.44095 59.45 9.9188 0.0878109 -0.987676 -0.129562
-7.6847 59.3246 9.91353 0.105662 -0.987636 -0.115805
-8.80713 59.1935 9.90639 0.12502 -0.985232 -0.116993
-9.91333 59.0561 9.90002 0.119867 -0.986595 -0.110735
-11.1631 58.9022 9.89081 0.122884 -0.986246 -0.110539
-12.2434 58.7583 9.88186 0.132359 -0.985713 -0.104167
-13.145 58.6306 9.8742 0.143536 -0.98425 -0.103193
-14.3402 58.4461 9.86588 0.159513 -0.981402 -0.106797
-15.3123 58.2885 9.85897 0.157102 -0.982667 -0.0984081
-16.2056 58.1499 9.85179 0.153352 -0.983723 -0.0936594
-17.1272 57.9842 9.84236 0.18538 -0.977911 -0.0965639
-18.3778 57.7374 9.82755 0.205839 -0.973219 -0.102345
-19.4562 57.5152 9.81264 0.216892 -0.968307 -0.123854
-20.4053 57.2853 9.7933 0.23067 -0.967917 -0.0996375
-21.6082 56.9625 9.76706 0.263352 -0.958639 -0.107965
-22.8169 56.5796 9.7289 0.31177 -0.941456 -0.1283
-23.8536 56.2203 9.69663 0.330128 -0.934116 -0.135802
-24.7142 55.9174 9.66804 0.35614 -0.923579 -0.142009
-25.9614 55.4144 9.61239 0.383873 -0.911637 -0.14683
-26.9953 55.0011 9.57491 0.365497 -0.922534 -0.123866
-27.8742 54.6598 9.54694 0.340771 -0.933963 -0.107646
-28.75 54.3636 9.53341 0.303749 -0.947815 -0.0968708
-29.863 54.0577 9.52231 0.2074 -0.975974 -0.0667807
-31.0611 53.7912 9.52289 0.200455 -0.978661 -0.0451777
-31.954 53.6302 9.53047 0.139238 -0.989066 -0.0486004
-33.1154 53.5241 9.53764 0.0823143 -0.995674 -0.0430889
-34.226 53.446 9.54398 0.0392352 -0.998943 -0.0239635
-35.1369 53.4073 9.54935 0.000208102 -0.999994 -0.00334194
-34.7862 53.4179 10.6213 0.0286049 -0.999446 0.0169966
-33.4753 53.4594 10.6109 0.0509249 -0.998701 -0.00182462
-32.4411 53.5393 10.6014 0.071115 -0.997377 -0.0135068
-31.2631 53.7012 10.5896 0.175858 -0.981546 -0.0751071
-30.1996 53.9054 10.5861 0.211232 -0.973194 -0.0909685
-29.2316 54.1156 10.5857 0.214698 -0.97277 -0.087308
-27.7946 54.5661 10.6066 0.309727 -0.942164 -0.128049
-26.4606 55.0578 10.6496 0.360147 -0.922526 -0.13871
-24.9968 55.6312 10.7099 0.373891 -0.915365 -0.149371
-23.9709 56.033 10.7609 0.361656 -0.920072 -0.150573
-22.9938 56.3757 10.7964 0.319288 -0.939135 -0.126806
-22.0331 56.6949 10.8298 0.303046 -0.94509 -0.122345
-20.8836 57.0448 10.8673 0.284817 -0.945811 -0.155951
-19.8387 57.3046 10.8908 0.228849 -0.967935 -0.103588
-18.8611 57.525 10.9088 0.212417 -0.971765 -0.102722
-17.5783 57.7741 10.9261 0.183298 -0.975973 -0.117804
-16.3524 58.0018 10.9414 0.170751 -0.976129 -0.134222
-15.109 58.2012 10.9545 0.160982 -0.980992 -0.108346
-14.1568 58.3565 10.9632 0.16025 -0.981197 -0.107571
-13.2658 58.4916 10.9703 0.147231 -0.983069 -0.109084
-12.3181 58.6285 10.9782 0.129232 -0.985559 -0.109415
-11.2756 58.7645 10.9864 0.126736 -0.985715 -0.110924
-10.1841 58.9005 10.9956 0.120534 -0.98659 -0.110057
-8.96993 59.0437 11.0039 0.109919 -0.986748 -0.119361
-7.75244 59.1791 11.0123 0.111292 -0.984994 -0.131911
-6.63084 59.2883 11.0203 0.0902497 -0.987109 -0.132175
-5.70093 59.3689 11.0249 0.0795757 -0.985612 -0.14912
-4.76688 59.4423 11.0292 0.0775302 -0.985379 -0.151715
-3.74847 59.5236 11.0369 0.0668478 -0.985566 -0.155535
-2.34443 59.6061 11.0444 0.0541177 -0.983964 -0.169958
-0.96833 59.6662 11.0492 0.0403806 -0.985032 -0.167572
-0.0462523 59.6821 11.0501 0.0142728 -0.985119 -0.171279
1.01036 59.6948 11.0526 -0.00534451 -0.985808 -0.16779
2.16673 59.6792 11.0512 -0.0197251 -0.983648 -0.179019
3.39511 59.6437 11.0458 -0.035614 -0.984394 -0.17234
4.67634 59.5857 11.0375 -0.0455187 -0.986477 -0.157451
5.92788 59.5024 11.0294 -0.0674229 -0.986187 -0.151289
7.20497 59.4015 11.0224 -0.0808318 -0.986214 -0.144387
8.11803 59.3203 11.0153 -0.102552 -0.986006 -0.131439
9.15497 59.2157 11.0062 -0.099439 -0.986521 -0.129953
10.53 59.0713 10.9952 -0.10943 -0.986347 -0.123065
11.633 58.9435 10.9876 -0.114584 -0.986126 -0.120109
12.628 58.8214 10.9823 -0.122157 -0.985955 -0.113892
13.8052 58.6762 10.9743 -0.124623 -0.985873 -0.111907
14.928 58.5212 10.9636 -0.147272 -0.982344 -0.115378
15.9541 58.3686 10.9515 -0.147538 -0.982308 -0.115341
17.15 58.1805 10.9404 -0.164929 -0.979565 -0.115113
18.0763 58.0256 10.9309 -0.163589 -0.97995 -0.113741
19.0494 57.8419 10.9182 -0.189496 -0.976628 -0.101434
20.0054 57.6576 10.9047 -0.202923 -0.972993 -0.11003
20.9327 57.4629 10.8905 -0.205801 -0.972116 -0.112415
21.8451 57.2695 10.8774 -0.252354 -0.961929 -0.104927
23.2104 56.8874 10.8423 -0.260875 -0.958036 -0.118791
24.632 56.5018 10.8043 -0.280455 -0.952387 -0.119603
25.8167 56.0821 10.7617 -0.338122 -0.929769 -0.145613
26.7318 55.7552 10.7294 -0.337073 -0.930171 -0.145478
27.8468 55.3478 10.6897 -0.346624 -0.927939 -0.137043
28.995 54.9414 10.6535 -0.321563 -0.93709 -0.135863
29.9851 54.6014 10.6291 -0.310974 -0.945282 -0.0986754
30.9575 54.289 10.6125 -0.305999 -0.947662 -0.0911136
31.8815 54.015 10.6015 -0.236455 -0.970209 -0.052764
33.3579 53.766 10.6124 -0.146651 -0.98888 -0.0246801
34.5043 53.6127 10.623 -0.106667 -0.993697 -0.0344727
35.5815 53.5077 10.6317 -0.0508558 -0.998703 -0.00230746
36.3977 53.4682 10.6378 -0.0290074 -0.999572 -0.00366917
36.4327 53.4801 11.7129 -0.0194033 -0.999712 0.0141375
35.1691 53.5328 11.7026 -0.0718253 -0.997405 0.00497704
34.2278 53.6095 11.6913 -0.142269 -0.988789 -0.0453475
32.9506 53.7882 11.6761 -0.148473 -0.986952 -0.0623059
31.7301 54.0097 11.6707 -0.185467 -0.979078 -0.0837111
30.5455 54.2973 11.6775 -0.28522 -0.952386 -0.107747
29.4285 54.6494 11.7035 -0.313871 -0.941356 -0.123833
28.5224 54.9476 11.729 -0.315417 -0.93884 -0.138172
27.3655 55.356 11.7662 -0.333839 -0.929706 -0.15556
26.1022 55.8119 11.8117 -0.338076 -0.927462 -0.159745
24.8254 56.2725 11.8663 -0.31714 -0.936806 -0.147709
23.933 56.5453 11.8996 -0.278625 -0.949952 -0.141281
22.9678 56.8104 11.9258 -0.266995 -0.955174 -0.12789
21.8812 57.1062 11.9557 -0.255728 -0.95688 -0.137783
20.7728 57.3725 11.9801 -0.206178 -0.972267 -0.110401
19.8626 57.5641 11.9963 -0.202079 -0.973191 -0.109833
18.9291 57.7515 12.0134 -0.193539 -0.975401 -0.105528
17.9472 57.9215 12.0256 -0.162248 -0.98033 -0.112375
16.9617 58.0834 12.0359 -0.163588 -0.979949 -0.113747
15.5687 58.2995 12.0491 -0.153306 -0.981768 -0.112377
14.4402 58.4645 12.0619 -0.129916 -0.983235 -0.127949
13.1921 58.6223 12.0737 -0.122373 -0.984435 -0.126148
12.085 58.7537 12.083 -0.115122 -0.985035 -0.128272
11.0788 58.8703 12.0894 -0.114817 -0.985063 -0.128327
9.9254 58.9956 12.0988 -0.103533 -0.987042 -0.122596
9.01109 59.0829 12.1057 -0.0994046 -0.985771 -0.135551
7.92618 59.1841 12.1136 -0.0820212 -0.986484 -0.141852
6.92581 59.263 12.1209 -0.0746902 -0.986863 -0.143258
5.66737 59.353 12.1298 -0.0641377 -0.986014 -0.153826
4.62085 59.4116 12.1363 -0.0453092 -0.985888 -0.161159
3.58876 59.4542 12.1401 -0.0311398 -0.985892 -0.164461
2.60657 59.4843 12.1424 -0.0242967 -0.986218 -0.163659
1.55493 59.5053 12.146 -0.00661938 -0.985442 -0.169884
0.384279 59.4975 12.1476 0.00994581 -0.98492 -0.172724
-0.77303 59.4813 12.1486 0.0135669 -0.985266 -0.17049
-1.71532 59.447 12.146 0.0452017 -0.985154 -0.165614
-2.68809 59.4035 12.1413 0.0528218 -0.985498 -0.161257
-3.61917 59.3543 12.1366 0.0538812 -0.985259 -0.162365
-4.51839 59.2938 12.1313 0.0728055 -0.984583 -0.159048
-5.76634 59.2001 12.1232 0.0740487 -0.986939 -0.14307
-6.72353 59.1243 12.1168 0.0877663 -0.985921 -0.142328
-8.12715 58.9923 12.107 0.106502 -0.985198 -0.134324
-9.38754 58.8571 12.0982 0.102661 -0.986322 -0.128953
-10.5802 58.7233 12.0888 0.127516 -0.984212 -0.122745
-11.8264 58.564 12.0786 0.12388 -0.98503 -0.11987
-12.9109 58.4203 12.0687 0.144599 -0.98197 -0.121762
-13.8086 58.2844 12.0599 0.149884 -0.982027 -0.114705
-14.7393 58.1433 12.0505 0.155719 -0.981652 -0.110053
-15.9477 57.9366 12.0351 0.172291 -0.978452 -0.113788
-16.9536 57.7579 12.0226 0.183254 -0.975623 -0.120741
-18.1234 57.5291 12.0053 0.19104 -0.972578 -0.13265
-19.4099 57.2692 11.984 0.211335 -0.968676 -0.130402
-20.4729 56.9863 11.9522 0.278782 -0.945634 -0.167503
-21.371 56.7237 11.9226 0.293592 -0.942162 -0.16166
-22.3069 56.43 11.8902 0.300421 -0.938888 -0.168037
-23.6287 55.9884 11.8408 0.34297 -0.925249 -0.162132
-24.5276 55.6394 11.7942 0.375632 -0.911832 -0.165721
-25.6186 55.2088 11.7395 0.358117 -0.919989 -0.159289
-26.4986 54.8733 11.7038 0.337516 -0.929503 -0.148684
-27.4923 54.531 11.6742 0.33333 -0.933906 -0.129269
-28.4228 54.2462 11.6583 0.284981 -0.954332 -0.0896487
-29.5709 53.9477 11.6519 0.218157 -0.972322 -0.0836447
-30.7476 53.7152 11.6547 0.178005 -0.983355 -0.0364217
-32.0308 53.5483 11.6644 0.0651433 -0.997693 -0.0190853
-33.0451 53.4816 11.6767 0.071115 -0.997377 -0.0135065
-33.9714 53.4536 11.6864 0.0260481 -0.999658 0.00212865
-34.5764 53.4379 11.6928 0.0151827 -0.999881 0.00278972
-33.8403 53.4518 12.7554 0.0121414 -0.999798 -0.0159899
-32.5437 53.4948 12.7413 0.0545144 -0.998437 -0.0123416
-31.4034 53.5953 12.7307 0.133501 -0.991049 0.00018579
-30.4935 53.7216 12.7243 0.182516 -0.982574 -0.0351683
-29.573 53.887 12.7222 0.172171 -0.981287 -0.0862189
-28.6887 54.0621 12.7217 0.250467 -0.964727 -0.0810399
-27.4545 54.4187 12.7391 0.262701 -0.958858 -0.107609
-26.5455 54.6996 12.7637 0.318122 -0.936419 -0.148045
-25.4723 55.0802 12.8047 0.358941 -0.918095 -0.168116
-24.3309 55.5201 12.8633 0.371982 -0.908947 -0.18827
-23.228 55.9256 12.9186 0.327668 -0.925421 -0.19034
-22.267 56.2627 12.9608 0.326441 -0.931272 -0.161771
-21.405 56.5465 12.9939 0.289692 -0.946002 -0.145459
-20.447 56.808 13.0243 0.264042 -0.952296 -0.153017
-19.1682 57.1445 13.0639 0.25512 -0.953564 -0.160091
-18.0197 57.4062 13.0919 0.207596 -0.966785 -0.149098
-16.8492 57.6329 13.1102 0.189527 -0.972653 -0.134256
-15.6756 57.8401 13.1268 0.165881 -0.975497 -0.144527
-14.4448 58.0401 13.1432 0.158325 -0.977345 -0.14046
-13.5073 58.1915 13.154 0.149774 -0.979379 -0.135591
-12.5763 58.3232 13.1635 0.135172 -0.981426 -0.136133
-11.6347 58.4442 13.1727 0.125092 -0.983102 -0.133654
-10.1302 58.6401 13.1886 0.126892 -0.981794 -0.141346
-8.90341 58.7609 13.1972 0.0968249 -0.98632 -0.133412
-7.72487 58.8787 13.2058 0.101624 -0.985417 -0.136479
-6.62295 58.9735 13.2132 0.0839651 -0.98561 -0.146707
-5.64251 59.0491 13.2199 0.0742214 -0.986534 -0.145743
-4.73998 59.1073 13.225 0.0592138 -0.987387 -0.146837
-3.77972 59.1639 13.2302 0.0558713 -0.985667 -0.159181
-2.74899 59.2221 13.2372 0.0480273 -0.986379 -0.157323
-1.59424 59.2705 13.2433 0.0429943 -0.9857 -0.162932
-0.568934 59.2961 13.2453 0.00878348 -0.986809 -0.161653
0.698857 59.3105 13.2416 0.0065204 -0.985404 -0.170106
1.85485 59.3118 13.238 -0.0175986 -0.985233 -0.170312
2.8737 59.2929 13.2366 -0.0246582 -0.985678 -0.166829
4.12986 59.255 13.2345 -0.0383705 -0.986056 -0.161933
5.15931 59.2063 13.2292 -0.0469507 -0.985826 -0.161069
6.43868 59.1375 13.2216 -0.0542379 -0.987282 -0.14944
7.61566 59.0506 13.2125 -0.0801355 -0.986033 -0.146005
8.62366 58.9669 13.2059 -0.0818345 -0.986121 -0.144456
9.99451 58.8462 13.197 -0.0914669 -0.985655 -0.141836
11.0087 58.7345 13.1884 -0.1139 -0.984367 -0.134345
12.4839 58.5647 13.174 -0.115481 -0.984923 -0.128804
13.7297 58.4145 13.1617 -0.125369 -0.984279 -0.124407
14.7283 58.2786 13.1509 -0.134944 -0.981322 -0.137102
15.7412 58.1382 13.1412 -0.141128 -0.980334 -0.137941
16.7025 57.9927 13.1322 -0.154734 -0.980904 -0.117831
17.8124 57.8199 13.1198 -0.158256 -0.980761 -0.114294
18.8864 57.6119 13.0993 -0.189724 -0.971742 -0.140433
19.9214 57.409 13.0799 -0.197051 -0.968517 -0.152137
21.24 57.1146 13.0505 -0.226726 -0.961868 -0.152988
22.5612 56.7612 13.0134 -0.269484 -0.951813 -0.146394
23.4947 56.4987 12.9839 -0.284019 -0.945631 -0.158476
24.5139 56.195 12.9466 -0.317331 -0.934097 -0.163599
25.4783 55.8493 12.8969 -0.344534 -0.923148 -0.170574
26.3414 55.5408 12.86 -0.334942 -0.927929 -0.163591
27.6378 55.093 12.815 -0.318413 -0.935768 -0.151497
28.6867 54.7368 12.786 -0.315417 -0.93884 -0.138172
29.6305 54.4225 12.7574 -0.320821 -0.93443 -0.154642
30.7532 54.1267 12.7389 -0.23497 -0.963013 -0.131887
31.7956 53.9224 12.7406 -0.189275 -0.980568 -0.0515835
33.2162 53.6814 12.7487 -0.137909 -0.990186 -0.022632
34.3859 53.5869 12.7649 -0.0790295 -0.99687 -0.00189841
35.3982 53.5208 12.7768 -0.0194026 -0.999584 0.0213255
36.0016 53.5092 12.783 -0.0194026 -0.999584 0.0213255
35.6701 53.5296 13.8517 -0.0271566 -0.99952 0.0149294
34.3287 53.5912 13.8348 -0.0593755 -0.997882 0.0265757
33.0528 53.708 13.8195 -0.113828 -0.993474 0.0073206
32.1073 53.8101 13.8108 -0.0997296 -0.994022 -0.0444344
30.5914 54.043 13.8093 -0.191645 -0.976389 -0.0996834
29.6167 54.2927 13.8228 -0.256414 -0.962927 -0.0838068
28.3572 54.6754 13.8494 -0.277004 -0.950777 -0.138898
27.3104 55.0161 13.8778 -0.319712 -0.933273 -0.163663
26.1957 55.3982 13.919 -0.335618 -0.92621 -0.171742
25.2373 55.7359 13.9665 -0.337612 -0.925181 -0.173373
24.0854 56.1227 14.024 -0.310248 -0.929966 -0.197255
22.5233 56.6033 14.0885 -0.300469 -0.937942 -0.173159
21.2303 56.9477 14.1281 -0.243964 -0.956567 -0.159564
19.963 57.2301 14.1603 -0.204742 -0.966111 -0.157196
19.0637 57.4103 14.1787 -0.183646 -0.970648 -0.155294
17.904 57.6264 14.1997 -0.185415 -0.969914 -0.157763
16.6841 57.8424 14.221 -0.174953 -0.973877 -0.144759
15.7407 57.9819 14.2325 -0.14808 -0.979614 -0.135756
14.7665 58.1267 14.2443 -0.140127 -0.981845 -0.127848
13.7829 58.2656 14.2562 -0.134128 -0.981601 -0.1359
12.887 58.3748 14.2672 -0.115774 -0.984961 -0.128249
11.8639 58.4916 14.2785 -0.109235 -0.985422 -0.130427
10.8599 58.6016 14.2888 -0.111569 -0.984899 -0.132384
9.32359 58.7497 14.2999 -0.0914673 -0.985655 -0.141836
7.96825 58.8602 14.3064 -0.07237 -0.986599 -0.146237
6.75533 58.9495 14.3156 -0.0697341 -0.984831 -0.158889
5.56918 59.02 14.324 -0.0473647 -0.987619 -0.149549
4.38486 59.0663 14.3298 -0.0333574 -0.987129 -0.156408
3.27339 59.1001 14.3328 -0.0307692 -0.986662 -0.159847
2.23799 59.1147 14.3338 -0.0101442 -0.986537 -0.163225
1.01078 59.1224 14.3372 0.0029391 -0.985876 -0.167453
0.0935174 59.1225 14.3382 -0.000244676 -0.986488 -0.163831
-1.03625 59.1087 14.3372 0.0280278 -0.985813 -0.165492
-2.3271 59.0612 14.3323 0.038193 -0.986094 -0.161743
-3.32507 59.0175 14.329 0.0565075 -0.986352 -0.154649
-4.29762 58.9629 14.3238 0.0562215 -0.986406 -0.154412
-5.59849 58.8825 14.3136 0.0694741 -0.985256 -0.156344
-6.93565 58.786 14.3058 0.0783568 -0.985359 -0.151419
-8.29545 58.6664 14.2963 0.0942603 -0.985173 -0.14335
-9.48317 58.5435 14.286 0.113243 -0.983269 -0.14268
-10.605 58.4143 14.2748 0.121234 -0.981791 -0.14625
-11.5466 58.3018 14.2656 0.118798 -0.982614 -0.142675
-12.4612 58.1828 14.2567 0.130326 -0.981638 -0.139289
-13.685 58.0111 14.2429 0.153368 -0.978528 -0.1377
-14.8104 57.8319 14.2285 0.160201 -0.978338 -0.131115
-16.0623 57.6222 14.2084 0.171077 -0.977286 -0.125076
-17.1372 57.4126 14.1865 0.214588 -0.962921 -0.163512
-18.087 57.2066 14.1649 0.21863 -0.961718 -0.165223
-19.3948 56.907 14.1301 0.239701 -0.957786 -0.158714
-20.6417 56.5807 14.092 0.2585 -0.953268 -0.156393
-21.7457 56.2335 14.0428 0.323098 -0.925349 -0.198336
-22.8679 55.8403 13.9882 0.334365 -0.924443 -0.183316
-23.7698 55.522 13.948 0.331024 -0.924942 -0.186831
-24.6459 55.1968 13.9013 0.351245 -0.92042 -0.17162
-25.9283 54.7389 13.8436 0.318616 -0.936298 -0.147752
-27.3756 54.3083 13.8072 0.247755 -0.961642 -0.117739
-28.548 54.0233 13.7928 0.221048 -0.971559 -0.084913
-29.4822 53.8092 13.7889 0.197714 -0.977355 -0.0754109
-30.4326 53.6873 13.7971 0.12024 -0.992038 -0.0374602
-31.4714 53.5613 13.806 0.106505 -0.994166 -0.0170515
-32.3699 53.4819 13.8137 0.0498741 -0.998361 -0.0280581
-33.677 53.4542 13.8258 -0.00433879 -0.999875 0.0151904
-33.8322 53.4549 13.8276 -0.00391585 -0.999869 0.0157347
-33.2666 53.468 14.8992 -0.00700353 -0.999782 0.0196537
-32.035 53.4923 14.8884 0.0231882 -0.999494 0.0217843
-30.5013 53.6181 14.8721 0.0704716 -0.996892 -0.0352233
-29.4321 53.753 14.8643 0.170884 -0.983648 -0.0568874
-28.3458 53.9455 14.8644 0.197354 -0.975374 -0.0984694
-27.2422 54.1938 14.8738 0.253972 -0.958336 -0.130732
-26.1582 54.4851 14.8916 0.289452 -0.946534 -0.142445
-25.0895 54.8285 14.9313 0.300943 -0.938533 -0.169085
-24.0863 55.1847 14.9807 0.348169 -0.917061 -0.194364
-22.7653 55.6624 15.0463 0.326373 -0.924771 -0.195652
-21.9011 55.9495 15.0888 0.320487 -0.925094 -0.20369
-20.7706 56.337 15.1493 0.332812 -0.922139 -0.197222
-19.7454 56.6341 15.1895 0.248511 -0.94874 -0.195282
-18.7329 56.8624 15.2206 0.217577 -0.954788 -0.202584
-17.7686 57.0874 15.2472 0.22278 -0.957488 -0.183266
-16.8365 57.2998 15.2707 0.214902 -0.957459 -0.192586
-15.6205 57.5268 15.2977 0.175704 -0.969534 -0.170681
-14.4304 57.73 15.3194 0.170004 -0.971612 -0.164527
-13.5076 57.8727 15.3331 0.151985 -0.975442 -0.159417
-12.281 58.046 15.349 0.134704 -0.979912 -0.147061
-11.2747 58.1773 15.3607 0.127857 -0.980333 -0.150332
-10.0957 58.3165 15.3734 0.112097 -0.983648 -0.140964
-9.18283 58.4193 15.3824 0.108342 -0.982171 -0.153629
-7.8638 58.5407 15.3936 0.0896814 -0.983913 -0.154509
-6.62075 58.6329 15.4019 0.0736048 -0.984754 -0.157614
-5.27672 58.7264 15.412 0.0688575 -0.984303 -0.162498
-4.34464 58.7897 15.4201 0.0622055 -0.985499 -0.157871
-3.14609 58.846 15.4252 0.0415979 -0.985186 -0.16637
-1.80189 58.9007 15.4278 0.0389442 -0.9849 -0.168686
-0.609551 58.9284 15.4309 0.0198585 -0.98496 -0.171637
0.311329 58.9423 15.4342 0.000526114 -0.987104 -0.160078
1.23999 58.9419 15.434 -0.00332789 -0.986703 -0.1625
2.42985 58.9319 15.4318 -0.0108658 -0.98688 -0.16109
3.35039 58.9201 15.4298 -0.0250601 -0.986263 -0.163269
4.67384 58.8828 15.4242 -0.0338026 -0.986163 -0.162295
5.66073 58.8415 15.4185 -0.053186 -0.985407 -0.161694
6.92676 58.761 15.4083 -0.0617049 -0.985343 -0.159031
7.90255 58.6985 15.4048 -0.0638931 -0.986766 -0.149031
9.05474 58.6088 15.4001 -0.0904893 -0.984764 -0.1485
10.0701 58.5159 15.3931 -0.0926303 -0.984955 -0.145888
11.1397 58.4182 15.3822 -0.0989981 -0.984894 -0.142064
12.4295 58.2781 15.3681 -0.119404 -0.982685 -0.141676
13.7339 58.1114 15.3508 -0.12701 -0.981377 -0.144107
15.018 57.946 15.3355 -0.129513 -0.980523 -0.147654
16.2 57.7594 15.3165 -0.160248 -0.975735 -0.149206
17.1146 57.6058 15.3005 -0.169873 -0.97419 -0.148648
18.5801 57.3375 15.2718 -0.196586 -0.968344 -0.15383
19.8219 57.076 15.2417 -0.209345 -0.963152 -0.168856
21.0702 56.7957 15.2064 -0.23929 -0.954553 -0.177673
22.4215 56.4263 15.1557 -0.295947 -0.933113 -0.204244
23.3119 56.146 15.116 -0.302306 -0.932504 -0.197605
24.7169 55.7016 15.0494 -0.318677 -0.928211 -0.192012
26.0421 55.242 14.9783 -0.322796 -0.928255 -0.184784
27.4416 54.7806 14.9237 -0.318601 -0.931783 -0.173993
28.3429 54.5286 14.9081 -0.277117 -0.951567 -0.133139
29.5984 54.1945 14.8918 -0.22767 -0.966876 -0.115405
30.5478 53.9723 14.8837 -0.155426 -0.985637 -0.066053
31.4489 53.8339 14.8829 -0.101774 -0.993225 -0.0560843
32.3993 53.7328 14.8862 -0.099729 -0.994022 -0.04443
33.3915 53.6497 14.8947 -0.0742898 -0.997025 -0.0205694
34.4549 53.6071 14.9064 -0.0264462 -0.999365 -0.0238582
35.1872 53.5689 14.9161 -0.0458232 -0.99865 0.0244497
34.4101 53.5922 15.9812 -0.0178966 -0.999838 0.00176599
33.4388 53.6176 15.971 -0.0549986 -0.998226 -0.022794
32.3114 53.6925 15.9637 -0.0735793 -0.996482 -0.0401197
31.2676 53.7863 15.9589 -0.152107 -0.985679 -0.0728041
30.2395 53.9414 15.9569 -0.181374 -0.980382 -0.0771681
28.7048 54.2783 15.96 -0.198295 -0.974717 -0.102988
27.7363 54.5274 15.9761 -0.249675 -0.948819 -0.193402
26.7932 54.7905 15.9991 -0.301131 -0.93499 -0.187385
25.599 55.1702 16.0523 -0.300668 -0.933114 -0.197224
24.2133 55.6353 16.1268 -0.318796 -0.92309 -0.215116
22.918 56.0434 16.1914 -0.295281 -0.934034 -0.200974
21.9179 56.3386 16.2353 -0.287535 -0.935722 -0.204324
20.9505 56.6012 16.2744 -0.24597 -0.945667 -0.212634
20.0567 56.8225 16.3075 -0.235006 -0.948669 -0.211658
19.1059 57.0432 16.3372 -0.207286 -0.964019 -0.166433
17.9896 57.259 16.3628 -0.186494 -0.963861 -0.190239
16.6562 57.5142 16.3953 -0.194181 -0.96363 -0.183603
15.7355 57.6696 16.4128 -0.161883 -0.975791 -0.147056
14.735 57.815 16.4281 -0.126967 -0.979362 -0.157257
13.8116 57.9291 16.4396 -0.131525 -0.977866 -0.162724
12.6517 58.0924 16.4578 -0.141452 -0.976867 -0.160381
11.5382 58.2101 16.4688 -0.103744 -0.982424 -0.155176
10.5087 58.3107 16.4794 -0.0950769 -0.982813 -0.158239
9.53698 58.4061 16.4906 -0.0935514 -0.985208 -0.14357
8.56652 58.4846 16.4987 -0.0720223 -0.985063 -0.156407
7.15056 58.5734 16.5059 -0.0605582 -0.985881 -0.156113
5.75646 58.6565 16.512 -0.0592827 -0.98587 -0.156673
4.27312 58.7151 16.5202 -0.0321441 -0.984573 -0.171998
3.16408 58.7393 16.5257 -0.0180622 -0.985927 -0.166197
2.09034 58.7545 16.5289 -0.0142809 -0.985949 -0.166435
0.838828 58.7592 16.5276 -0.000780474 -0.985262 -0.171053
-0.40928 58.7418 16.5237 0.0180192 -0.98458 -0.174002
-1.38061 58.7201 16.5228 0.0223432 -0.984517 -0.173858
-2.36809 58.6892 16.5213 0.0375377 -0.984551 -0.17103
-3.61093 58.6406 16.5156 0.0411231 -0.984335 -0.171447
-4.56423 58.5929 16.5103 0.0667802 -0.984031 -0.164997
-5.63568 58.5215 16.5022 0.0661864 -0.983886 -0.166095
-6.57658 58.4571 16.4949 0.0691178 -0.984355 -0.162075
-7.48246 58.394 16.4892 0.0732786 -0.983215 -0.167087
-8.44838 58.3069 16.4807 0.0992923 -0.980661 -0.168655
-9.91053 58.1577 16.4674 0.111485 -0.978556 -0.173201
-10.8515 58.046 16.4542 0.119544 -0.976433 -0.179691
-11.9481 57.9131 16.4402 0.122006 -0.975758 -0.181688
-13.1414 57.7495 16.423 0.151617 -0.974987 -0.162517
-14.2532 57.577 16.4044 0.160665 -0.972944 -0.166032
-15.2568 57.4103 16.3841 0.192324 -0.967406 -0.164735
-16.283 57.1854 16.3547 0.202724 -0.961608 -0.184969
-17.2545 56.9861 16.3294 0.206993 -0.957286 -0.201883
-18.5785 56.6835 16.2915 0.241951 -0.948746 -0.203324
-19.7897 56.3902 16.2516 0.231571 -0.950784 -0.205875
-20.791 56.0934 16.2033 0.334872 -0.915588 -0.222618
-21.9196 55.7074 16.1399 0.317436 -0.923803 -0.214062
-22.8223 55.407 16.0952 0.324993 -0.92035 -0.217568
-24.2226 54.9022 16.0204 0.348827 -0.913508 -0.209339
-25.5844 54.4662 15.9665 0.269064 -0.947298 -0.173869
-26.9405 54.1196 15.9402 0.239178 -0.962003 -0.131693
-28.1917 53.8723 15.9365 0.165598 -0.977912 -0.127537
-29.4367 53.6863 15.9407 0.118646 -0.992636 -0.0244451
-30.8573 53.555 15.9541 0.0705914 -0.996906 -0.0345599
-32.0545 53.5111 15.9674 0.0261632 -0.999547 0.0148779
-32.8509 53.4905 15.9747 0.00829872 -0.999775 0.0195258
-32.4594 53.5277 17.0497 0.0116515 -0.999394 0.0327955
-30.9995 53.5528 17.0351 0.0240831 -0.99954 -0.0184405
-29.6378 53.6243 17.0216 0.0982446 -0.994866 -0.0242783
-28.6073 53.7349 17.0136 0.0977106 -0.994266 -0.0434461
-27.621 53.8354 17.0045 0.177548 -0.979996 -0.089913
-26.5931 54.0645 17.0122 0.184697 -0.973533 -0.134611
-25.5389 54.2786 17.0289 0.233522 -0.950281 -0.205996
-24.3439 54.6465 17.0698 0.308505 -0.931134 -0.194459
-23.2716 54.9976 17.1154 0.332036 -0.91665 -0.222497
-22.2148 55.3635 17.1731 0.320912 -0.920005 -0.224958
-21.0925 55.735 17.2357 0.304015 -0.923364 -0.234465
-20.1237 56.0278 17.2857 0.292428 -0.924028 -0.246287
-18.8837 56.3747 17.3415 0.233101 -0.947896 -0.217157
-17.7008 56.6564 17.3803 0.220949 -0.951628 -0.213508
-16.4159 56.9455 17.4193 0.224027 -0.954966 -0.194555
-15.0168 57.2444 17.4622 0.198805 -0.957869 -0.207275
-14.095 57.4039 17.4859 0.15966 -0.966625 -0.200361
-13.0821 57.556 17.506 0.141885 -0.969535 -0.199674
-11.7963 57.7274 17.5253 0.127146 -0.975565 -0.179182
-10.8049 57.8578 17.54 0.130959 -0.975955 -0.174248
-9.44566 58.0206 17.5601 0.118919 -0.97853 -0.168337
-8.32072 58.1309 17.5727 0.0970017 -0.981263 -0.166474
-7.33494 58.212 17.5791 0.0688528 -0.979776 -0.18788
-6.23516 58.2908 17.5871 0.0755486 -0.979414 -0.187192
-5.17409 58.3642 17.5958 0.0670237 -0.982652 -0.172926
-4.22744 58.421 17.6026 0.0423777 -0.982981 -0.178751
-3.31493 58.4595 17.6074 0.0409085 -0.983478 -0.176343
-2.13398 58.5085 17.6131 0.0418358 -0.984684 -0.169252
-0.649887 58.5423 17.615 0.0205255 -0.98427 -0.175474
0.739771 58.5669 17.6184 0.0119919 -0.98325 -0.181869
1.8894 58.5723 17.6225 -0.0060873 -0.985843 -0.167561
3.09303 58.5568 17.6207 -0.0213938 -0.986064 -0.164984
4.40505 58.5195 17.615 -0.0321426 -0.984574 -0.171993
5.68112 58.4785 17.6111 -0.0300642 -0.98595 -0.164314
6.65825 58.428 17.6067 -0.0591377 -0.985824 -0.157016
7.82607 58.3551 17.5991 -0.0611743 -0.984794 -0.162598
8.87351 58.2874 17.5909 -0.0879829 -0.983265 -0.159527
9.81299 58.1984 17.5767 -0.095796 -0.981532 -0.165583
10.8094 58.1041 17.5651 -0.0946236 -0.982175 -0.162412
11.7651 58.0105 17.5561 -0.102052 -0.981354 -0.162878
13.1114 57.8497 17.5393 -0.14288 -0.976972 -0.158465
14.0969 57.7062 17.5221 -0.133109 -0.974377 -0.181306
15.1568 57.5678 17.5064 -0.129934 -0.974043 -0.185357
16.1416 57.4086 17.4854 -0.167601 -0.968383 -0.18478
17.0971 57.2275 17.4614 -0.199049 -0.963897 -0.176867
18.0969 57.0234 17.4327 -0.190467 -0.961301 -0.199054
18.9969 56.8496 17.4097 -0.216242 -0.955619 -0.200078
20.005 56.6009 17.3725 -0.250409 -0.943781 -0.215808
21.1527 56.3066 17.326 -0.250177 -0.942974 -0.21957
22.3592 55.9782 17.2747 -0.27627 -0.932317 -0.233366
23.5993 55.5861 17.206 -0.310986 -0.922432 -0.228926
24.8683 55.1718 17.1383 -0.318754 -0.922456 -0.217876
26.0572 54.7989 17.0823 -0.300614 -0.93077 -0.208082
26.9956 54.5241 17.0485 -0.287322 -0.938421 -0.191864
28.1462 54.2367 17.026 -0.178466 -0.9751 -0.131641
29.1577 54.0507 17.0244 -0.182448 -0.974483 -0.130754
30.0507 53.8835 17.0245 -0.158675 -0.982524 -0.0973103
30.9862 53.7762 17.0328 -0.114744 -0.992952 -0.0296516
32.0314 53.6709 17.0399 -0.0567614 -0.998096 -0.0241507
33.1778 53.6253 17.0488 -0.0430158 -0.999052 -0.00672049
34.1329 53.6005 17.056 -0.0195043 -0.999804 0.00341838
33.6463 53.6238 18.1294 -0.00966192 -0.999884 0.0117395
32.1529 53.6605 18.1181 -0.0368789 -0.999308 -0.00474781
31.1706 53.6945 18.1063 -0.0345717 -0.999384 -0.00608225
29.9464 53.8287 18.0953 -0.134625 -0.988847 -0.0636968
28.7661 53.97 18.0908 -0.142181 -0.981334 -0.129494
27.8055 54.1389 18.0979 -0.172192 -0.972855 -0.154607
26.4089 54.485 18.1249 -0.274237 -0.94648 -0.170203
25.4376 54.7549 18.1593 -0.298928 -0.93005 -0.213656
24.3493 55.0941 18.2122 -0.304537 -0.928068 -0.214354
23.3242 55.4137 18.2671 -0.284515 -0.932014 -0.224501
22.1955 55.7486 18.3277 -0.283084 -0.926794 -0.246811
20.8944 56.1145 18.3894 -0.256203 -0.933807 -0.249729
19.6189 56.4448 18.4429 -0.257663 -0.937782 -0.232754
18.4519 56.7268 18.4903 -0.207707 -0.949458 -0.235346
17.4125 56.9388 18.5222 -0.198938 -0.956247 -0.214512
16.4715 57.1167 18.5489 -0.18705 -0.955342 -0.228765
15.3582 57.3082 18.5763 -0.176142 -0.960166 -0.216921
14.2997 57.4793 18.6011 -0.143663 -0.969607 -0.198051
13.0831 57.6527 18.6226 -0.140851 -0.971115 -0.192606
11.8885 57.8049 18.6416 -0.11383 -0.975142 -0.190107
10.7596 57.9257 18.6564 -0.0966184 -0.978467 -0.182391
9.63351 58.0296 18.6703 -0.090315 -0.980775 -0.172987
8.56131 58.1176 18.6836 -0.0754624 -0.980933 -0.179098
7.59865 58.1883 18.6948 -0.0627115 -0.984753 -0.162259
6.64362 58.2457 18.7011 -0.0592711 -0.982448 -0.176871
5.72388 58.2912 18.7058 -0.0352926 -0.98357 -0.177044
4.78365 58.3182 18.7072 -0.0313201 -0.984932 -0.170085
3.55307 58.3584 18.7121 -0.0315295 -0.985306 -0.167861
2.48074 58.3764 18.7134 -0.00378147 -0.984197 -0.177039
1.37075 58.3722 18.7101 0.0118826 -0.984056 -0.177462
0.0925417 58.3575 18.7063 0.0113193 -0.985008 -0.172138
-1.24585 58.3352 18.7035 0.0225273 -0.984359 -0.17473
-2.43103 58.3015 18.6999 0.0458606 -0.98227 -0.181776
-3.78298 58.2414 18.6918 0.0416696 -0.982831 -0.179744
-4.81541 58.189 18.6857 0.0685562 -0.98083 -0.182409
-5.75191 58.1225 18.677 0.0787314 -0.979925 -0.183161
-6.78096 58.0422 18.6675 0.0721995 -0.979601 -0.187537
-7.96123 57.9502 18.6587 0.0792797 -0.9767 -0.199429
-9.38815 57.8254 18.6434 0.112289 -0.971069 -0.210753
-10.4796 57.6923 18.6256 0.116784 -0.972866 -0.199732
-11.6386 57.5446 18.6091 0.142387 -0.970484 -0.194647
-12.8035 57.3713 18.585 0.139447 -0.968655 -0.205579
-13.9658 57.1858 18.5572 0.185622 -0.955083 -0.230999
-15.3463 56.9272 18.5143 0.194052 -0.950919 -0.241032
-16.6905 56.6551 18.4753 0.215024 -0.949976 -0.22652
-17.6962 56.4196 18.4404 0.239922 -0.94745 -0.211604
-18.9415 56.1181 18.3917 0.266865 -0.935975 -0.229637
-20.1737 55.7346 18.3264 0.296231 -0.923619 -0.24326
-21.0998 55.4554 18.2793 0.290442 -0.924802 -0.245732
-22.2881 55.0794 18.2127 0.320916 -0.91545 -0.242826
-23.3334 54.7343 18.1568 0.294435 -0.936316 -0.191363
-24.499 54.3797 18.1146 0.244185 -0.955941 -0.162946
-25.5478 54.1233 18.0961 0.258204 -0.962167 -0.0869817
-26.5982 53.9226 18.0871 0.173566 -0.98172 -0.0781039
-27.9278 53.7345 18.0886 0.113934 -0.991838 -0.0572457
-28.8971 53.6553 18.0967 0.0725729 -0.99648 -0.0419722
