1.50682 69.359 0.172516 -0.0160691 -0.999638 0.00150742
0.65168 69.354 0.611333 -0.0077196 -0.999825 -0.0157482
0.227863 69.3749 -0.256187 -0.0140466 -0.999753 -0.0172372
1.36587 69.3512 -0.529471 -0.0214841 -0.997826 0.0513323
1.51888 69.358 0.131851 -0.0307349 -0.999378 0.0172766
2.37386 69.2976 0.158331 -0.156186 -0.987702 0.00718124
2.24212 69.3111 -0.787334 -0.132291 -0.987803 0.0606344
1.51554 69.2694 -1.42704 -0.0260066 -0.994334 0.103071
0.401441 69.3077 -1.46903 -0.0638456 -0.994296 0.0854311
-0.395275 69.3384 -0.885936 0.149306 -0.986359 0.0693134
-0.584182 69.307 0.311688 0.112435 -0.987813 -0.104893
0.0464173 69.2743 1.154 0.0945244 -0.992027 -0.0833464
0.975844 69.2922 1.4381 0.00890192 -0.994196 -0.107213
1.95112 69.326 0.976168 -0.0551932 -0.991583 -0.106919
2.21246 69.3268 0.664394 -0.162391 -0.985196 -0.0347944
2.89746 69.1744 1.11156 -0.168595 -0.982691 -0.0767701
3.224 69.1622 0.0226226 -0.158185 -0.987353 0.00999251
2.95072 69.1907 -1.20291 -0.132279 -0.987805 0.0606322
2.07069 69.1847 -2.10357 -0.0651937 -0.991469 0.105777
1.05459 69.1801 -2.35905 -0.0222139 -0.993495 0.111686
0.129405 69.1421 -2.22797 0.0404178 -0.984115 0.162399
-0.801952 69.1823 -1.63617 0.142235 -0.974915 0.171202
-1.42771 69.1962 -0.696072 0.148148 -0.986463 0.0703068
-1.39068 69.1821 0.456545 0.127041 -0.987742 -0.0900378
-0.934921 69.1635 1.43777 0.101212 -0.992621 -0.062889
0.170701 69.204 2.1314 0.0870819 -0.993235 -0.0761068
1.06565 69.1841 2.28565 -0.00303012 -0.983471 -0.18104
2.14104 69.1868 1.9071 -0.110649 -0.979154 -0.170337
2.60507 69.1939 1.50298 -0.134193 -0.984997 -0.10018
3.28612 69.0512 1.9865 -0.0982407 -0.980703 -0.169027
3.79583 69.0267 1.15335 -0.16369 -0.984379 -0.0640503
4.04908 69.0219 -0.143345 -0.173566 -0.984721 0.0132361
3.9219 69.0287 -1.1046 -0.182497 -0.981317 0.0489674
3.44601 69.0469 -1.93397 -0.177692 -0.978832 0.10156
2.73339 69.0717 -2.68086 -0.0727261 -0.99059 0.112056
1.80567 69.0677 -3.07305 -0.0440042 -0.989656 0.136548
0.914714 69.0872 -3.21277 0.0253445 -0.992186 0.112513
-0.484979 69.0175 -2.84725 0.0796515 -0.984649 0.154903
-1.54163 69.0444 -2.04075 0.0855746 -0.986283 0.141152
-2.16598 69.0472 -1.14941 0.155635 -0.984441 0.081223
-2.3402 69.0739 -0.0968157 0.204576 -0.977777 -0.00760623
-2.00312 69.0417 1.25408 0.12084 -0.990119 -0.0699212
-1.18849 69.0781 2.37795 0.101212 -0.992621 -0.062889
-0.0804075 69.0632 2.91862 0.0574827 -0.984373 -0.166451
1.00484 69.0295 3.12657 -0.00265587 -0.983419 -0.181327
1.91653 69.0034 2.97653 -0.0805665 -0.975985 -0.202389
2.83587 69.0268 2.38993 -0.0982438 -0.980704 -0.169021
3.2611 68.8666 3.10984 -0.0926889 -0.983117 -0.157767
3.94506 68.8925 2.52361 -0.167884 -0.975316 -0.139683
4.56749 68.8651 1.54452 -0.173563 -0.982771 -0.0635312
4.91478 68.861 0.446319 -0.185428 -0.981469 -0.0483152
4.90182 68.8639 -0.493461 -0.181229 -0.983308 0.0152009
4.54753 68.8646 -1.76399 -0.146166 -0.986691 0.0712441
3.82798 68.8772 -2.81331 -0.1884 -0.974554 0.121451
2.81303 68.908 -3.5803 -0.101989 -0.975848 0.192919
1.75802 68.9128 -3.96621 -0.0412961 -0.977685 0.20544
0.372356 68.9067 -4.0206 0.0176945 -0.977487 0.210254
-0.515999 68.8598 -3.84728 0.0685211 -0.985796 0.153334
-1.39252 68.8838 -3.27155 0.0849948 -0.986783 0.137967
-2.20902 68.9077 -2.57402 0.138292 -0.982403 0.118352
-2.85068 68.8901 -1.58848 0.173434 -0.980226 0.0952753
-3.13206 68.8862 -0.653214 0.210861 -0.976443 0.0448655
-3.08141 68.8867 0.510484 0.203706 -0.977607 -0.0528027
-2.76387 68.9221 1.40744 0.163386 -0.98465 -0.0503493
-1.99626 68.9252 2.75704 0.1522 -0.984685 -0.0850367
-1.25117 68.9138 3.32508 0.0958275 -0.978896 -0.178839
-0.425203 68.8969 3.74474 0.0690443 -0.980368 -0.184622
0.868659 68.8764 3.96376 -0.00186455 -0.983739 -0.179595
2.36742 68.8543 3.68292 -0.0668834 -0.985342 -0.156931
2.39817 68.8548 3.66637 -0.0786352 -0.983983 -0.159524
3.15845 68.8627 3.19441 -0.0915408 -0.98287 -0.159941
