-66.1838 51.4579 -1.1031 0.221499 -0.963138 0.147611
-67.0855 51.2189 -1.15859 0.23983 -0.954438 0.177569
-68.2511 50.7845 -1.22729 0.446104 -0.89219 0.0706234
-69.4235 50.2091 -1.33679 0.424912 -0.902381 0.0718226
-70.3358 49.5849 -1.48347 0.648214 -0.717674 0.216524
-70.9657 48.8925 -1.56126 0.711747 -0.693427 0.109141
-71.8331 48.0465 -1.54624 0.73261 -0.674887 0.0448035
-72.48 46.9974 -1.06367 0.870098 -0.49012 0.0519018
-72.5329 46.9933 -0.164023 0.867613 -0.495408 0.00815148
-72.3349 47.2656 0.870666 0.888457 -0.455142 -0.0157483
-71.7542 48.2219 1.28442 0.847852 -0.478588 -0.228254
-71.2489 48.9755 1.35847 0.650711 -0.675 -0.303094
-70.4473 49.4667 1.20716 0.557226 -0.81326 -0.144031
-69.6209 50.1816 1.19451 0.666416 -0.732159 -0.14083
-68.4828 50.722 1.20111 0.317006 -0.90854 -0.269655
-67.3454 51.1772 1.16972 0.321954 -0.925358 -0.149254
-66.1125 51.4314 1.06329 0.174858 -0.981905 -0.0727191
-64.9143 51.6783 1.05617 0.196594 -0.976349 -0.0891446
-63.8214 51.9032 1.10538 0.212799 -0.971538 -0.104073
-62.3481 52.1573 1.19606 0.141804 -0.977447 -0.15649
-61.4095 52.3046 1.17194 0.179292 -0.972544 -0.148368
-60.3501 52.5092 1.11092 0.160074 -0.980512 -0.101869
-59.4343 52.6474 0.995871 0.121637 -0.984223 -0.128488
-58.3794 52.7873 1.01073 0.154827 -0.979645 -0.127765
-57.2672 52.9506 0.99458 0.178423 -0.979788 -0.0730331
-56.699 53.133 0.214011 0.220333 -0.97408 -0.0491015
-56.9471 53.0494 -0.780714 0.160998 -0.98561 0.0514981
-57.876 52.8781 -1.1539 0.173457 -0.979798 0.0905308
-58.8214 52.7447 -1.2135 0.117755 -0.990457 0.0716145
-59.8959 52.6024 -1.2059 0.154518 -0.984424 0.0838613
-60.8421 52.4693 -1.14719 0.155012 -0.981979 0.106831
-62.2353 52.21 -0.99425 0.200977 -0.977655 0.0582042
-63.5499 51.9563 -0.89714 0.207214 -0.977586 0.0369822
-64.6884 51.7649 -0.912669 0.119862 -0.989235 0.0839535
-65.8342 51.5324 -1.0685 0.195612 -0.973266 0.120368
-65.5278 51.4351 -2.03482 0.209976 -0.938064 0.275192
-64.4112 51.6376 -1.94331 0.138044 -0.96961 0.201989
-63.0537 51.94 -1.9624 0.209055 -0.958518 0.192019
-61.8476 52.1476 -2.00462 0.164225 -0.964534 0.206479
-60.5923 52.3416 -2.09805 0.148856 -0.962382 0.227295
-59.7029 52.4901 -2.14003 0.164385 -0.953258 0.252763
-58.7456 52.6416 -2.13361 0.146556 -0.952092 0.268407
-57.5174 52.8191 -2.11242 0.157984 -0.967729 0.185875
-56.3807 53.0402 -1.90453 0.240433 -0.941653 0.228212
-55.9178 53.2684 -1.16337 0.289611 -0.95656 0.0334558
-55.7511 53.3455 0.0201437 0.247304 -0.96782 -0.0241135
-55.7166 53.2977 1.11966 0.262426 -0.956065 -0.129908
-56.2397 53.0662 1.86754 0.227861 -0.965148 -0.125965
-57.177 52.8154 2.02207 0.181108 -0.967175 -0.171822
-58.66 52.616 1.9841 0.145176 -0.978431 -0.145556
-60.1021 52.3458 2.04144 0.17392 -0.959331 -0.222343
-61.0757 52.1812 2.10087 0.139366 -0.962793 -0.231532
-62.1784 52.0216 2.123 0.14245 -0.968117 -0.204162
-63.1558 51.8729 2.08291 0.158622 -0.970918 -0.179293
-64.1598 51.7117 2.04765 0.196435 -0.948122 -0.239116
-65.6098 51.43 2.00095 0.19276 -0.927258 -0.320781
-66.4925 51.2122 2.06212 0.235054 -0.948841 -0.210831
-67.3444 50.9125 2.12657 0.383541 -0.892193 -0.238512
-68.2275 50.5288 2.15222 0.317006 -0.90854 -0.269655
-69.135 50.165 2.18645 0.336215 -0.856178 -0.392324
-70.1975 49.3954 2.15805 0.572461 -0.7741 -0.268207
-70.9354 48.8501 2.26975 0.537915 -0.794448 -0.281669
-71.5518 48.0737 2.24733 0.782258 -0.556324 -0.279434
-72.2336 47.0401 2.10169 0.843723 -0.497663 -0.201152
-72.8065 46.374 1.50368 0.847166 -0.508623 -0.128748
-73.0055 46.1659 0.0929057 0.867141 -0.496165 -0.0417208
-73.001 46.0087 -0.826549 0.898981 -0.429364 0.0864823
-72.7268 46.2232 -1.96066 0.889333 -0.424338 0.170365
-72.1557 47.2373 -2.4257 0.856292 -0.424983 0.272731
-71.4543 48.0111 -2.47368 0.709301 -0.618275 0.338532
-70.6206 48.979 -2.47794 0.63799 -0.697318 0.303974
-69.6733 49.7259 -2.33852 0.543991 -0.779207 0.309693
-68.6638 50.3981 -2.22607 0.427576 -0.830023 0.354851
-67.7364 50.8138 -2.16867 0.315954 -0.920476 0.226534
-66.7557 51.112 -2.13038 0.25169 -0.924605 0.285799
-65.9701 51.3197 -2.06854 0.223743 -0.936386 0.270407
-65.8111 51.0785 -3.0287 0.214223 -0.914658 0.341277
-67.0642 50.7317 -3.08919 0.251697 -0.924601 0.285805
-68.1186 50.2929 -3.09299 0.379322 -0.855802 0.351621
-69.1907 49.6721 -3.21613 0.450937 -0.837477 0.308687
-70.0103 49.1136 -3.34444 0.536366 -0.789548 0.296257
-70.8715 48.1964 -3.37709 0.715758 -0.615729 0.329497
-71.4661 47.4832 -3.35223 0.720873 -0.596397 0.352372
-72.1197 46.5842 -3.24641 0.820825 -0.440153 0.363567
-72.8095 45.6179 -2.92919 0.843776 -0.44723 0.282088
-73.2578 45.0997 -1.99827 0.895465 -0.415467 0.158909
-73.4667 45.0393 -0.891813 0.898531 -0.421145 0.118856
-73.4519 45.338 0.476487 0.896358 -0.435307 0.083963
-73.3345 45.4591 1.4268 0.861776 -0.505197 -0.0453013
-73.0602 45.6471 2.48557 0.815817 -0.54989 -0.178943
-72.2531 46.5847 3.03563 0.789375 -0.481067 -0.380179
-71.7205 47.3297 3.13732 0.763698 -0.479535 -0.432218
-70.7778 48.5109 3.1542 0.642562 -0.661619 -0.38649
-70.1157 49.1296 3.09976 0.572461 -0.774099 -0.268212
-69.1297 49.7879 3.09603 0.489065 -0.782498 -0.385372
-68.2989 50.1613 3.10826 0.379704 -0.872125 -0.308583
-67.2277 50.6443 3.0701 0.317067 -0.87597 -0.354481
-66.3494 50.9339 2.97581 0.211302 -0.904665 -0.366298
-65.2632 51.1842 2.90457 0.200782 -0.923046 -0.328137
-64.328 51.3818 2.93837 0.225333 -0.922056 -0.314277
-63.2605 51.6115 3.01055 0.200626 -0.920959 -0.333453
-62.3122 51.785 3.04556 0.155559 -0.944224 -0.283159
-61.2354 51.9306 3.03846 0.107805 -0.95158 -0.287878
-60.0994 52.1112 2.98272 0.166625 -0.951181 -0.259665
-59.0208 52.2949 2.95526 0.134577 -0.953713 -0.268924
-57.5515 52.517 2.99647 0.170242 -0.943364 -0.28475
-56.5191 52.7484 2.95296 0.231623 -0.927534 -0.293311
-55.5843 53.0139 2.79913 0.224707 -0.950915 -0.211901
-54.8522 53.4392 1.95423 0.349557 -0.924056 -0.151795
-54.7307 53.6284 0.783189 0.303771 -0.943648 -0.126386
-54.857 53.6756 -0.280409 0.35496 -0.931308 -0.081659
-54.9435 53.5668 -1.20978 0.404834 -0.908567 0.0906038
-55.1274 53.3694 -2.163 0.276004 -0.939841 0.192924
-55.9886 52.886 -2.95378 0.24043 -0.941653 0.228216
-57.168 52.606 -3.1075 0.164483 -0.938375 0.300997
-58.0645 52.4848 -3.07098 0.146082 -0.953064 0.265195
-59.3232 52.2919 -3.05906 0.166539 -0.939568 0.29659
-60.3115 52.1457 -3.06651 0.142423 -0.958591 0.246602
-61.4714 51.9796 -2.95829 0.189152 -0.924078 0.331941
-62.567 51.7642 -2.9766 0.175769 -0.92602 0.334054
-63.9381 51.5035 -2.89872 0.19146 -0.925437 0.326774
-64.9415 51.2743 -2.9708 0.186524 -0.925703 0.329065
-65.0414 51.2525 -2.97545 0.186524 -0.925703 0.329065
-65.0816 50.8988 -3.94785 0.19235 -0.926091 0.324503
-66.297 50.5578 -4.04066 0.271026 -0.905667 0.324207
-67.2559 50.2652 -4.01783 0.315433 -0.863759 0.389087
-68.1652 49.8624 -4.01108 0.381982 -0.838106 0.389446
-68.9868 49.415 -4.13061 0.456041 -0.774973 0.428165
-69.76 48.7907 -4.22928 0.526495 -0.715619 0.459012
-70.4596 48.1174 -4.25194 0.633105 -0.59384 0.494111
-71.2781 47.1229 -4.20462 0.708332 -0.524491 0.472415
-72.0395 46.0346 -4.10398 0.806694 -0.447398 0.386109
-72.5465 45.28 -3.95533 0.799589 -0.469426 0.374563
-73.1636 44.6045 -3.38569 0.83897 -0.403907 0.364674
-73.6798 44.2331 -2.28046 0.838162 -0.48503 0.249462
-73.9564 44.0833 -1.23253 0.85464 -0.507638 0.109063
-73.9692 44.244 -0.330685 0.850961 -0.52001 0.0738592
-73.8835 44.5527 0.854853 0.843135 -0.530049 0.0883196
-73.7732 44.6398 1.89621 0.893817 -0.444255 -0.0610665
-73.504 44.6981 2.76901 0.84548 -0.443709 -0.297128
-72.9734 45.0154 3.54944 0.782605 -0.473923 -0.403642
-72.2756 45.8536 3.9433 0.80697 -0.469572 -0.358192
-71.6154 46.7589 4.02373 0.720802 -0.578073 -0.382462
-71.0245 47.5564 4.06476 0.703781 -0.531288 -0.471621
-70.1979 48.5268 4.02511 0.582983 -0.676224 -0.445551
-69.0148 49.3947 3.95357 0.481338 -0.757051 -0.4418
-67.7255 50.0102 4.00385 0.327257 -0.841763 -0.428382
-66.3049 50.5407 3.86481 0.253039 -0.87954 -0.402914
-65.2006 50.8581 3.81772 0.195596 -0.917488 -0.346351
-64.1059 51.0962 3.86832 0.225685 -0.913869 -0.337504
-62.7704 51.3636 3.93165 0.171749 -0.918371 -0.356506
-61.5333 51.583 3.94896 0.163696 -0.91879 -0.359205
-60.3323 51.7853 3.91912 0.127828 -0.918798 -0.373456
-59.2524 51.9718 3.88146 0.150557 -0.92684 -0.343183
-57.7065 52.1792 3.93781 0.168406 -0.927261 -0.333253
-56.605 52.4165 3.91881 0.200308 -0.919339 -0.338494
-55.471 52.7589 3.85529 0.260019 -0.9309 -0.256546
-54.6541 53.1848 3.54457 0.400891 -0.869068 -0.28984
-54.0608 53.6167 2.68713 0.362512 -0.912527 -0.188812
-53.7942 53.8778 1.61993 0.459715 -0.880758 -0.113388
-53.8499 54.0416 0.53833 0.398527 -0.908802 -0.107216
-54.0265 53.9823 -0.798979 0.439829 -0.894679 0.0587371
-54.0988 53.8813 -1.68912 0.410621 -0.900512 0.142955
-54.2326 53.6113 -2.78436 0.430612 -0.870747 0.237428
-54.6933 53.1629 -3.58821 0.38176 -0.88485 0.259093
-55.8594 52.5878 -3.97095 0.367771 -0.873115 0.320023
-56.8983 52.3586 -4.04871 0.187941 -0.926301 0.325314
-57.8219 52.2208 -4.00999 0.152556 -0.916618 0.369511
-58.8635 52.0564 -3.98081 0.17042 -0.921105 0.349112
-59.886 51.89 -3.98854 0.118067 -0.923417 0.363799
-60.8298 51.76 -3.95019 0.170475 -0.917235 0.357962
-61.8522 51.5527 -3.94854 0.178718 -0.926647 0.330735
-62.9232 51.3562 -3.92637 0.184703 -0.929453 0.319366
-63.8185 51.1917 -3.88186 0.192383 -0.928105 0.318704
-64.5356 51.0151 -3.94938 0.198178 -0.92648 0.319937
-64.3924 50.7066 -4.91919 0.199575 -0.924077 0.325963
-63.3821 50.9515 -4.79278 0.185577 -0.905877 0.380719
-62.3387 51.1372 -4.85995 0.172577 -0.905924 0.386413
-61.2715 51.316 -4.85394 0.147813 -0.914523 0.376561
-60.1014 51.4884 -4.88341 0.141895 -0.917116 0.372511
-59.0777 51.6571 -4.87089 0.159375 -0.912186 0.377514
-58.1549 51.8013 -4.91207 0.157285 -0.911774 0.379369
-57.0343 51.9335 -5.00619 0.139741 -0.912025 0.385595
-55.6886 52.2947 -4.93283 0.33027 -0.884387 0.327566
-54.591 52.8701 -4.71236 0.41832 -0.851926 0.314855
-53.8703 53.3592 -4.31748 0.460025 -0.83556 0.295443
-53.4555 53.8225 -3.61052 0.520296 -0.827935 0.20932
-53.303 54.1657 -2.47627 0.493748 -0.856533 0.150202
-53.1728 54.4383 -0.999931 0.4801 -0.873568 0.0796389
-52.9946 54.5457 -0.0389309 0.458496 -0.88074 -0.115666
-52.9047 54.4284 1.08787 0.512559 -0.852301 -0.104224
-53.0195 54.1927 2.38189 0.48606 -0.867092 -0.105377
-53.2748 53.9095 3.36145 0.497649 -0.843743 -0.201105
-53.7142 53.4183 4.17301 0.466522 -0.826399 -0.314334
-54.4325 52.9037 4.66531 0.406466 -0.847688 -0.338449
-55.4047 52.4018 4.86857 0.30229 -0.88031 -0.365615
-56.4181 52.1127 4.86741 0.208335 -0.909665 -0.359314
-57.5486 51.8719 4.84909 0.149587 -0.903191 -0.402291
-58.5558 51.7033 4.84623 0.152589 -0.904735 -0.397707
-59.608 51.5452 4.78529 0.162506 -0.904392 -0.394547
-60.6757 51.3451 4.83987 0.14251 -0.908581 -0.392647
-61.5489 51.2124 4.82331 0.150438 -0.908418 -0.390059
-62.692 51.0018 4.7975 0.189749 -0.892491 -0.409177
-63.7979 50.7577 4.80887 0.191989 -0.893597 -0.405739
-64.9543 50.5534 4.68617 0.2184 -0.87181 -0.438434
-65.9784 50.2313 4.74173 0.257662 -0.872878 -0.414359
-66.9014 49.8955 4.8108 0.299386 -0.853429 -0.426463
-67.8247 49.5347 4.86503 0.373019 -0.812115 -0.441543
-68.8526 48.9408 4.87377 0.444622 -0.770064 -0.457507
-69.7164 48.3359 4.88825 0.544703 -0.723957 -0.423301
-70.423 47.6377 4.93954 0.722453 -0.556199 -0.410736
-71.1399 46.6664 4.9071 0.715482 -0.525832 -0.45722
-71.8487 45.7665 4.86756 0.760839 -0.442806 -0.470152
-72.5292 44.7442 4.73584 0.750029 -0.507279 -0.42441
-73.2462 44.0706 4.21318 0.773365 -0.511528 -0.374493
-73.8848 43.8585 3.20287 0.775335 -0.544642 -0.310592
-74.2936 43.8031 1.9751 0.78479 -0.586994 -0.194172
-74.4774 43.6529 0.953515 0.835302 -0.540099 0.102783
-74.5005 43.4075 -0.0897173 0.826649 -0.547851 0.0251861
-74.511 43.2133 -1.02202 0.845718 -0.52342 0.103886
-74.1149 43.52 -2.66869 0.798003 -0.580965 0.138359
-73.5632 43.6791 -3.87139 0.682098 -0.63007 0.371152
-72.9046 44.1392 -4.59773 0.767373 -0.465571 0.440888
-72.3529 44.8463 -4.82682 0.779041 -0.447723 0.438658
-71.7753 45.7171 -4.9918 0.755372 -0.453896 0.47076
-71.1654 46.5214 -5.03983 0.705118 -0.524043 0.47769
-70.5192 47.4094 -5.05192 0.716435 -0.622997 0.314001
-69.526 48.4635 -5.05724 0.575015 -0.704486 0.410094
-68.5419 49.2054 -4.96923 0.539726 -0.752754 0.376822
-67.4034 49.8404 -4.96399 0.433869 -0.851016 0.295854
-66.3462 50.1897 -5.00245 0.297589 -0.892725 0.338122
-65.2765 50.5023 -4.946 0.235211 -0.916016 0.324946
-65.1808 50.5163 -4.97586 0.217393 -0.920045 0.325458
-64.9386 50.5815 -4.9393 0.199574 -0.924076 0.325966
