-71.6549 49.5426 -0.473666 0.660897 -0.750346 0.0139997
-70.9204 50.1901 -0.436136 0.635675 -0.770147 -0.0218835
-70.0433 50.7758 -0.497045 0.428658 -0.903364 0.0136535
-69.0693 51.2697 -0.451369 0.490206 -0.867376 0.0835964
-68.211 51.7422 -0.390967 0.378704 -0.917139 0.0401124
-67.2286 52.0143 -0.336154 0.264197 -0.964164 0.0230337
-65.9595 52.3669 -0.211573 0.221178 -0.973248 -0.0448625
-65.1026 52.5408 -0.345641 0.178203 -0.983012 0.0439388
-63.9105 52.7702 -0.263167 0.194222 -0.980231 0.0371559
-62.8437 52.9525 -0.437281 0.158243 -0.986446 0.0433986
-61.907 53.1231 -0.432745 0.214145 -0.976661 0.0166061
-60.9195 53.2983 -0.299923 0.125659 -0.991776 -0.0242916
-60.0392 53.3872 -0.409967 0.15973 -0.984983 0.065532
-58.9679 53.5552 0.0499255 0.135869 -0.989604 -0.0203915
-59.9945 53.3914 0.310436 0.127306 -0.989996 -0.0608423
-60.9953 53.2527 0.376755 0.0886779 -0.986651 -0.13659
-62.2843 53.0771 0.269786 0.16356 -0.985429 0.046673
-63.3621 52.8983 0.406041 0.206633 -0.976539 -0.0219162
-64.2523 52.6923 0.426501 0.221112 -0.972339 -0.0752389
-65.1631 52.4838 0.480799 0.217285 -0.973087 -0.0767363
-66.0593 52.2963 0.542771 0.185079 -0.980421 -0.0672416
-66.9525 52.0836 0.522356 0.265605 -0.963509 -0.0332238
-68.063 51.7684 0.577669 0.276342 -0.960587 -0.0301161
-69.2045 51.2612 0.366743 0.505293 -0.859723 0.0745273
-70.1191 50.7525 0.341601 0.519592 -0.846623 -0.0220748
-71.1192 50.0253 0.636127 0.578545 -0.813851 0.0541554
-71.8805 49.4743 0.570465 0.611738 -0.781773 0.102565
-72.2028 49.0672 -0.0887596 0.650495 -0.751712 0.0830828
-72.0314 49.2116 -0.440046 0.660894 -0.750349 0.0139979
-71.8051 49.2617 -1.66635 0.756142 -0.606353 0.225061
-71.1425 49.8805 -1.62878 0.612532 -0.770342 0.17714
-70.0495 50.6506 -1.58013 0.490098 -0.845332 0.212646
-69.2277 51.0584 -1.53637 0.460177 -0.881531 0.105544
-68.1802 51.6137 -1.51713 0.394443 -0.90608 0.127763
-66.9584 52.0104 -1.49754 0.268961 -0.942763 0.196583
-65.7095 52.3088 -1.45547 0.218207 -0.968932 0.116224
-64.6638 52.5482 -1.48738 0.194277 -0.964199 0.169787
-63.6727 52.7369 -1.52241 0.171758 -0.982045 0.0780152
-62.561 52.9222 -1.54158 0.16023 -0.984294 0.0741045
-61.4749 53.1255 -1.49907 0.173447 -0.976785 0.118629
-59.9935 53.3314 -1.47475 0.10269 -0.989523 0.082293
-58.6698 53.4742 -1.48361 0.101254 -0.978048 0.182123
-57.8292 53.6417 -1.13321 0.0806495 -0.995667 0.0462981
-57.6393 53.6982 0.0788293 0.0850831 -0.994641 -0.0320827
-57.8495 53.6041 1.1094 0.080934 -0.992342 -0.0910445
-58.8698 53.4569 1.46929 0.159266 -0.979717 -0.118208
-59.8422 53.2831 1.4791 0.16445 -0.976258 -0.140981
-60.7946 53.1228 1.44588 0.134235 -0.981854 -0.125374
-61.7288 53.0168 1.45225 0.115773 -0.980928 -0.156131
-62.9722 52.8367 1.50394 0.14516 -0.980698 -0.130997
-63.9447 52.6737 1.57105 0.221112 -0.972339 -0.075241
-65.0753 52.3931 1.62738 0.238031 -0.963339 -0.12377
-66.1963 52.1803 1.65981 0.176501 -0.978839 -0.101113
-67.1814 51.9195 1.65531 0.327926 -0.901328 -0.282972
-68.0839 51.6196 1.64852 0.280817 -0.916603 -0.284573
-69.0259 51.2595 1.63796 0.499454 -0.85978 -0.105927
-69.8218 50.7927 1.61577 0.505009 -0.85563 -0.11342
-70.7422 50.2492 1.68506 0.547662 -0.788801 -0.235445
-71.4561 49.6658 1.69152 0.580071 -0.732101 -0.357134
-72.183 48.9202 1.60652 0.809547 -0.527855 -0.252293
-72.7454 48.2787 1.13536 0.845831 -0.488883 -0.161856
-72.8941 48.0631 0.0130388 0.888288 -0.458418 -0.0282446
-72.6983 48.0644 -1.24448 0.862967 -0.488331 0.110671
-72.0586 48.8934 -1.66663 0.813343 -0.559942 0.157919
-71.7403 48.8142 -2.77502 0.691492 -0.618864 0.372621
-72.3564 48.1196 -2.8076 0.75261 -0.59667 0.278503
-72.9498 47.3555 -2.613 0.862786 -0.408375 0.290514
-73.3457 46.9984 -1.70184 0.867782 -0.457491 0.149052
-73.4289 46.9815 -0.577668 0.877651 -0.476606 0.0507577
-73.3856 47.0818 0.66469 0.874381 -0.483923 -0.0357362
-73.2373 47.2495 1.64458 0.857075 -0.472643 -0.194748
-72.7954 47.5993 2.36797 0.796277 -0.560792 -0.226839
-72.193 48.2639 2.63726 0.737809 -0.606613 -0.296071
-71.6466 48.9791 2.72428 0.68059 -0.607351 -0.383267
-70.6319 49.8277 2.70744 0.59622 -0.713768 -0.367484
-69.7636 50.4807 2.72192 0.469995 -0.783895 -0.405725
-68.8016 50.9899 2.75876 0.366623 -0.866146 -0.334287
-67.8853 51.3161 2.74384 0.303875 -0.885824 -0.350405
-66.9612 51.6335 2.72603 0.292849 -0.896828 -0.331571
-65.9697 51.9383 2.7367 0.261891 -0.906639 -0.330785
-64.8264 52.2426 2.76386 0.208332 -0.928661 -0.29759
-63.7933 52.4271 2.70753 0.115277 -0.962114 -0.247078
-62.6177 52.6027 2.62453 0.181774 -0.949305 -0.25266
-61.4702 52.8412 2.61823 0.105506 -0.977484 -0.182423
-60.4186 52.979 2.59126 0.194154 -0.960404 -0.19982
-59.5042 53.1204 2.58444 0.105996 -0.939539 -0.324586
-58.3533 53.2642 2.56737 0.0924743 -0.966295 -0.240231
-57.2099 53.4439 2.33373 0.111172 -0.967982 -0.225059
-56.5468 53.8129 1.25089 0.16749 -0.96674 -0.193292
-56.5242 53.8731 0.112541 0.188074 -0.98213 -0.00703421
-56.5363 53.8477 -1.12859 0.190188 -0.976818 0.0849442
-57.0914 53.5273 -2.39163 0.209776 -0.954343 0.21266
-58.3865 53.2761 -2.62665 0.117891 -0.966825 0.225176
-59.5793 53.1474 -2.62357 0.136558 -0.968017 0.208862
-60.895 52.9608 -2.59153 0.106721 -0.962795 0.248243
-62.1026 52.7607 -2.6446 0.187916 -0.947526 0.258614
-63.0114 52.5873 -2.6681 0.172771 -0.946819 0.271447
-64.2253 52.3517 -2.65771 0.19107 -0.954794 0.225946
-65.4042 52.1135 -2.61561 0.222382 -0.922524 0.315428
-66.6004 51.8408 -2.62453 0.214828 -0.918711 0.330918
-67.741 51.4774 -2.62206 0.310815 -0.904294 0.292655
-69.1685 50.8173 -2.62923 0.460302 -0.835198 0.29902
-70.3103 50.1313 -2.67693 0.512521 -0.784326 0.344074
-71.12 49.5037 -2.72426 0.597388 -0.733939 0.317412
-71.6318 48.9398 -2.76781 0.691492 -0.618864 0.372621
-71.3181 48.5918 -3.81293 0.615935 -0.672035 0.408314
-71.937 47.8691 -3.83216 0.651492 -0.53147 0.541384
-72.616 46.9046 -3.72316 0.775426 -0.388928 0.497443
-73.3522 46.0504 -3.23073 0.83542 -0.392345 0.372951
-73.7188 45.9135 -2.30269 0.866883 -0.420526 0.266227
-73.906 45.8833 -1.32849 0.888608 -0.439842 0.124509
-73.9922 45.9478 -0.40839 0.89419 -0.446973 0.0143141
-73.9203 46.0819 0.994373 0.897397 -0.437258 -0.039065
-73.5974 46.2658 2.44713 0.857074 -0.472645 -0.194746
-73.0905 46.5823 3.23185 0.812846 -0.456887 -0.361297
-72.4409 47.3269 3.63865 0.772432 -0.48524 -0.409744
-71.8124 48.0962 3.70543 0.72209 -0.568452 -0.39427
-70.9818 48.9712 3.70039 0.572147 -0.704643 -0.419016
-70.2868 49.5549 3.70426 0.580837 -0.688721 -0.433926
-69.4524 50.1569 3.75061 0.479258 -0.792922 -0.376279
-68.0789 50.7968 3.81997 0.33383 -0.845937 -0.415869
-66.9593 51.2004 3.7959 0.275727 -0.877653 -0.389984
-66.0927 51.4672 3.74935 0.253522 -0.871728 -0.419241
-65.0484 51.7597 3.79574 0.248287 -0.87922 -0.40595
-63.5786 52.1098 3.79985 0.146113 -0.914884 -0.370466
-62.1769 52.3354 3.70181 0.156849 -0.934688 -0.318992
-61.0868 52.5341 3.7249 0.144763 -0.919136 -0.366025
-60.1048 52.6719 3.70707 0.102334 -0.923691 -0.36922
-59.0321 52.8097 3.65228 0.137303 -0.935838 -0.324476
-58.1091 52.9484 3.66036 0.143606 -0.9368 -0.319036
-56.7862 53.1897 3.49384 0.179376 -0.927564 -0.324105
-55.7867 53.5431 3.12241 0.247482 -0.934929 -0.250289
-55.4905 53.865 2.32375 0.287663 -0.920552 -0.264261
-55.4307 54.038 1.35633 0.318978 -0.932588 -0.164317
-55.4024 54.1321 0.225231 0.284044 -0.958394 -0.0282855
-55.3971 54.1346 -0.824156 0.245009 -0.965716 0.0858117
-55.4082 54.0256 -1.78986 0.24158 -0.957167 0.153997
-55.6587 53.7627 -2.72932 0.258061 -0.928588 0.266701
-56.3547 53.3726 -3.509 0.185072 -0.936572 0.295876
-57.3004 53.1125 -3.66898 0.139673 -0.931882 0.329176
-58.4751 52.965 -3.74287 0.134474 -0.916685 0.376269
-59.9192 52.7627 -3.70554 0.16338 -0.921592 0.350418
-61.0076 52.6166 -3.65334 0.0632736 -0.940852 0.332859
-62.304 52.3525 -3.77541 0.191023 -0.918911 0.345128
-63.6903 52.0749 -3.75632 0.166755 -0.920304 0.353595
-64.5887 51.9129 -3.75704 0.219823 -0.920207 0.323878
-65.9493 51.6056 -3.66488 0.234192 -0.906073 0.352215
-67.1141 51.3063 -3.69499 0.2556 -0.887981 0.379818
-68.2433 50.8608 -3.69236 0.36748 -0.861014 0.351588
-69.1586 50.3542 -3.69133 0.47839 -0.782392 0.398756
-69.9452 49.8302 -3.7122 0.563538 -0.705078 0.430453
-70.7714 49.1445 -3.76253 0.583247 -0.678353 0.44473
-71.1835 48.728 -3.80039 0.614197 -0.648468 0.449724
-70.8423 48.4522 -4.84513 0.596997 -0.700383 0.391227
-69.8898 49.2655 -4.75984 0.563252 -0.726588 0.393468
-69.0998 49.8829 -4.74849 0.513819 -0.789533 0.33129
-68.0237 50.5141 -4.76984 0.429283 -0.84035 0.324091
-67.0496 50.845 -4.78244 0.290652 -0.899527 0.326149
-65.5796 51.3045 -4.72919 0.251315 -0.916108 0.312389
-64.1956 51.5571 -4.86271 0.142798 -0.916861 0.372585
-63.2764 51.7217 -4.83235 0.158533 -0.910988 0.380667
-62.3917 51.896 -4.87186 0.183986 -0.900691 0.39323
-61.4692 52.1037 -4.76772 0.129432 -0.916409 0.378737
-60.5242 52.258 -4.71287 0.131947 -0.914023 0.383561
-59.5084 52.3624 -4.82845 0.142942 -0.914219 0.379099
-58.5861 52.5197 -4.79147 0.130762 -0.92085 0.367338
-57.6307 52.6764 -4.73876 0.128541 -0.920279 0.369531
-56.6945 52.8078 -4.75762 0.161211 -0.890212 0.426069
-55.5038 53.1766 -4.57743 0.281643 -0.853786 0.437865
-54.8903 53.6488 -3.86456 0.470259 -0.854646 0.220084
-54.5121 54.0507 -2.99676 0.396828 -0.902086 0.164836
-54.2331 54.4478 -1.43472 0.316653 -0.9281 0.195858
-54.2764 54.4849 -0.529577 0.339376 -0.939562 0.0450736
-54.2338 54.5053 0.555582 0.313109 -0.949714 0.00233995
-54.2633 54.4015 1.76817 0.350458 -0.918552 -0.182867
-54.3798 54.1194 2.74717 0.342474 -0.900529 -0.267877
-54.5558 53.7877 3.63751 0.31772 -0.91031 -0.263942
-55.2011 53.313 4.35396 0.321947 -0.896047 -0.304432
-56.0203 52.9775 4.58318 0.259146 -0.880599 -0.396722
-57.2525 52.7 4.68912 0.137591 -0.918685 -0.370251
-58.2637 52.5089 4.74829 0.15907 -0.913977 -0.373287
-59.5226 52.3201 4.75823 0.107569 -0.925117 -0.364127
-60.7713 52.1114 4.83273 0.14124 -0.903391 -0.404891
-61.7882 51.9847 4.76851 0.14077 -0.905502 -0.400311
-63.2002 51.7204 4.79399 0.187437 -0.877954 -0.440514
-64.2098 51.4958 4.80501 0.204403 -0.869419 -0.449399
-65.4332 51.1593 4.78964 0.26441 -0.863871 -0.428735
-66.7481 50.7648 4.80092 0.248049 -0.864171 -0.437813
-67.6569 50.4376 4.83327 0.323298 -0.833739 -0.447614
-68.5179 50.1059 4.82911 0.36087 -0.801851 -0.473006
-69.6428 49.4384 4.71511 0.553298 -0.72722 -0.406218
-70.458 48.8142 4.69344 0.554454 -0.713669 -0.428085
-71.2159 48.1316 4.71948 0.673767 -0.558475 -0.48037
-71.8806 47.3073 4.65405 0.74491 -0.485682 -0.452913
-72.6617 46.0908 4.50346 0.758774 -0.437718 -0.482353
-73.4279 45.3422 3.90122 0.802301 -0.414919 -0.425769
-74.0009 45.1253 2.96717 0.84132 -0.428333 -0.318512
-74.2781 45.1072 1.99913 0.87708 -0.435821 -0.194066
-74.4078 45.0565 1.07817 0.757085 -0.648394 -0.0800462
-74.5179 44.9509 0.1377 0.844618 -0.532992 0.0493326
-74.51 44.8766 -0.967504 0.853978 -0.512374 0.0802156
-74.3265 44.781 -2.02484 0.866906 -0.45762 0.190646
-73.9883 44.8648 -3.15028 0.826355 -0.521743 0.211948
-73.4541 44.8343 -4.14943 0.767805 -0.45575 0.448398
-72.8791 45.4735 -4.5449 0.787985 -0.407318 0.461499
-72.2369 46.5292 -4.69227 0.788034 -0.427304 0.443186
-71.7522 47.3155 -4.78756 0.776242 -0.457519 0.432575
-71.2274 48.0695 -4.87834 0.703898 -0.539446 0.4529
-71.0694 48.2412 -4.87629 0.618157 -0.647367 0.439549
