-70.7075 51.2712 0.455412 0.5726 -0.818025 -0.0442417
-70.7963 51.1931 -0.485767 0.595104 -0.802991 0.0324958
-69.7955 51.7752 -0.550052 0.460901 -0.886226 0.0466301
-68.7681 52.2954 -0.509731 0.371326 -0.925272 0.0773807
-67.8374 52.6239 -0.495252 0.285033 -0.958489 0.00736656
-66.9278 52.9099 -0.522498 0.30259 -0.950172 0.0749127
-66.0481 53.1743 -0.460537 0.262952 -0.962845 0.0615294
-65.155 53.3759 -0.489928 0.218849 -0.970007 0.105785
-64.1808 53.5666 -0.507391 0.167019 -0.984491 0.0536923
-63.056 53.7637 -0.500813 0.149775 -0.986678 0.0595385
-61.8923 53.9178 -0.533284 0.139897 -0.989136 0.0451506
-61.1079 54.06 -0.141258 0.150711 -0.98757 0.00913688
-61.6598 53.9666 0.408393 0.133502 -0.990372 -0.0363865
-62.8179 53.805 0.350118 0.161238 -0.986123 -0.0395339
-63.9008 53.6447 0.279052 0.161405 -0.98405 -0.0677708
-64.9137 53.4077 0.326125 0.207468 -0.976943 -0.0388055
-65.798 53.2393 0.28393 0.213867 -0.974668 -0.06197
-66.7412 53.0002 0.356709 0.287091 -0.954473 -0.0724579
-67.7085 52.6681 0.267885 0.314209 -0.948537 0.0205895
-68.6073 52.3468 0.369815 0.381362 -0.922451 -0.0401494
-69.6372 51.8693 0.472695 0.40952 -0.912233 0.0111921
-70.4962 51.4055 0.523083 0.546646 -0.836022 -0.0473834
-70.3557 51.3266 1.54689 0.529105 -0.810278 -0.251988
-69.4346 51.8402 1.48572 0.430884 -0.885914 -0.171722
-68.621 52.233 1.43771 0.416276 -0.897075 -0.148223
-67.7809 52.5654 1.39631 0.322966 -0.943485 -0.0741815
-66.5475 52.9514 1.38701 0.301283 -0.9379 -0.171967
-65.5847 53.1828 1.36963 0.201015 -0.973358 -0.110309
-64.6926 53.3695 1.36815 0.202178 -0.968611 -0.144629
-63.7311 53.5528 1.37634 0.164577 -0.976963 -0.135859
-62.7196 53.707 1.39242 0.137838 -0.978399 -0.153276
-61.7526 53.8649 1.44305 0.114718 -0.983067 -0.142894
-60.7215 53.9774 1.41761 0.0931471 -0.986593 -0.134007
-60.041 54.1119 0.845741 0.130913 -0.984974 -0.11264
-60.0468 54.1709 -0.195981 0.0795178 -0.996644 0.0194495
-60.0295 54.1222 -1.12696 0.125344 -0.988423 0.0854914
-60.923 53.9744 -1.45949 0.118289 -0.984867 0.123776
-61.8252 53.8629 -1.52987 0.111397 -0.983799 0.134288
-62.7174 53.7237 -1.5426 0.173565 -0.976572 0.127211
-63.6362 53.5518 -1.52973 0.160187 -0.979761 0.115731
-64.6486 53.3862 -1.54587 0.225483 -0.958327 0.171199
-65.7105 53.1366 -1.531 0.19012 -0.973445 0.127512
-66.8882 52.8453 -1.54401 0.261432 -0.953303 0.146059
-67.825 52.4974 -1.54291 0.369634 -0.912281 0.175354
-68.6695 52.1825 -1.53847 0.356717 -0.900834 0.244668
-69.6144 51.715 -1.5504 0.479928 -0.853506 0.202969
-70.6115 51.1139 -1.62928 0.509507 -0.821539 0.255885
-71.5852 50.4456 -1.42719 0.657057 -0.743385 0.125115
-71.6986 50.4834 -0.402566 0.651168 -0.75318 0.093276
-71.7007 50.5112 0.515068 0.633052 -0.771944 -0.0247107
-71.4044 50.6279 1.5379 0.628806 -0.767791 -0.119881
-70.6478 51.131 1.56243 0.533862 -0.806998 -0.252413
-70.6134 51.1538 1.56158 0.529107 -0.810277 -0.251985
-70.207 51.1087 2.55402 0.525467 -0.812551 -0.252279
-69.3146 51.6398 2.48468 0.414317 -0.856222 -0.308586
-68.4286 52.057 2.45648 0.392054 -0.867954 -0.304876
-67.571 52.3881 2.43661 0.323012 -0.910976 -0.255277
-66.6523 52.667 2.43483 0.253952 -0.932842 -0.255566
-65.7712 52.9145 2.42325 0.255274 -0.927818 -0.272009
-64.8764 53.1349 2.42134 0.196032 -0.950519 -0.241008
-63.9836 53.2975 2.4236 0.152025 -0.956369 -0.249493
-63.0525 53.4546 2.42203 0.176491 -0.956715 -0.231402
-62.1001 53.6044 2.4472 0.141384 -0.955352 -0.259446
-61.1914 53.7209 2.46175 0.102688 -0.962976 -0.249263
-60.2162 53.8521 2.42876 0.138332 -0.960249 -0.242458
-59.1055 54.0342 2.22101 0.107933 -0.971488 -0.211098
-58.9588 54.2333 1.08068 0.141895 -0.983992 -0.107825
-59.0326 54.2916 0.165744 0.136471 -0.988925 -0.0583341
-58.9974 54.2726 -0.790096 0.10772 -0.990892 0.0808024
-58.7502 54.1535 -1.90674 0.140946 -0.97449 0.174651
-59.3108 53.9828 -2.44409 0.0817373 -0.971 0.224674
-60.5249 53.8285 -2.49291 0.131526 -0.953749 0.270243
-61.4221 53.6904 -2.52684 0.121415 -0.963952 0.234792
-62.3291 53.5658 -2.56095 0.143932 -0.953556 0.264228
-63.4471 53.3686 -2.55902 0.191839 -0.951332 0.239249
-64.3435 53.2247 -2.58203 0.171402 -0.958392 0.226806
-65.5306 52.9701 -2.55582 0.177711 -0.947079 0.267321
-66.5545 52.7177 -2.55618 0.252094 -0.920264 0.299261
-67.6075 52.3554 -2.56412 0.349671 -0.900272 0.259308
-68.6507 51.9204 -2.55038 0.377458 -0.898452 0.224297
-69.504 51.5169 -2.56053 0.443556 -0.863486 0.240105
-70.2812 51.0457 -2.62544 0.542095 -0.810511 0.221822
-71.1578 50.3929 -2.72411 0.56142 -0.787221 0.253426
-72.0223 49.7195 -2.65892 0.648155 -0.663234 0.370205
-72.388 49.6663 -1.86623 0.737622 -0.620263 0.265314
-72.4636 49.7828 -0.905035 0.635661 -0.765791 0.096996
-72.4974 49.8285 0.213554 0.696073 -0.711215 -0.0353324
-72.415 49.7408 1.35546 0.730008 -0.676936 -0.0940555
-72.0959 49.6842 2.40547 0.687388 -0.647525 -0.328524
-71.4015 50.2874 2.62238 0.631657 -0.683419 -0.36183
-70.6354 50.8209 2.58998 0.512855 -0.819122 -0.256941
-70.6079 50.8389 2.58781 0.525463 -0.812555 -0.252275
-70.3688 50.6111 3.59215 0.533851 -0.762641 -0.365215
-69.582 51.129 3.50599 0.458933 -0.819452 -0.343335
-68.7489 51.5844 3.47829 0.426646 -0.832911 -0.345935
-67.8685 51.9313 3.46483 0.325351 -0.892498 -0.311991
-66.8321 52.2843 3.45411 0.301944 -0.879758 -0.367228
-65.8622 52.573 3.45118 0.226555 -0.906652 -0.355886
-64.6533 52.8617 3.44652 0.208747 -0.917423 -0.338761
-63.7075 53.0426 3.44021 0.142056 -0.946615 -0.289329
-62.7258 53.1982 3.42789 0.167916 -0.933482 -0.316862
-61.6084 53.3736 3.45936 0.12076 -0.937581 -0.326023
-60.6078 53.515 3.45327 0.129895 -0.94498 -0.299687
-59.7018 53.6268 3.40526 0.116642 -0.941504 -0.315121
-58.5871 53.8038 3.3225 0.114417 -0.951089 -0.286946
-57.9237 54.0462 2.75415 0.150366 -0.961025 -0.231994
-57.809 54.2803 1.74674 0.135933 -0.972732 -0.187844
-57.9496 54.3979 0.843582 0.131854 -0.98549 -0.101613
-58.0158 54.4182 -0.143099 0.159009 -0.986125 0.0476774
-57.8519 54.3514 -1.20485 0.105657 -0.988584 0.10742
-57.5538 54.2447 -2.10278 0.0759685 -0.978746 0.190489
-57.6879 53.9996 -3.06942 0.0883433 -0.960495 0.263901
-58.4547 53.7939 -3.44216 0.112631 -0.947243 0.299772
-59.3536 53.6884 -3.49532 0.101043 -0.950828 0.292572
-60.3842 53.5386 -3.51402 0.11804 -0.937381 0.326827
-61.5089 53.3811 -3.5529 0.152358 -0.945789 0.286828
-62.5214 53.2292 -3.56641 0.120676 -0.934762 0.334151
-63.5483 53.0664 -3.57309 0.167958 -0.928617 0.330849
-64.5554 52.882 -3.58873 0.199181 -0.934307 0.294644
-65.8148 52.5766 -3.54318 0.218855 -0.920253 0.324386
-66.8983 52.2817 -3.55383 0.272455 -0.903606 0.330155
-67.9279 51.9271 -3.5738 0.324108 -0.90513 0.275124
-68.8795 51.5026 -3.55427 0.433025 -0.846425 0.30992
-69.7877 50.9875 -3.59388 0.490027 -0.781908 0.3853
-70.6181 50.3991 -3.6927 0.516369 -0.764392 0.386092
-71.4748 49.6432 -3.74476 0.643889 -0.665224 0.378
-72.1703 48.9883 -3.66782 0.702986 -0.629903 0.32912
-72.7519 48.6859 -3.02936 0.691272 -0.632078 0.349525
-73.0329 48.7948 -2.12845 0.725745 -0.646933 0.234035
-73.133 48.9575 -1.07151 0.763278 -0.639418 0.0924753
-73.1665 49.0282 -0.0863652 0.793207 -0.608127 0.0316722
-73.1479 49.0012 0.874585 0.738481 -0.665698 -0.107197
-73.0417 48.9011 1.7712 0.757061 -0.616349 -0.216732
-72.7655 48.7604 2.88835 0.732455 -0.614936 -0.285899
-72.1222 49.1382 3.51975 0.68865 -0.604755 -0.398693
-71.4348 49.7392 3.60161 0.627605 -0.688741 -0.362955
-70.7472 50.3352 3.61534 0.570751 -0.741562 -0.349688
-70.6034 50.4397 3.60741 0.533853 -0.76264 -0.365214
-70.4507 50.0006 4.55284 0.539664 -0.737523 -0.405983
-69.6884 50.54 4.50518 0.483802 -0.786142 -0.384598
-68.7944 51.0821 4.43665 0.434656 -0.82063 -0.371
-67.9398 51.4593 4.44446 0.343894 -0.844976 -0.409576
-67.0685 51.7789 4.43798 0.281039 -0.877542 -0.388504
-66.1004 52.0736 4.45664 0.265663 -0.868665 -0.418143
-65.1109 52.3259 4.46502 0.230222 -0.8886 -0.396626
-64.2078 52.5589 4.44479 0.193409 -0.904423 -0.380279
-63.0579 52.7957 4.41687 0.173541 -0.913981 -0.366765
-62.1582 52.9369 4.45443 0.14827 -0.925996 -0.347148
-61.2645 53.0761 4.43597 0.122435 -0.930819 -0.343976
-60.2309 53.222 4.39789 0.114064 -0.931345 -0.345813
-59.2656 53.3475 4.38796 0.128024 -0.925653 -0.356057
-58.2098 53.4692 4.39457 0.0920437 -0.934527 -0.343783
-57.3808 53.7246 3.98391 0.132559 -0.93755 -0.321416
-56.8949 54.0254 3.26822 0.123969 -0.949229 -0.289131
-56.6302 54.2997 2.40711 0.171231 -0.954038 -0.24595
-56.7884 54.4672 1.49903 0.231446 -0.956728 -0.176365
-57.0062 54.5604 0.229332 0.188615 -0.979822 -0.0651095
-56.8771 54.5428 -0.87255 0.200186 -0.966824 0.158673
-56.526 54.4639 -1.74086 0.145364 -0.973386 0.177172
-56.3775 54.2906 -2.63906 0.16712 -0.952717 0.253773
-56.7115 53.8997 -3.78419 0.139232 -0.939617 0.312625
-57.4174 53.6115 -4.36547 0.110261 -0.932916 0.342303
-58.3554 53.4505 -4.49207 0.116611 -0.927569 0.354991
-59.5482 53.2934 -4.52322 0.110372 -0.928522 0.354424
-60.6068 53.1476 -4.5275 0.111354 -0.928691 0.353741
-61.526 53.0125 -4.56422 0.131302 -0.922548 0.362856
-62.4327 52.8908 -4.53455 0.136585 -0.922587 0.360799
-63.4972 52.7245 -4.52804 0.156946 -0.920474 0.357788
-64.6843 52.4768 -4.55564 0.199503 -0.911687 0.358951
-65.59 52.2623 -4.55225 0.218681 -0.915355 0.338064
-66.652 51.9801 -4.5099 0.279354 -0.887377 0.366775
-67.5813 51.6419 -4.51489 0.342498 -0.866952 0.362062
-68.6411 51.1846 -4.56315 0.354735 -0.854815 0.378727
-69.4998 50.6903 -4.57841 0.468 -0.801625 0.371985
-70.2784 50.127 -4.67774 0.541996 -0.740158 0.398004
-71.0313 49.4699 -4.69259 0.61286 -0.656102 0.439988
-71.939 48.5599 -4.6256 0.707483 -0.582267 0.400542
-72.5875 47.9104 -4.38307 0.721158 -0.524692 0.45236
-73.2292 47.7286 -3.55133 0.72432 -0.530445 0.440248
-73.5309 47.8459 -2.69187 0.776107 -0.545342 0.316542
-73.7556 48.0142 -1.68354 0.7684 -0.58786 0.252948
-73.8388 48.1666 -0.739082 0.776115 -0.620747 0.107286
-73.852 48.168 0.213914 0.770519 -0.636723 -0.025761
-73.7384 48.1512 1.32974 0.773877 -0.611441 -0.165089
-73.5999 47.987 2.22517 0.756576 -0.577634 -0.306484
-73.3506 47.7935 3.14419 0.751462 -0.555878 -0.35455
-72.8283 47.9046 4.01081 0.747735 -0.520987 -0.410968
-72.1547 48.4161 4.47537 0.685855 -0.591963 -0.423301
-71.438 49.1301 4.55685 0.637408 -0.624144 -0.45158
-70.6874 49.8223 4.56219 0.530375 -0.729563 -0.430895
-70.4721 49.9844 4.55389 0.539664 -0.737524 -0.405983
