-42.5577 66.455 38.1445 0.178461 -0.902821 -0.391233
-41.9586 66.9992 37.1508 0.17457 -0.898229 -0.403119
-41.3892 67.5434 36.1565 0.135255 -0.903703 -0.406234
-40.9564 67.977 35.4168 0.121838 -0.892093 -0.434606
-40.47 68.4157 34.644 0.10767 -0.887459 -0.448133
-39.8196 68.9159 33.8062 0.106015 -0.88931 -0.444378
-39.2533 69.2791 33.1931 0.0810574 -0.892689 -0.443263
-38.373 69.7514 32.4094 0.0590591 -0.883954 -0.463607
-37.4708 70.1017 31.8215 0.0359682 -0.885256 -0.463491
-36.4302 70.443 31.1824 -0.005497 -0.880586 -0.473854
-35.6696 70.6873 30.7008 -0.0173572 -0.883281 -0.468522
-34.9704 70.9547 30.1693 -0.0606287 -0.886315 -0.459096
-34.1611 71.3076 29.406 -0.0604892 -0.866869 -0.494816
-33.3959 71.7378 28.5196 -0.0906175 -0.865092 -0.493353
-32.6822 72.1585 27.6597 -0.0875561 -0.856732 -0.508186
-31.9787 72.6179 26.7662 -0.0986285 -0.85254 -0.513273
-31.4472 72.9858 26.0822 -0.0976988 -0.845252 -0.52532
-30.9201 73.3944 25.3409 -0.0973044 -0.835358 -0.541026
-30.5504 73.8065 24.6204 -0.10317 -0.849561 -0.517295
-30.204 74.315 23.7143 -0.102951 -0.847752 -0.520286
-30.0256 74.8681 22.7896 -0.100432 -0.844643 -0.525825
-29.9372 75.4007 21.8835 -0.0913893 -0.869888 -0.484686
-29.8679 76.0574 20.6906 -0.0951033 -0.867988 -0.487394
-29.815 76.7377 19.4068 -0.0806524 -0.888035 -0.452437
-29.831 77.2559 18.4037 -0.060334 -0.890919 -0.450028
-29.909 77.6689 17.5786 -0.0581789 -0.904014 -0.423525
-30.0458 78.2609 16.3121 -0.051344 -0.908772 -0.414122
-30.1488 78.7859 15.1951 -0.00393485 -0.914219 -0.4052
-30.2574 79.1854 14.2949 0.000996054 -0.911548 -0.411112
-30.4869 79.7027 13.0434 0.0337028 -0.925745 -0.376559
-30.6045 80.049 12.2142 0.0536627 -0.916976 -0.395316
-30.6794 80.4229 11.2961 0.0904568 -0.915411 -0.392225
-30.7455 80.882 10.1953 0.0925597 -0.918779 -0.383769
-30.8387 81.291 9.22169 0.109361 -0.915018 -0.388308
-30.9446 81.7316 8.04248 0.136712 -0.934651 -0.328235
-31.0112 82.0557 7.10822 0.176535 -0.925014 -0.336354
-31.0803 82.433 5.99623 0.188503 -0.926866 -0.324632
-31.2846 82.6973 5.06666 0.194485 -0.934191 -0.299103
-32.416 82.753 4.0958 0.218596 -0.930853 -0.292795
-33.4171 82.6566 3.62367 0.258306 -0.925828 -0.274978
-34.3731 82.5189 3.10667 0.273028 -0.92652 -0.258873
-35.1778 82.3591 2.72854 0.296907 -0.925021 -0.23703
-36.0363 82.1842 2.26446 0.318289 -0.91993 -0.228954
-37.1561 81.9335 1.52509 0.343915 -0.921797 -0.177718
-38.1489 81.7108 0.786402 0.34382 -0.926143 -0.154796
-38.9365 81.5081 0.198399 0.353946 -0.923948 -0.144893
-39.7802 81.2357 -0.271444 0.357026 -0.9283 -0.102735
-40.8179 80.8873 -0.547405 0.357817 -0.927937 -0.102765
-42.0038 80.4091 -0.615549 0.378409 -0.92184 -0.0836489
-43.1972 79.913 -0.514648 0.376545 -0.922211 -0.0879876
-44.1222 79.4892 -0.333019 0.404941 -0.909392 -0.0946798
-45.0037 79.0733 -0.141876 0.404005 -0.909173 -0.100923
-45.8886 78.6364 0.100039 0.436121 -0.893046 -0.110757
-46.8178 78.14 0.424893 0.443436 -0.889139 -0.113014
-47.6665 77.6663 0.782641 0.450233 -0.885336 -0.115968
-48.8827 76.968 1.32443 0.45538 -0.882487 -0.11767
-49.9057 76.3639 1.78588 0.463792 -0.878755 -0.112435
-50.6815 75.8956 2.17015 0.473352 -0.873357 -0.114832
-51.6477 75.2985 2.68066 0.480501 -0.869742 -0.112547
-52.5288 74.7424 3.19658 0.485289 -0.866828 -0.114462
-53.2333 74.2726 3.75746 0.486878 -0.865774 -0.11569
-53.8287 73.8434 4.40454 0.49206 -0.862175 -0.120544
-54.3927 73.4205 5.10423 0.494461 -0.860205 -0.124724
-55.0814 72.8785 6.09147 0.495209 -0.858753 -0.13157
-55.6406 72.414 7.00591 0.496868 -0.857383 -0.134226
-56.138 71.9836 7.86149 0.498188 -0.854551 -0.146779
-56.6005 71.5879 8.59851 0.499517 -0.851829 -0.1577
-57.088 71.157 9.39027 0.497239 -0.852348 -0.161945
-57.6617 70.5775 10.6353 0.497115 -0.85145 -0.167063
-58.0118 70.1648 11.649 0.492919 -0.851886 -0.176978
-58.4049 69.6696 12.8772 0.486243 -0.850488 -0.200582
-58.7074 69.2679 13.8662 0.475919 -0.855393 -0.204348
-58.8848 68.9084 14.9214 0.476105 -0.853646 -0.211217
-58.9599 68.6427 15.7797 0.472895 -0.852313 -0.223454
-58.9841 68.3989 16.6594 0.480913 -0.844278 -0.236428
-59.0066 68.0405 17.9016 0.466128 -0.852502 -0.236571
-58.9151 67.7995 18.9093 0.466472 -0.848424 -0.250159
-58.7004 67.6062 19.9515 0.467536 -0.844879 -0.259974
-58.2905 67.427 21.2706 0.465333 -0.845729 -0.26113
-57.972 67.2835 22.2783 0.458893 -0.843905 -0.277922
-57.7116 67.1146 23.2211 0.460299 -0.843396 -0.277138
-57.5211 66.834 24.3292 0.45363 -0.84214 -0.291582
-57.3675 66.3594 25.8584 0.438597 -0.845451 -0.304705
-57.3339 65.9625 26.9272 0.422269 -0.844224 -0.330112
-57.3117 65.5729 27.9653 0.396292 -0.858724 -0.324871
-57.3309 65.2238 28.8168 0.388997 -0.854301 -0.344748
-57.3156 64.8538 29.7514 0.395368 -0.849701 -0.348763
-57.2715 64.4567 30.7669 0.376825 -0.857129 -0.351188
-57.0085 64.0419 32.0697 0.37319 -0.859929 -0.348207
-56.5229 63.8314 33.1019 0.369709 -0.859746 -0.352351
-55.9737 63.7036 33.9854 0.362102 -0.863045 -0.352166
-55.3153 63.6695 34.756 0.367873 -0.863007 -0.346207
-54.4302 63.7498 35.5245 0.366974 -0.865708 -0.340336
-53.5146 63.9268 36.0344 0.358647 -0.867116 -0.345661
-52.6207 64.1795 36.3309 0.360649 -0.865946 -0.346468
-51.4505 64.4917 36.7347 0.325421 -0.877765 -0.351611
-50.5906 64.6659 37.0967 0.316925 -0.873937 -0.368491
-49.5045 64.8235 37.6493 0.301215 -0.878228 -0.371161
-48.4426 64.8917 38.3 0.284954 -0.882443 -0.374293
-47.5872 64.9065 38.8813 0.25178 -0.893055 -0.372778
-46.7207 64.9313 39.4243 0.253584 -0.89631 -0.363762
-45.5419 65.0671 39.8862 0.246788 -0.898863 -0.3621
-44.5787 65.3203 39.8078 0.199373 -0.90814 -0.368147
-43.5713 65.7757 39.2617 0.195184 -0.902311 -0.383906
-42.9034 66.194 38.5905 0.178973 -0.903307 -0.389877
-42.7444 66.3112 38.392 0.178973 -0.903307 -0.389877
-41.8691 66.2891 38.8067 0.147247 -0.909818 -0.388006
-42.5923 65.775 39.7249 0.18604 -0.909408 -0.371977
-43.4484 65.3379 40.3751 0.18499 -0.912526 -0.364787
-44.7207 64.8947 40.8155 0.211365 -0.907564 -0.362568
-45.7426 64.6505 40.7959 0.2353 -0.901368 -0.36329
-46.6975 64.525 40.451 0.252117 -0.899522 -0.356754
-47.9082 64.4803 39.7086 0.253192 -0.896586 -0.363355
-48.6879 64.4606 39.1554 0.278737 -0.889221 -0.362755
-49.4495 64.4274 38.6518 0.288003 -0.886551 -0.361923
-50.538 64.3031 38.0461 0.302744 -0.885794 -0.351731
-51.7627 64.0645 37.5122 0.326353 -0.878242 -0.349542
-53.0391 63.6997 37.1333 0.352098 -0.87473 -0.332978
-54.1014 63.4015 36.7737 0.345046 -0.885391 -0.31141
-55.0227 63.2561 36.1409 0.35653 -0.875072 -0.326587
-55.9376 63.1867 35.3377 0.358767 -0.871879 -0.333336
-56.8407 63.2463 34.2039 0.374018 -0.865405 -0.333443
-57.5637 63.4438 32.9663 0.364898 -0.863925 -0.347047
-57.8859 63.6342 32.1366 0.364641 -0.865978 -0.342217
-58.0701 63.9184 31.2283 0.368938 -0.862669 -0.345879
-58.1626 64.2524 30.3024 0.382584 -0.85655 -0.346339
-58.215 64.6941 29.1377 0.383479 -0.859075 -0.339019
-58.1805 65.1155 28.1102 0.397085 -0.857645 -0.326754
-58.164 65.5947 26.8636 0.397581 -0.859384 -0.32153
-58.1761 65.9201 25.9412 0.411656 -0.860472 -0.300023
-58.2674 66.292 24.7811 0.424761 -0.85692 -0.291501
-58.4484 66.5765 23.6471 0.447612 -0.844713 -0.293433
-58.6662 66.7658 22.724 0.45229 -0.848945 -0.27336
-58.9506 66.8985 21.8165 0.455978 -0.854067 -0.250306
-59.2352 66.9967 20.963 0.462497 -0.849143 -0.25488
-59.5932 67.1961 19.7288 0.448644 -0.852523 -0.268184
-59.7461 67.3678 18.8535 0.452856 -0.857762 -0.243241
-59.8396 67.5903 17.8942 0.445751 -0.862541 -0.239133
-59.8369 67.8632 16.9406 0.455021 -0.856461 -0.243785
-59.8089 68.1262 15.9764 0.461214 -0.861032 -0.214256
-59.7051 68.5085 14.6872 0.476474 -0.853372 -0.211494
-59.5657 68.8087 13.7895 0.475925 -0.855388 -0.204353
-59.2346 69.2728 12.6079 0.46306 -0.863119 -0.201266
-58.842 69.758 11.375 0.465356 -0.864056 -0.191965
-58.4737 70.1817 10.2957 0.474171 -0.862781 -0.175415
-58.0266 70.6225 9.33591 0.474625 -0.862741 -0.174379
-57.5936 71.0188 8.5509 0.487822 -0.857151 -0.165292
-56.9933 71.5354 7.60074 0.490248 -0.858073 -0.152866
-56.4774 71.9804 6.70331 0.488384 -0.861596 -0.138226
-55.8393 72.5127 5.63845 0.489834 -0.861808 -0.131717
-55.4028 72.8678 4.93623 0.489914 -0.86208 -0.129539
-54.7939 73.3429 4.09389 0.485069 -0.864763 -0.129859
-54.2564 73.7322 3.47159 0.486695 -0.864648 -0.124431
-53.4498 74.2923 2.7065 0.483458 -0.866965 -0.12097
-52.4191 74.9554 2.03954 0.481549 -0.868504 -0.11752
-51.2037 75.713 1.40648 0.477399 -0.871097 -0.115145
-50.479 76.1547 1.04687 0.474111 -0.872588 -0.11751
-49.661 76.6436 0.666342 0.467062 -0.876549 -0.116255
-48.367 77.3959 0.0906836 0.455557 -0.883035 -0.112768
-47.5921 77.841 -0.264776 0.453289 -0.884575 -0.109725
-46.2949 78.5419 -0.741441 0.439738 -0.891381 -0.109859
-45.3775 78.9987 -0.994485 0.413656 -0.902724 -0.118227
-44.3346 79.4973 -1.26678 0.391563 -0.913175 -0.113096
-43.4449 79.9011 -1.44617 0.384909 -0.917124 -0.102768
-42.5775 80.2621 -1.55414 0.374258 -0.923492 -0.084217
-41.3933 80.7485 -1.56405 0.367903 -0.927529 -0.059115
-40.2919 81.1584 -1.42989 0.3506 -0.935839 -0.0358615
-39.467 81.455 -1.16414 0.357026 -0.9283 -0.102736
-38.6545 81.7306 -0.716625 0.365743 -0.92595 -0.0940706
-37.8344 81.9636 -0.112806 0.390843 -0.909703 -0.140295
-36.9835 82.2014 0.55576 0.361804 -0.91599 -0.17263
-35.8804 82.4541 1.3052 0.321093 -0.924705 -0.204501
-35.1087 82.6313 1.76594 0.324096 -0.917044 -0.230955
-33.9824 82.8533 2.3258 0.287644 -0.924189 -0.250669
-32.8315 83.0413 2.9081 0.26329 -0.920154 -0.287756
-31.5301 83.1619 3.53445 0.223744 -0.923209 -0.31229
-30.6811 83.1429 4.16761 0.213826 -0.924205 -0.316419
-30.2221 82.9047 5.08174 0.136146 -0.936145 -0.324187
-30.1089 82.4935 6.34775 0.148901 -0.936062 -0.318773
-30.0848 82.1815 7.24838 0.176535 -0.925014 -0.336353
-30.0091 81.8264 8.1831 0.105038 -0.917418 -0.383812
-29.9116 81.4711 9.05479 0.105216 -0.916208 -0.386643
-29.8223 81.0761 9.98463 0.0843969 -0.911579 -0.402368
-29.767 80.6906 10.8383 0.0586868 -0.907621 -0.415072
-29.6895 80.1581 12.0588 0.0401482 -0.914209 -0.403163
-29.4875 79.6218 13.3033 0.0329736 -0.913823 -0.404772
-29.3279 79.2453 14.1775 0.0059269 -0.908876 -0.417025
-29.2082 78.8586 15.0221 0.000995826 -0.911548 -0.411113
-29.1389 78.4489 15.8592 -0.0671856 -0.891798 -0.447417
-29.073 78.0049 16.737 -0.0725378 -0.898267 -0.433234
-28.9463 77.5419 17.6978 -0.0827527 -0.896539 -0.434991
-28.8337 77.0043 18.745 -0.0682855 -0.887017 -0.456656
-28.8669 76.4935 19.7004 -0.103835 -0.873252 -0.476076
-28.9143 76.0212 20.5643 -0.103026 -0.868963 -0.484035
-28.9477 75.3643 21.7085 -0.141229 -0.848167 -0.510556
-29.0672 74.7609 22.748 -0.14207 -0.849959 -0.507332
-29.2283 74.1802 23.7433 -0.138034 -0.840774 -0.523494
-29.5897 73.5817 24.7703 -0.121113 -0.832114 -0.541219
-30.0643 73.0896 25.6383 -0.124216 -0.834398 -0.536982
-30.6477 72.6585 26.4489 -0.121981 -0.838182 -0.531574
-31.4589 72.1094 27.5074 -0.101083 -0.849999 -0.516995
-32.2236 71.6386 28.4669 -0.115255 -0.861938 -0.49374
-32.9917 71.2099 29.3723 -0.0950873 -0.862906 -0.496338
-33.6656 70.8556 30.1726 -0.0945108 -0.884061 -0.457031
-34.3914 70.5593 30.8443 -0.0719728 -0.883552 -0.462756
-35.235 70.274 31.4587 -0.0283465 -0.87894 -0.476089
-36.3443 69.9471 32.1191 -0.00820871 -0.889523 -0.456816
-37.3956 69.5942 32.7759 0.0242174 -0.881893 -0.470828
-38.277 69.2128 33.4632 0.0394299 -0.887049 -0.459988
-39.1532 68.6852 34.3677 0.0760608 -0.883156 -0.462872
-39.6913 68.2753 35.1093 0.0877009 -0.890542 -0.445903
-40.136 67.8717 35.8304 0.108018 -0.899044 -0.42423
-40.5733 67.4632 36.6029 0.121348 -0.905294 -0.406933
-40.9888 67.069 37.3384 0.131887 -0.902779 -0.409385
-41.5714 66.5299 38.355 0.149605 -0.905636 -0.396666
-41.7591 66.3773 38.6417 0.147249 -0.909816 -0.388011
-40.9552 66.3005 39.14 0.124644 -0.918414 -0.375472
-41.4649 65.8991 39.9179 0.148227 -0.918525 -0.366526
-42.0447 65.5304 40.5968 0.184401 -0.911328 -0.368043
-43.0791 65.0509 41.2804 0.18499 -0.912526 -0.364787
-44.058 64.7047 41.6235 0.19046 -0.905276 -0.379737
-45.2099 64.3934 41.7637 0.210408 -0.903715 -0.372555
-46.6681 64.1417 41.4413 0.240479 -0.905297 -0.350082
-47.5123 64.0726 41.0087 0.251774 -0.904542 -0.344113
-48.3594 64.0501 40.4355 0.276519 -0.894654 -0.350772
-49.439 64.0227 39.656 0.278 -0.897636 -0.341926
-50.2168 63.962 39.1675 0.284038 -0.896045 -0.341213
-51.0077 63.8639 38.7475 0.312332 -0.889137 -0.334482
-51.953 63.6755 38.3603 0.313445 -0.889557 -0.332327
-53.0369 63.3589 38.0436 0.34127 -0.886751 -0.311205
-53.9279 63.1021 37.8132 0.337959 -0.893278 -0.296375
-55.0616 62.8641 37.2064 0.361291 -0.879202 -0.3106
-55.9905 62.7538 36.4533 0.354793 -0.879952 -0.315922
-56.6699 62.7123 35.8161 0.335591 -0.886972 -0.317133
-57.3523 62.7542 34.9611 0.330687 -0.894094 -0.302062
-58.0167 62.8826 33.9037 0.322641 -0.887268 -0.329632
-58.4462 63.0219 33.1057 0.329216 -0.886047 -0.3264
-58.8494 63.3148 31.9253 0.362451 -0.866168 -0.344068
-58.9992 63.7088 30.7917 0.35719 -0.866338 -0.349103
-59.0808 64.1941 29.4424 0.368943 -0.866901 -0.335101
-59.0459 64.7426 28.0547 0.384656 -0.863783 -0.3254
-59.0073 65.1008 27.1547 0.389488 -0.865943 -0.313754
-59.008 65.5818 25.7895 0.405584 -0.865817 -0.293023
-59.1338 66.0201 24.2782 0.406877 -0.869851 -0.278945
-59.3408 66.2409 23.2702 0.417865 -0.869539 -0.263225
-59.677 66.421 22.1471 0.42035 -0.869068 -0.260784
-60.0935 66.5478 21.0431 0.428301 -0.86598 -0.258108
-60.453 66.7805 19.6646 0.414857 -0.874347 -0.251692
-60.6598 67.0847 18.2405 0.434404 -0.867156 -0.243409
-60.6805 67.4675 16.8047 0.42279 -0.876392 -0.230315
-60.635 67.7947 15.6112 0.435111 -0.871649 -0.225624
-60.5417 68.122 14.5061 0.439487 -0.870143 -0.222901
-60.3532 68.4795 13.4383 0.451052 -0.868972 -0.203569
-60.0017 68.973 12.0978 0.465296 -0.864101 -0.19191
-59.694 69.3416 11.1654 0.462457 -0.868888 -0.17622
-59.2858 69.8055 9.95049 0.472808 -0.863884 -0.173642
-58.9353 70.1671 9.11174 0.475082 -0.862697 -0.17335
-58.4868 70.5786 8.24189 0.471026 -0.867069 -0.162252
-57.8624 71.0892 7.34949 0.482888 -0.862494 -0.151405
-57.4402 71.4517 6.63704 0.487148 -0.861143 -0.145049
-56.8969 71.915 5.67008 0.471688 -0.869344 -0.147398
-56.3064 72.4063 4.6767 0.482301 -0.864105 -0.143906
-55.6468 72.9278 3.66003 0.482722 -0.865399 -0.134269
-55.0427 73.3659 2.97491 0.482304 -0.867364 -0.122732
-54.4113 73.8082 2.33306 0.48347 -0.866958 -0.120972
-53.5325 74.3958 1.61166 0.482349 -0.867926 -0.118504
-52.7336 74.9005 1.15069 0.481267 -0.868781 -0.116624
-52.0192 75.3439 0.793853 0.480909 -0.86893 -0.116986
-51.1255 75.8982 0.352857 0.477126 -0.870846 -0.118147
-50.212 76.4485 -0.0946059 0.469362 -0.875808 -0.112518
-49.2797 76.9955 -0.505799 0.462599 -0.879754 -0.109708
-48.3245 77.5517 -0.957836 0.453285 -0.884577 -0.109724
-47.2686 78.1408 -1.38713 0.445706 -0.888538 -0.10867
-46.3511 78.6283 -1.67418 0.439089 -0.891801 -0.109049
-45.1965 79.2082 -2.01438 0.405547 -0.907406 -0.110207
-43.851 79.824 -2.34028 0.378254 -0.921076 -0.0924298
-42.836 80.2512 -2.47956 0.356481 -0.931476 -0.0651128
-41.9001 80.5951 -2.54247 0.347454 -0.936946 -0.0371378
-40.6441 81.0659 -2.477 0.352841 -0.934984 -0.0361519
-39.67 81.45 -2.30016 0.387454 -0.919625 -0.0645723
-38.5284 81.8742 -1.734 0.388042 -0.916613 -0.0918942
-37.768 82.1546 -1.21296 0.387568 -0.913291 -0.125264
-37.0862 82.3691 -0.6545 0.391082 -0.907992 -0.148179
-36.2088 82.6016 0.0463619 0.37852 -0.910181 -0.168181
-35.4619 82.7902 0.540194 0.34492 -0.916211 -0.203933
-34.4304 83.0246 1.11618 0.315287 -0.914949 -0.251325
-33.5823 83.2 1.57583 0.309728 -0.911142 -0.270926
-32.6411 83.376 1.97598 0.291713 -0.915855 -0.275813
-31.7638 83.4845 2.38231 0.226675 -0.926354 -0.300812
-30.8578 83.533 2.85304 0.181022 -0.926684 -0.329374
-29.9822 83.4952 3.44082 0.135167 -0.941086 -0.30998
-29.4574 83.2931 4.26976 0.132147 -0.938827 -0.318026
-29.1692 82.9978 5.2839 0.133169 -0.942728 -0.305826
-29.1459 82.6645 6.29553 0.136622 -0.935331 -0.326015
-29.1523 82.2897 7.34415 0.125361 -0.923092 -0.362235
-29.0378 81.8012 8.51931 0.109159 -0.907646 -0.404685
-28.9494 81.4421 9.34127 0.0883247 -0.910506 -0.403952
-28.831 80.833 10.6905 0.068388 -0.89878 -0.433033
-28.7873 80.4422 11.524 0.015471 -0.911161 -0.410771
-28.7053 80.0243 12.4463 -0.0182976 -0.905332 -0.424057
-28.5317 79.6379 13.2808 -0.0422438 -0.911475 -0.40918
-28.3796 79.2233 14.1505 -0.054458 -0.903354 -0.425401
-28.2622 78.8073 15.0105 -0.0685079 -0.892383 -0.446048
-28.189 78.2396 16.1337 -0.0658273 -0.89315 -0.444905
-28.0608 77.5776 17.4534 -0.072542 -0.898268 -0.433231
-27.9312 77.054 18.4266 -0.124108 -0.877935 -0.462415
-27.9037 76.5521 19.3674 -0.123993 -0.87657 -0.465028
-27.9831 75.8625 20.6333 -0.120864 -0.859572 -0.496516
-27.9953 75.2515 21.6636 -0.113633 -0.843563 -0.524871
-28.1169 74.65 22.6643 -0.15959 -0.845289 -0.509735
-28.2631 74.0859 23.6402 -0.142057 -0.843822 -0.517418
-28.483 73.5958 24.4564 -0.148472 -0.826834 -0.542496
-28.7955 73.1678 25.1991 -0.146135 -0.833309 -0.533062
-29.2385 72.7518 25.9739 -0.137567 -0.83504 -0.532713
-29.9761 72.2193 26.994 -0.119786 -0.844043 -0.522725
-30.6675 71.7537 27.9153 -0.125442 -0.847377 -0.515961
-31.3603 71.3357 28.787 -0.119346 -0.857377 -0.500661
-32.1147 70.9418 29.6604 -0.125864 -0.864002 -0.487502
-32.7676 70.5843 30.4727 -0.117853 -0.886137 -0.448187
-33.518 70.2739 31.2555 -0.0738239 -0.88461 -0.460449
-34.3253 70.0051 31.901 -0.0505625 -0.882029 -0.467865
-35.2636 69.7483 32.4812 -0.0340238 -0.895636 -0.443485
-36.0888 69.5188 32.9512 -0.00586217 -0.888968 -0.457925
-36.9806 69.2196 33.5251 0.00411221 -0.885761 -0.464123
-37.8922 68.8152 34.2678 0.0365347 -0.88808 -0.458235
-38.6473 68.3315 35.1668 0.0760294 -0.897694 -0.43401
-39.2267 67.8515 36.1 0.0662404 -0.91094 -0.407187
-39.7654 67.3566 37.0633 0.110812 -0.907808 -0.404482
-40.1673 66.9901 37.7845 0.110927 -0.91289 -0.392278
-40.6364 66.5579 38.6163 0.127605 -0.913189 -0.386831
-40.8595 66.3784 38.9813 0.124643 -0.918416 -0.375467
-40.0174 66.3194 39.4133 0.132635 -0.920709 -0.36702
-40.596 65.865 40.3633 0.128617 -0.926015 -0.354901
-41.2516 65.4441 41.1598 0.164654 -0.911791 -0.3762
-42.1789 64.9702 41.8954 0.17314 -0.90832 -0.380723
-43.3305 64.5276 42.4012 0.182534 -0.904153 -0.386248
-44.5361 64.1795 42.6271 0.196777 -0.905998 -0.374761
-45.8811 63.8852 42.6005 0.213673 -0.900592 -0.378521
-47.0012 63.7249 42.2815 0.250341 -0.900967 -0.354337
-47.8059 63.6616 41.8616 0.268592 -0.896589 -0.35211
-48.6809 63.612 41.316 0.269247 -0.897326 -0.349733
-49.6515 63.6145 40.5548 0.278 -0.897634 -0.341932
-50.4716 63.5652 39.9976 0.284393 -0.896208 -0.340487
-51.5474 63.432 39.3888 0.311212 -0.88872 -0.336635
-52.3906 63.2463 39.073 0.341269 -0.88675 -0.311208
-53.6926 62.8604 38.8099 0.332262 -0.8943 -0.299642
-54.6774 62.6003 38.4656 0.340161 -0.892144 -0.29727
-55.4916 62.4437 37.9613 0.347126 -0.894584 -0.281223
-56.4944 62.3102 37.1693 0.339943 -0.899194 -0.275478
-57.4655 62.2642 36.2403 0.3281 -0.8879 -0.322467
-58.1033 62.327 35.4034 0.329132 -0.894338 -0.303032
-58.7076 62.4437 34.4087 0.325109 -0.890926 -0.316815
-59.2082 62.5896 33.5116 0.329333 -0.886301 -0.325592
-59.5925 62.8052 32.5311 0.339443 -0.884339 -0.320503
-59.7719 63.0825 31.5984 0.336725 -0.878085 -0.339974
-59.8709 63.4149 30.6379 0.348204 -0.877378 -0.330033
-59.9757 63.7619 29.5999 0.354698 -0.875017 -0.329447
-59.9397 64.3123 28.1628 0.358924 -0.875173 -0.324415
-59.8484 64.6587 27.3296 0.370137 -0.870904 -0.323077
-59.8082 65.0579 26.2446 0.401207 -0.864654 -0.302335
-59.854 65.3993 25.168 0.405956 -0.870768 -0.277423
-60.0155 65.7107 23.9569 0.412105 -0.870032 -0.270395
-60.3349 65.9248 22.7364 0.417869 -0.869538 -0.263222
-60.6548 66.0262 21.8753 0.423192 -0.868907 -0.256728
-61.1197 66.2185 20.4871 0.420106 -0.867627 -0.265958
-61.3409 66.4289 19.4107 0.413623 -0.876631 -0.245807
-61.4843 66.6603 18.3523 0.410668 -0.87756 -0.247466
-61.5418 66.9242 17.2702 0.41668 -0.87708 -0.2389
-61.5287 67.1789 16.317 0.419464 -0.880168 -0.222067
-61.4618 67.5183 15.0993 0.419799 -0.879805 -0.222866
-61.27 67.968 13.6475 0.430331 -0.879544 -0.203022
-61.0605 68.2961 12.6918 0.442991 -0.875113 -0.194772
-60.7418 68.7194 11.5349 0.452069 -0.871278 -0.190829
-60.4427 69.0627 10.6332 0.453859 -0.872491 -0.181025
-60.1047 69.4476 9.61761 0.453893 -0.872864 -0.179139
-59.6234 69.9341 8.43496 0.456276 -0.874297 -0.16555
-58.9694 70.484 7.35799 0.468761 -0.868355 -0.161913
-58.4434 70.9021 6.62915 0.473148 -0.866183 -0.160805
-57.9224 71.3656 5.61554 0.469347 -0.87004 -0.15081
-57.3152 71.852 4.68492 0.469274 -0.871322 -0.143457
-56.8897 72.2071 3.90617 0.46895 -0.872524 -0.13685
-56.4419 72.5778 3.11375 0.474916 -0.870324 -0.130129
-55.8006 73.0284 2.40966 0.47694 -0.869871 -0.125905
-54.9467 73.6235 1.54892 0.479165 -0.868947 -0.123825
-54.2948 74.0595 1.0066 0.478658 -0.869775 -0.11991
-53.2363 74.7307 0.366017 0.478652 -0.870097 -0.117544
-52.1963 75.3704 -0.132042 0.480814 -0.868989 -0.116943
-50.9627 76.131 -0.748881 0.477326 -0.871658 -0.111229
-49.7317 76.8632 -1.31259 0.468263 -0.876235 -0.113763
-49.0106 77.2846 -1.65068 0.45539 -0.883529 -0.109528
-47.9008 77.9151 -2.15504 0.450122 -0.885939 -0.111804
-47.0688 78.3732 -2.42684 0.443765 -0.888743 -0.114656
-45.8629 78.994 -2.77833 0.423102 -0.900774 -0.0979289
-45.0238 79.3927 -3.01187 0.391368 -0.916595 -0.0817579
-43.8592 79.9087 -3.29061 0.371642 -0.925424 -0.0722639
-43.0007 80.2457 -3.41088 0.328145 -0.942399 -0.0648517
-42.0555 80.5802 -3.48967 0.325625 -0.943652 -0.0586729
-40.6142 81.0731 -3.45171 0.326277 -0.945134 0.0162678
-39.6321 81.4687 -3.32565 0.377676 -0.925899 0.00846515
-38.6538 81.8958 -2.91257 0.435489 -0.900048 -0.0162287
-37.8399 82.2444 -2.38419 0.403256 -0.913546 -0.05309
-37.0643 82.5417 -1.80416 0.407685 -0.903576 -0.131636
-36.3889 82.7658 -1.24475 0.391088 -0.907989 -0.148183
-35.6728 82.9517 -0.631719 0.381148 -0.909118 -0.168021
-34.8204 83.1814 -0.0993036 0.393689 -0.893319 -0.216773
-33.7602 83.4391 0.520721 0.328522 -0.906849 -0.264004
-32.6685 83.6624 1.03105 0.297513 -0.910351 -0.287656
-31.3423 83.8583 1.55601 0.224278 -0.923973 -0.309796
-30.4065 83.8954 2.08146 0.170727 -0.929109 -0.327865
-29.4222 83.8673 2.64544 0.157745 -0.930199 -0.33138
-28.7486 83.6273 3.55397 0.112487 -0.938623 -0.325328
-28.3928 83.4104 4.3652 0.126442 -0.941643 -0.31184
-28.2164 83.1221 5.36108 0.183557 -0.945235 -0.269884
-28.2218 82.8554 6.22387 0.187567 -0.911256 -0.366648
-28.2317 82.4866 7.13532 0.155955 -0.922927 -0.349957
-28.1593 82.0614 8.15012 0.0919287 -0.903712 -0.418156
-28.0185 81.5456 9.31149 0.0595409 -0.901107 -0.42776
-27.9265 81.0772 10.2426 0.0307582 -0.891712 -0.451556
-27.8382 80.6802 11.0546 0.011655 -0.891441 -0.452986
-27.7905 80.159 12.1192 -0.018298 -0.905332 -0.424057
-27.5899 79.6447 13.1684 -0.0329038 -0.905462 -0.422786
-27.4254 79.1702 14.1342 -0.0699299 -0.899917 -0.430418
-27.3101 78.7193 15.0259 -0.0799813 -0.891168 -0.446566
-27.2582 78.0461 16.3469 -0.0844166 -0.887114 -0.453765
-27.183 77.6254 17.1661 -0.113462 -0.874913 -0.470801
-27.0058 77.0023 18.2881 -0.119015 -0.875573 -0.468173
-26.9884 76.3005 19.5933 -0.137787 -0.862923 -0.485469
-27.0649 75.8433 20.3845 -0.154797 -0.85377 -0.496984
-27.047 75.2887 21.3198 -0.181693 -0.828951 -0.528987
-27.0612 74.7624 22.1375 -0.167799 -0.831646 -0.52916
-27.2933 74.0664 23.3527 -0.178015 -0.837111 -0.517114
-27.5352 73.3971 24.4733 -0.172219 -0.822776 -0.541645
-27.948 72.8233 25.5117 -0.163208 -0.835591 -0.524548
-28.5067 72.3299 26.4506 -0.134578 -0.839423 -0.526553
-29.188 71.8546 27.3867 -0.13627 -0.840783 -0.523941
-29.8629 71.4023 28.2998 -0.128691 -0.848052 -0.514049
-30.5056 71.0105 29.1239 -0.137072 -0.854405 -0.501182
-31.2326 70.6419 29.9556 -0.133658 -0.857671 -0.496523
-31.8524 70.3082 30.754 -0.159441 -0.880845 -0.445748
-32.4769 70.0549 31.4342 -0.127005 -0.888367 -0.441219
-33.2607 69.7748 32.1705 -0.0764663 -0.887518 -0.454316
-33.9798 69.5688 32.7062 -0.0662279 -0.889615 -0.451707
-34.9846 69.3215 33.302 -0.0421662 -0.880934 -0.471179
-36.1 68.9966 33.9584 -0.000655825 -0.886753 -0.462214
-36.9185 68.697 34.5475 -0.000161618 -0.893535 -0.448994
-37.6634 68.2944 35.3352 0.0227985 -0.905931 -0.422811
-38.1361 67.9523 36.0441 0.0328318 -0.906602 -0.420212
-38.5828 67.5712 36.8037 0.0502172 -0.909712 -0.412012
-39.1072 67.0946 37.7868 0.0945125 -0.910721 -0.401696
-39.6423 66.6312 38.7611 0.0888237 -0.917174 -0.388448
-39.7306 66.5577 38.919 0.10596 -0.924867 -0.364221
-38.8439 66.465 39.3519 0.0792923 -0.929028 -0.361413
-39.2791 66.1471 40.0736 0.0935439 -0.934557 -0.342429
-39.7285 65.8168 40.8486 0.162823 -0.933267 -0.320159
-40.5822 65.3166 41.8116 0.181174 -0.919408 -0.348995
-41.2438 64.9644 42.379 0.198941 -0.908611 -0.366556
-42.209 64.4986 42.9872 0.172416 -0.90539 -0.387996
-43.0615 64.1722 43.3535 0.183074 -0.902614 -0.38958
-44.0502 63.9079 43.4983 0.184381 -0.902054 -0.39026
-44.9366 63.7373 43.502 0.179628 -0.919535 -0.349377
-46.28 63.4645 43.4685 0.198254 -0.919928 -0.338271
-47.1742 63.3305 43.1874 0.260828 -0.90711 -0.330335
-48.2807 63.2355 42.5756 0.272962 -0.892552 -0.358948
-49.3688 63.1713 41.928 0.263297 -0.897833 -0.352833
-50.17 63.1915 41.2669 0.263662 -0.903035 -0.338699
-51.4169 63.1262 40.377 0.289864 -0.903622 -0.315198
-52.2389 62.9965 39.9725 0.286278 -0.907757 -0.306631
-53.4349 62.6491 39.7721 0.325327 -0.903542 -0.278882
-54.8653 62.2474 39.3626 0.336106 -0.900604 -0.275584
-55.7801 62.0784 38.8399 0.330812 -0.909854 -0.250459
-56.5198 61.9558 38.3083 0.332361 -0.909225 -0.250684
-57.4763 61.8454 37.496 0.33058 -0.904281 -0.270173
-58.1534 61.8338 36.7802 0.308687 -0.899287 -0.309831
-58.9644 61.9285 35.6564 0.325198 -0.896887 -0.29972
-59.645 62.0657 34.513 0.325124 -0.892868 -0.311349
-60.3257 62.3529 33.0203 0.331217 -0.888478 -0.31765
-60.6643 62.7298 31.6084 0.339776 -0.882261 -0.32556
-60.8346 63.0386 30.6157 0.350527 -0.87861 -0.324309
-60.9078 63.3652 29.6663 0.312879 -0.891379 -0.327377
-60.9282 63.7313 28.6372 0.358765 -0.875364 -0.324076
-60.7828 64.156 27.6518 0.365527 -0.877223 -0.310867
-60.6426 64.5265 26.7316 0.37213 -0.879272 -0.297323
-60.6372 64.8323 25.8462 0.380442 -0.878384 -0.289011
-60.7599 65.2143 24.463 0.386523 -0.879593 -0.277338
-61.107 65.4796 23.0322 0.400099 -0.878653 -0.260556
-61.5153 65.5994 21.9369 0.408771 -0.878554 -0.247081
-61.8617 65.7387 20.9375 0.38969 -0.881066 -0.268074
-62.1676 66.0268 19.494 0.401494 -0.881555 -0.248277
-62.3366 66.2033 18.5782 0.402375 -0.883128 -0.241175
-62.4048 66.5174 17.299 0.404731 -0.882816 -0.23839
-62.3845 66.7685 16.3963 0.395765 -0.89118 -0.221737
-62.3588 67.0252 15.4012 0.401854 -0.889199 -0.218644
-62.204 67.4317 14.0248 0.41406 -0.886393 -0.207009
-62.0293 67.7239 13.1349 0.418417 -0.885973 -0.199727
-61.703 68.1885 11.7496 0.432466 -0.879325 -0.199402
-61.3249 68.655 10.4396 0.439575 -0.878298 -0.18806
-60.9997 69.0225 9.44571 0.446188 -0.876246 -0.18196
-60.6553 69.3837 8.5068 0.449432 -0.876812 -0.170913
-60.2852 69.7253 7.71969 0.450257 -0.876931 -0.168109
-59.6145 70.2607 6.70489 0.455962 -0.87484 -0.163461
-59.0126 70.7352 5.87746 0.460683 -0.873515 -0.157091
-58.6343 71.0836 5.04915 0.465308 -0.871347 -0.1557
-58.0162 71.5751 4.0881 0.461054 -0.875555 -0.144117
-57.6119 71.926 3.26333 0.462249 -0.876239 -0.136126
-57.049 72.358 2.35136 0.467924 -0.874579 -0.127115
-56.4431 72.78 1.69638 0.476198 -0.870075 -0.127298
-55.6415 73.3332 0.917588 0.476759 -0.869714 -0.127666
-54.9972 73.7652 0.373235 0.474552 -0.871172 -0.125937
-54.0557 74.3599 -0.238142 0.474719 -0.872812 -0.113217
-53.3573 74.7927 -0.607903 0.478283 -0.870902 -0.113014
-52.4666 75.3354 -1.00119 0.482637 -0.8688 -0.110668
-51.7147 75.8038 -1.37541 0.473315 -0.872603 -0.120566
-50.6375 76.4674 -1.9434 0.468674 -0.874675 -0.123502
-49.8387 76.9407 -2.30156 0.454087 -0.883461 -0.114228
-49.0184 77.408 -2.70013 0.457153 -0.883169 -0.104991
-48.2713 77.8422 -2.99995 0.454505 -0.881845 -0.125129
-47.3473 78.3514 -3.31566 0.442163 -0.888595 -0.121844
-46.249 78.9156 -3.62554 0.419051 -0.899992 -0.120047
-45.3947 79.3296 -3.85289 0.381686 -0.916637 -0.118712
-44.0542 79.9173 -4.18251 0.359028 -0.92705 -0.107355
-42.7627 80.3893 -4.40662 0.308054 -0.948968 -0.0645964
-41.716 80.7389 -4.51225 0.290727 -0.955644 -0.0471399
-40.5993 81.0411 -4.41118 0.263493 -0.95701 0.105548
-39.538 81.4339 -4.29096 0.333673 -0.933489 0.131378
-38.7071 81.8765 -4.04599 0.450774 -0.889986 0.0497227
-37.8342 82.2972 -3.56847 0.45294 -0.891151 0.00566793
-36.9593 82.7366 -2.95534 0.471696 -0.878386 -0.0770732
-36.3265 82.9644 -2.39316 0.409082 -0.902421 -0.135235
-35.6801 83.1571 -1.73954 0.383382 -0.907302 -0.17269
-34.8762 83.403 -1.11073 0.426127 -0.883 -0.192184
-33.6833 83.7587 -0.386448 0.383194 -0.88166 -0.270049
-32.5302 84.0125 0.148104 0.310746 -0.887776 -0.339544
-31.5117 84.1939 0.527153 0.260162 -0.901657 -0.345068
-30.6531 84.2727 0.9351 0.25308 -0.898319 -0.359129
-29.7771 84.267 1.44693 0.191214 -0.905114 -0.379744
-28.3266 84.153 2.25586 0.0950297 -0.92655 -0.36327
-27.846 83.8736 3.15946 -0.028118 -0.911797 -0.385342
-27.355 83.5853 4.24236 0.124368 -0.944134 -0.305194
-27.3213 83.389 5.12363 0.221718 -0.935465 -0.275219
-27.2904 82.9784 6.46087 0.21667 -0.917286 -0.332921
-27.2963 82.4273 7.63102 0.153447 -0.860001 -0.481771
-27.1911 82.0324 8.49866 0.0930232 -0.879962 -0.461805
-27.0944 81.5912 9.28651 0.0325248 -0.891469 -0.451913
-26.9883 81.1126 10.2382 0.022442 -0.888561 -0.458048
-26.8735 80.6792 11.0445 -0.00724298 -0.882495 -0.469602
-26.7812 80.2534 11.8716 -0.0262683 -0.889981 -0.455241
-26.6054 79.7552 12.8467 -0.0475936 -0.891073 -0.451358
-26.5178 79.2964 13.7432 -0.0770079 -0.884627 -0.458849
-26.4048 78.8386 14.6031 -0.117818 -0.886058 -0.448352
-26.3551 78.2481 15.7401 -0.129401 -0.881141 -0.454727
-26.3197 77.8235 16.5654 -0.136429 -0.88127 -0.452469
-26.2105 77.3307 17.4616 -0.132953 -0.873376 -0.468548
-26.095 76.8402 18.3507 -0.124114 -0.873458 -0.470815
-26.0609 76.1015 19.6627 -0.142722 -0.852494 -0.502837
-26.145 75.5373 20.6322 -0.138646 -0.85045 -0.507456
-26.0837 74.7815 21.796 -0.168816 -0.832139 -0.528247
-26.2543 74.1006 22.9167 -0.20077 -0.831232 -0.518405
-26.3804 73.6306 23.7035 -0.203371 -0.825854 -0.525932
-26.6633 73.1417 24.5985 -0.174879 -0.83227 -0.526064
-26.9525 72.6573 25.471 -0.163913 -0.840463 -0.516443
-27.3347 72.2333 26.2679 -0.157583 -0.835273 -0.526769
-28.0719 71.7609 27.2477 -0.144627 -0.847488 -0.510731
-28.544 71.3391 28.0718 -0.130235 -0.848861 -0.512322
-29.0138 70.9858 28.7745 -0.128831 -0.84989 -0.510957
-29.6729 70.6518 29.502 -0.136882 -0.842898 -0.520093
-30.2613 70.3367 30.2172 -0.141851 -0.858865 -0.492168
-30.9826 69.9885 31.0746 -0.159444 -0.880845 -0.445747
-31.6187 69.7855 31.7496 -0.133519 -0.897157 -0.420478
-32.7178 69.4126 32.8053 -0.0932655 -0.892818 -0.440188
-33.9762 69.0461 33.7078 -0.0558781 -0.882873 -0.46627
-35.0582 68.7792 34.3066 -0.0305684 -0.878632 -0.476519
-35.8949 68.5732 34.7939 -0.0209917 -0.894601 -0.445866
-36.8225 68.1231 35.7345 0.00201638 -0.905857 -0.423245
-37.2799 67.7514 36.5073 0.0126855 -0.908528 -0.417631
-37.8519 67.3698 37.3647 0.0604005 -0.917994 -0.391968
-38.4435 66.8665 38.474 0.0740554 -0.919637 -0.385483
-38.5556 66.749 38.725 0.0863804 -0.916523 -0.390544
-38.651 66.5712 39.1213 0.0828364 -0.922775 -0.375979
