-38.6632 85.2603 1.63287 0.367727 -0.89014 -0.269125
-39.6877 85.1978 0.336765 0.33372 -0.921156 -0.200256
-40.1782 85.1949 -0.467559 0.311695 -0.924187 -0.218827
-40.618 85.2654 -1.29489 0.287997 -0.934167 -0.210689
-41.0068 85.3427 -2.16932 0.275082 -0.936946 -0.215098
-41.3218 85.3803 -3.02736 0.144434 -0.989465 -0.00989964
-41.7639 85.2948 -4.06411 0.165152 -0.984791 0.0539601
-42.3911 85.1872 -3.66195 0.268801 -0.956786 -0.110934
-42.8858 84.8624 -2.75812 0.36776 -0.905928 -0.209872
-43.3445 84.4744 -2.01179 0.362379 -0.896471 -0.254994
-43.8582 84.0616 -1.28959 0.366627 -0.893511 -0.259162
-44.7782 83.3761 -0.399943 0.410532 -0.873733 -0.260872
-45.6692 82.8326 0.109109 0.41438 -0.879512 -0.233047
-46.5997 82.2595 0.624306 0.421584 -0.884139 -0.201409
-47.449 81.73 1.10813 0.445833 -0.878624 -0.170885
-48.1567 81.2875 1.51967 0.451524 -0.873885 -0.179979
-48.9377 80.7584 2.08471 0.456345 -0.87435 -0.164067
-49.5964 80.3285 2.59498 0.475857 -0.868512 -0.137188
-50.3216 79.8328 3.15306 0.489028 -0.863345 -0.124391
-51.2605 79.2228 3.75276 0.484127 -0.868328 -0.107765
-52.1544 78.6409 4.36573 0.497752 -0.861769 -0.0979639
-52.7974 78.2106 4.84779 0.503366 -0.858378 -0.0989842
-53.4642 77.7466 5.39914 0.513097 -0.852421 -0.100548
-54.2089 77.2202 6.02311 0.521611 -0.846635 -0.105426
-54.8788 76.737 6.56186 0.52597 -0.843841 -0.106226
-55.5794 76.2017 7.28376 0.539093 -0.834242 -0.11552
-56.1869 75.6744 8.17705 0.540872 -0.83159 -0.126124
-56.6708 75.2115 9.12925 0.54008 -0.8317 -0.128785
-57.094 74.7844 10.0148 0.548292 -0.824864 -0.137749
-57.44 74.4016 10.8429 0.549057 -0.820909 -0.156988
-57.8414 73.9076 11.984 0.548409 -0.818459 -0.171369
-58.1108 73.5335 12.8964 0.548632 -0.817 -0.177457
-58.4012 73.087 14.0282 0.546944 -0.817186 -0.181822
-58.7041 72.5815 15.2828 0.547071 -0.813506 -0.197281
-58.8817 72.222 16.2226 0.520518 -0.825943 -0.216515
-58.9969 71.9016 17.1196 0.521605 -0.821287 -0.23112
-59.1129 71.4531 18.4108 0.513163 -0.822194 -0.246295
-59.0772 71.0736 19.7251 0.513808 -0.818916 -0.255689
-58.8966 70.8077 20.9131 0.504626 -0.821365 -0.26574
-58.6042 70.6062 22.079 0.498188 -0.823449 -0.271552
-58.3689 70.4514 22.9606 0.49703 -0.819843 -0.284287
-58.1588 70.2632 23.8617 0.491473 -0.820272 -0.292548
-57.9424 69.9328 25.1306 0.484132 -0.823867 -0.294569
-57.8031 69.6378 26.1692 0.456252 -0.836372 -0.303835
-57.6887 69.2314 27.4377 0.4467 -0.838628 -0.311495
-57.6554 68.8454 28.5387 0.438649 -0.841706 -0.31483
-57.7156 68.3425 29.7821 0.412902 -0.853585 -0.317279
-57.8214 67.8474 30.9887 0.399169 -0.857528 -0.3245
-57.853 67.4632 31.9781 0.391939 -0.865623 -0.311578
-57.7954 67.1792 32.8398 0.38271 -0.87038 -0.309613
-57.3935 66.9131 34.077 0.372561 -0.873379 -0.313661
-56.721 66.8617 35.0359 0.365873 -0.880802 -0.300542
-55.9079 66.8935 35.8873 0.355058 -0.887058 -0.294588
-55.0552 67.006 36.5421 0.345942 -0.889411 -0.298784
-53.9378 67.2777 36.9679 0.326342 -0.893353 -0.308902
-52.8019 67.5707 37.2572 0.310063 -0.883298 -0.351633
-51.8971 67.765 37.5458 0.277947 -0.891367 -0.35787
-50.7214 67.924 38.0276 0.264478 -0.892397 -0.365554
-49.8828 67.9924 38.4186 0.24022 -0.90343 -0.355118
-48.8501 68.0199 39.0108 0.208809 -0.90344 -0.374171
-47.9862 67.9956 39.5216 0.195399 -0.906798 -0.373547
-47.1603 68.0084 39.9122 0.192043 -0.905984 -0.377242
-46.1083 68.0799 40.2218 0.159927 -0.908326 -0.386479
-45.0764 68.2817 40.1645 0.142307 -0.912581 -0.383334
-44.2514 68.5819 39.7561 0.145135 -0.909084 -0.390425
-43.4436 69.1083 38.8219 0.123666 -0.906489 -0.403603
-42.8269 69.6228 37.8938 0.119143 -0.895294 -0.429238
-42.3173 70.112 37.0063 0.0980963 -0.893213 -0.438734
-41.9018 70.5893 36.1683 0.0944706 -0.882391 -0.460936
-41.4436 71.1076 35.267 0.087787 -0.877058 -0.472065
-40.9561 71.5997 34.477 0.0536203 -0.868361 -0.493025
-40.3257 72.1515 33.5752 0.0542939 -0.867697 -0.49412
-39.6106 72.6955 32.704 0.0373412 -0.864547 -0.501162
-38.9824 73.0831 32.0677 -0.00918782 -0.857999 -0.513492
-38.2145 73.4709 31.4175 -0.0101015 -0.853457 -0.521065
-37.4698 73.7843 30.8588 -0.0323211 -0.850513 -0.52496
-36.7503 74.062 30.3645 -0.0427933 -0.850121 -0.524741
-35.7467 74.4887 29.5963 -0.0504464 -0.840588 -0.539295
-35.0558 74.8755 28.9125 -0.0768121 -0.836124 -0.543123
-34.2065 75.4249 27.9577 -0.0833451 -0.825008 -0.55894
-33.5791 75.9103 27.1454 -0.0841589 -0.826443 -0.556691
-33.0901 76.3584 26.3852 -0.110974 -0.828249 -0.549039
-32.6945 76.9281 25.4522 -0.112557 -0.825169 -0.553558
-32.3768 77.7073 24.1377 -0.123837 -0.844131 -0.521639
-32.2582 78.2323 23.214 -0.13521 -0.859234 -0.493391
-32.19 78.7395 22.2713 -0.127378 -0.874782 -0.467473
-32.161 79.2737 21.3085 -0.108525 -0.865815 -0.488453
-32.1344 79.7793 20.3868 -0.100523 -0.891218 -0.441138
-32.1153 80.2268 19.4206 -0.0799971 -0.90178 -0.424728
-32.1345 80.6104 18.5954 -0.0587855 -0.922483 -0.381209
-32.0713 81.0384 17.5784 -0.0456423 -0.917416 -0.395262
-31.9532 81.4839 16.5542 -0.0361205 -0.913365 -0.405535
-31.7202 82.0029 15.3196 0.013774 -0.926657 -0.375618
-31.6681 82.5156 14.1621 0.0478705 -0.909596 -0.412727
-31.6833 83.1177 12.8454 0.0890659 -0.900386 -0.425751
-31.6422 83.5197 11.9829 0.10811 -0.892623 -0.436793
-31.5426 83.9806 11.0687 0.150895 -0.895609 -0.418467
-31.4396 84.4195 10.2117 0.155801 -0.883053 -0.442655
-31.1148 85.1264 8.97738 0.257811 -0.864858 -0.430759
-30.7959 85.6002 8.22108 0.259969 -0.859495 -0.440096
-30.2871 86.2351 7.3015 0.29526 -0.845627 -0.444675
-29.7401 86.7488 6.68878 0.307028 -0.848286 -0.431047
-28.9258 87.3565 5.90854 0.27255 -0.895918 -0.350781
-27.8722 88.0032 5.00813 0.298932 -0.915428 -0.269501
-26.9917 88.4126 4.28355 0.145883 -0.973809 -0.174159
-26.3053 88.6266 3.62443 0.145444 -0.975474 -0.165214
-27.3049 88.5431 3.24915 0.14026 -0.975686 -0.168414
-28.2267 88.3865 3.38881 0.185947 -0.95915 -0.204442
-29.5733 88.0149 3.57051 0.224193 -0.94333 -0.244676
-30.432 87.7039 3.71013 0.274718 -0.913231 -0.300386
-31.3195 87.366 3.86448 0.311063 -0.890688 -0.331534
-32.3475 86.9452 4.0103 0.315795 -0.882027 -0.349599
-33.3476 86.5584 4.06589 0.325411 -0.880774 -0.343992
-34.4209 86.2096 3.93245 0.339177 -0.878279 -0.33676
-35.473 85.9207 3.62285 0.330943 -0.887718 -0.320052
-36.3259 85.7025 3.27479 0.366882 -0.880344 -0.300654
-37.2767 85.4874 2.7219 0.367625 -0.886523 -0.280737
-38.1045 85.3429 2.123 0.362791 -0.890528 -0.274392
-38.5865 85.2714 1.7011 0.367728 -0.890139 -0.269125
-38.095 85.6677 0.996187 0.358817 -0.905727 -0.225631
-36.8739 85.8856 2.01546 0.379903 -0.879798 -0.285707
-36.0873 86.0771 2.46625 0.362263 -0.882796 -0.298694
-35.1837 86.3175 2.81464 0.353968 -0.881893 -0.311401
-33.8785 86.7114 3.16991 0.339171 -0.878281 -0.336763
-32.9899 87.0422 3.15036 0.318442 -0.887376 -0.333405
-32.1144 87.3771 3.09074 0.310075 -0.890682 -0.332474
-31.2685 87.7186 2.96506 0.285673 -0.902512 -0.320881
-30.2738 88.0829 2.76515 0.239644 -0.911528 -0.332935
-29.1383 88.4085 2.59192 0.215066 -0.92334 -0.318103
-28.175 88.5752 2.44156 0.135754 -0.969986 -0.201738
-27.2881 88.731 2.28913 0.10134 -0.980671 -0.157296
-26.1307 88.7316 2.03552 -0.0604401 -0.99529 -0.0598587
-24.9976 88.6817 2.24221 -0.0880262 -0.996074 -0.00933969
-25.0156 88.6708 3.35882 -0.0685908 -0.996544 0.024159
-25.6898 88.5796 4.36477 0.08486 -0.99453 -0.0606215
-26.4012 88.3634 5.01654 0.14631 -0.972144 -0.183111
-27.1225 88.0696 5.61411 0.300971 -0.902939 -0.304519
-28.0433 87.4728 6.3575 0.296342 -0.893408 -0.33756
-28.8795 86.8222 7.12045 0.295494 -0.845303 -0.445136
-29.5778 86.1316 7.96987 0.29517 -0.845887 -0.44424
-29.9574 85.6378 8.63121 0.247757 -0.831394 -0.497392
-30.3216 84.9942 9.58789 0.201013 -0.850252 -0.486483
-30.5102 84.5145 10.3943 0.199013 -0.865207 -0.460229
-30.697 83.7617 11.7707 0.12302 -0.881117 -0.456617
-30.7563 83.0695 13.1143 0.0534165 -0.895957 -0.440916
-30.7287 82.5936 14.0723 0.0329984 -0.89948 -0.435028
-30.7364 82.1524 15.0333 0.0111927 -0.902375 -0.430478
-30.898 81.6306 16.1403 -0.0125805 -0.910643 -0.413003
-31.0849 81.233 17.0426 -0.0434977 -0.910313 -0.411495
-31.1825 80.8234 17.9425 -0.0597004 -0.911354 -0.406987
-31.1868 80.2713 19.1591 -0.0737892 -0.900571 -0.4284
-31.1675 79.8002 20.0979 -0.121074 -0.878204 -0.462704
-31.2165 79.354 20.9562 -0.113983 -0.871958 -0.47589
-31.2095 78.8976 21.7633 -0.108633 -0.86566 -0.488704
-31.2567 78.4306 22.5953 -0.130607 -0.861929 -0.489885
-31.3312 77.9087 23.532 -0.122017 -0.862345 -0.491399
-31.4816 77.3196 24.5356 -0.14439 -0.839426 -0.523943
-31.7625 76.7172 25.5633 -0.1388 -0.8242 -0.548853
-32.0872 76.2476 26.329 -0.123818 -0.820483 -0.558074
-32.5205 75.7764 27.1208 -0.12856 -0.819332 -0.55872
-33.2528 75.1977 28.1179 -0.114758 -0.815336 -0.567502
-33.9266 74.7512 28.927 -0.0938624 -0.831344 -0.547774
-34.6662 74.3245 29.7125 -0.0824925 -0.844936 -0.528293
-35.5569 73.8959 30.5095 -0.07079 -0.84766 -0.525753
-36.7287 73.4573 31.3422 -0.0548434 -0.856481 -0.513142
-37.664 73.0869 32.0346 -0.0265048 -0.86149 -0.507053
-38.4713 72.6893 32.7306 -0.00274758 -0.860036 -0.510173
-39.1798 72.2243 33.5308 0.0117416 -0.874596 -0.48471
-39.7088 71.821 34.2044 0.0304696 -0.869788 -0.492371
-40.2354 71.3515 34.9877 0.0497638 -0.866862 -0.496059
-40.6555 70.9495 35.7053 0.0673547 -0.882438 -0.465582
-41.1105 70.4329 36.6366 0.0843105 -0.894058 -0.439779
-41.4923 69.997 37.4249 0.0980928 -0.893209 -0.438743
-41.9183 69.6045 38.1704 0.106769 -0.903864 -0.414283
-42.4208 69.1661 39.0099 0.116007 -0.904304 -0.410681
-43.0284 68.7069 39.8801 0.125608 -0.913072 -0.387972
-43.6345 68.3484 40.5423 0.122549 -0.917139 -0.37926
-44.3681 68.0463 40.9931 0.144708 -0.913369 -0.380548
-45.3141 67.8176 41.188 0.153224 -0.916823 -0.368686
-46.242 67.6827 41.1264 0.157637 -0.917306 -0.365651
-47.2074 67.6147 40.8505 0.186809 -0.912722 -0.36336
-48.6265 67.5885 40.1742 0.1904 -0.909678 -0.368984
-49.51 67.6024 39.6221 0.222213 -0.900084 -0.374792
-50.3993 67.592 39.0879 0.245191 -0.901728 -0.356004
-51.2199 67.522 38.689 0.250167 -0.900027 -0.356887
-52.6628 67.2827 38.1667 0.283674 -0.895339 -0.343361
-53.6375 67.038 37.9389 0.31409 -0.892282 -0.324315
-54.9192 66.6986 37.5948 0.329019 -0.899628 -0.287081
-55.9668 66.5036 36.9935 0.336293 -0.896623 -0.287846
-56.9446 66.4224 36.0884 0.351786 -0.893388 -0.279472
-57.6135 66.4085 35.2985 0.350209 -0.890157 -0.291399
-58.1474 66.4422 34.5687 0.35427 -0.887437 -0.294839
-58.5508 66.5737 33.6741 0.355696 -0.887978 -0.291505
-58.7088 66.8606 32.6372 0.37305 -0.87663 -0.30387
-58.7378 67.3107 31.3042 0.382993 -0.870836 -0.30804
-58.6444 67.772 30.1642 0.400636 -0.859254 -0.318044
-58.5514 68.153 29.2161 0.40982 -0.86061 -0.302322
-58.4972 68.5636 28.1321 0.416414 -0.859023 -0.297624
-58.5204 68.9087 27.1266 0.445075 -0.842593 -0.303225
-58.6162 69.1993 26.1392 0.454676 -0.839983 -0.295924
-58.7372 69.4718 25.1583 0.471499 -0.836166 -0.280206
-58.9017 69.7067 24.2071 0.476305 -0.829234 -0.292411
-59.1473 69.9344 23.1189 0.477125 -0.835242 -0.273356
-59.4586 70.1356 21.9398 0.487687 -0.830763 -0.268007
-59.7492 70.3583 20.7156 0.496991 -0.826665 -0.263865
-59.8797 70.553 19.84 0.495429 -0.832547 -0.247822
-59.9562 70.7956 18.8711 0.496046 -0.833964 -0.241682
-59.9225 71.1191 17.8417 0.512572 -0.822421 -0.246767
-59.8278 71.431 16.9335 0.512381 -0.828703 -0.225204
-59.7083 71.7488 16.0402 0.521089 -0.82582 -0.215607
-59.497 72.1617 14.9659 0.52166 -0.825698 -0.214697
-59.2047 72.6175 13.7857 0.523099 -0.83065 -0.190657
-58.8603 73.1286 12.517 0.527859 -0.829209 -0.18378
-58.6214 73.4639 11.6824 0.528961 -0.830387 -0.174908
-58.2214 73.9612 10.4856 0.531541 -0.83026 -0.167731
-57.7434 74.4655 9.38697 0.526062 -0.838215 -0.143715
-57.3891 74.8236 8.63221 0.542548 -0.829116 -0.134714
-56.8727 75.3043 7.68728 0.536925 -0.833785 -0.128487
-56.2617 75.8375 6.73434 0.532727 -0.838238 -0.116429
-55.652 76.3215 6.02633 0.529885 -0.840577 -0.1124
-54.7791 76.9585 5.29345 0.523236 -0.845274 -0.108334
-54.0582 77.4703 4.72355 0.514454 -0.851439 -0.101928
-53.417 77.9204 4.18288 0.505209 -0.857103 -0.100646
-52.706 78.4045 3.63703 0.505327 -0.856529 -0.104879
-51.7878 79.0167 3.00651 0.494958 -0.861872 -0.110422
-50.8223 79.6643 2.35733 0.492987 -0.861907 -0.118341
-49.9098 80.289 1.67315 0.490141 -0.861169 -0.134717
-49.293 80.7343 1.17758 0.490896 -0.857858 -0.151434
-48.4491 81.304 0.607936 0.480369 -0.86345 -0.153949
-47.5086 81.9166 0.0464371 0.469653 -0.8616 -0.192536
-46.346 82.6692 -0.570992 0.441941 -0.874103 -0.201573
-45.5548 83.1965 -1.00356 0.437924 -0.854397 -0.276814
-44.8812 83.6739 -1.53472 0.402733 -0.873295 -0.274158
-44.3668 84.1347 -2.14873 0.36679 -0.880063 -0.301585
-43.8285 84.6027 -2.95195 0.298795 -0.910847 -0.284744
-43.3408 85.0172 -3.8391 0.260277 -0.921601 -0.287938
-42.7635 85.1611 -4.89629 0.0794694 -0.99655 0.022258
-41.8588 85.1628 -5.57561 0.0272054 -0.993624 0.10941
-41.069 85.3047 -5.14774 0.12656 -0.985899 0.10914
-40.613 85.5005 -3.99822 0.222156 -0.971908 0.0707488
-40.2172 85.6061 -2.72294 0.237586 -0.971366 -0.000539047
-39.6829 85.5386 -1.39473 0.282534 -0.947945 -0.113032
-39.1292 85.5807 -0.391071 0.376176 -0.90231 -0.210542
-38.6131 85.617 0.375568 0.367496 -0.904018 -0.21809
-38.5568 85.6223 0.44396 0.358818 -0.905726 -0.225634
-37.9222 86.032 -0.135688 0.400366 -0.891095 -0.211474
-37.2609 86.1262 0.635467 0.405675 -0.8819 -0.240166
-36.3405 86.3249 1.36224 0.405979 -0.875804 -0.259968
-35.2075 86.628 1.90792 0.380335 -0.870831 -0.311443
-34.0935 86.9798 2.22098 0.366424 -0.868967 -0.33261
-32.9444 87.4033 2.25142 0.314619 -0.884735 -0.343887
-32.1021 87.7221 2.18674 0.306335 -0.889158 -0.339938
-31.2478 88.0611 2.04602 0.288218 -0.899294 -0.328939
-30.2232 88.4061 1.83104 0.22622 -0.930894 -0.286811
-29.0951 88.6349 1.66192 0.0995873 -0.964986 -0.242662
-28.0881 88.7689 1.48188 0.0415728 -0.982823 -0.168783
-26.8947 88.8757 1.2518 -0.0158057 -0.991373 -0.0995439
-25.6583 88.7703 1.03366 -0.146082 -0.98566 -0.0697915
-24.7513 88.6633 1.16782 -0.0933924 -0.995542 0.0131799
-23.9602 88.5612 1.69602 -0.206282 -0.977844 0.0277559
-23.7488 88.5248 2.60424 -0.176703 -0.983102 0.0331875
-23.9927 88.6109 3.5449 -0.14518 -0.9884 0.0445874
-24.4395 88.6862 4.36678 0.0848503 -0.994531 -0.0606133
-25.1899 88.5743 5.23571 0.143117 -0.981423 -0.102401
-25.8768 88.32 5.81463 0.188373 -0.949232 -0.251939
-26.5692 87.9695 6.41302 0.249208 -0.914089 -0.3199
-27.2529 87.544 6.93749 0.33564 -0.872384 -0.352526
-28.196 86.7797 7.75039 0.345839 -0.821812 -0.448409
-28.7666 86.1224 8.42505 0.325955 -0.80572 -0.494538
-29.2416 85.45 9.30307 0.247485 -0.832167 -0.496235
-29.4836 84.8986 10.0742 0.157015 -0.840612 -0.517503
-29.6441 84.3545 10.9509 0.132459 -0.852883 -0.505021
-29.7439 83.8667 11.7539 0.11055 -0.868306 -0.482432
-29.8341 83.3194 12.7588 0.0815147 -0.875121 -0.476989
-29.8036 82.7273 13.9051 0.0468053 -0.890295 -0.452972
-29.8034 82.0634 15.2126 -0.0238067 -0.894956 -0.445519
-29.9895 81.4704 16.416 -0.055233 -0.894151 -0.444345
-30.2464 80.8836 17.6886 -0.0618676 -0.907311 -0.415883
-30.2654 80.3389 18.8082 -0.114752 -0.882763 -0.4555
-30.2234 79.8464 19.7594 -0.122895 -0.88089 -0.457052
-30.2665 79.2128 20.9675 -0.133559 -0.868646 -0.476927
-30.2613 78.7444 21.7858 -0.132531 -0.859237 -0.494111
-30.3325 78.2026 22.7547 -0.12972 -0.864811 -0.485051
-30.3808 77.7505 23.5735 -0.125868 -0.863578 -0.488225
-30.5958 76.9273 24.92 -0.138701 -0.837115 -0.52909
-31.0118 76.2105 26.1344 -0.138798 -0.824205 -0.548847
-31.4976 75.63 27.0936 -0.131208 -0.816603 -0.562089
-32.2099 75.0265 28.1478 -0.133948 -0.818953 -0.558007
-32.7769 74.6348 28.872 -0.123833 -0.828749 -0.545747
-33.3524 74.286 29.5324 -0.12617 -0.83598 -0.533873
-33.9539 73.9565 30.175 -0.0987498 -0.844079 -0.527034
-34.9945 73.4747 31.1205 -0.0723251 -0.851021 -0.520127
-35.7791 73.1912 31.6848 -0.0548445 -0.856481 -0.513143
-36.8557 72.8265 32.4339 -0.0444746 -0.862513 -0.503858
-37.6694 72.4449 33.1389 -0.0132147 -0.873868 -0.485983
-38.4453 71.9646 34.0068 -0.00561244 -0.876097 -0.481984
-39.2531 71.3497 35.0869 0.0190999 -0.882008 -0.470314
-39.885 70.7688 36.1592 0.0594606 -0.88627 -0.459209
-40.4481 70.1362 37.3666 0.0843219 -0.894058 -0.439776
-41.0263 69.5736 38.461 0.0914287 -0.911106 -0.401681
-41.5238 69.1275 39.3541 0.116484 -0.910803 -0.396068
-42.1671 68.6308 40.3379 0.119757 -0.914143 -0.387253
-42.9945 68.1342 41.2752 0.126947 -0.919653 -0.371649
-43.8182 67.8072 41.7952 0.140399 -0.917779 -0.371442
-45.2276 67.4416 42.1495 0.148805 -0.916342 -0.371717
-46.5826 67.2842 41.9624 0.169072 -0.913178 -0.370837
-47.5603 67.2136 41.6717 0.184863 -0.91207 -0.365997
-48.693 67.1793 41.1713 0.193467 -0.911996 -0.361709
-49.5123 67.2071 40.654 0.199858 -0.912194 -0.357713
-50.3469 67.2146 40.1157 0.228656 -0.912199 -0.340013
-51.2994 67.1634 39.5702 0.243191 -0.913766 -0.325408
-52.523 66.988 39.0932 0.268064 -0.913777 -0.305209
-53.5328 66.7621 38.8494 0.299985 -0.904632 -0.302737
-54.6402 66.4667 38.6065 0.316504 -0.899255 -0.301936
-55.8637 66.1823 38.1341 0.327341 -0.900304 -0.286882
-56.7313 66.0503 37.5439 0.333677 -0.900754 -0.278031
-57.4011 66.0037 36.8913 0.339428 -0.901711 -0.267508
-57.9922 65.9713 36.2109 0.348624 -0.897968 -0.268246
-58.821 65.9939 35.1399 0.337146 -0.901227 -0.272056
-59.2478 66.089 34.3054 0.34414 -0.895256 -0.282992
-59.5036 66.2939 33.3678 0.360805 -0.886797 -0.288721
-59.6205 66.6527 32.1185 0.366262 -0.882459 -0.295157
-59.6402 66.936 31.2467 0.374126 -0.878249 -0.297693
-59.5441 67.3734 30.1301 0.394335 -0.866603 -0.305777
-59.3972 67.8861 28.8353 0.398751 -0.869463 -0.291477
-59.3213 68.3184 27.6571 0.423289 -0.85748 -0.292479
-59.3658 68.6142 26.7221 0.430874 -0.853647 -0.292634
-59.4937 68.9311 25.5677 0.443835 -0.853015 -0.274548
-59.6894 69.2362 24.3056 0.453398 -0.849043 -0.271213
-60.0124 69.4863 22.9762 0.477932 -0.834987 -0.272723
-60.2515 69.6403 22.0772 0.480076 -0.837136 -0.262146
-60.4902 69.7945 21.1393 0.482449 -0.836899 -0.258533
-60.7007 70.0453 19.9355 0.476008 -0.843304 -0.249193
-60.8035 70.3422 18.6963 0.496049 -0.833962 -0.241682
-60.7484 70.7209 17.4909 0.480017 -0.844298 -0.238021
-60.6209 71.1013 16.4094 0.491498 -0.837295 -0.239515
-60.3946 71.5572 15.1514 0.500127 -0.839011 -0.214322
-60.1068 72.0366 13.8858 0.505357 -0.840654 -0.194716
-59.8592 72.3864 13.0127 0.50793 -0.839967 -0.190929
-59.5492 72.8308 11.8988 0.51054 -0.839 -0.188166
-59.2107 73.2752 10.7482 0.519089 -0.837231 -0.171429
-58.824 73.7273 9.66683 0.534239 -0.831693 -0.151245
-58.3864 74.1723 8.74315 0.527243 -0.838094 -0.13999
-57.964 74.5685 7.94554 0.526981 -0.839114 -0.134807
-57.3184 75.1525 6.80966 0.53201 -0.836443 -0.131406
-56.8801 75.5326 6.10002 0.524889 -0.841709 -0.126562
-56.0081 76.2189 5.09716 0.522588 -0.844563 -0.116686
-55.2194 76.7894 4.468 0.518531 -0.8484 -0.106409
-54.3968 77.3695 3.85604 0.517746 -0.849377 -0.102386
-53.4187 78.0562 3.04986 0.509254 -0.854476 -0.102452
-52.7807 78.4929 2.57026 0.503562 -0.856571 -0.112746
-52.0258 79.001 2.09107 0.500573 -0.857066 -0.1219
-51.1894 79.5674 1.53767 0.502422 -0.85544 -0.125599
-50.3924 80.1366 0.891179 0.497886 -0.857199 -0.131274
-49.449 80.8243 0.130107 0.510208 -0.847578 -0.14578
-48.6405 81.3772 -0.383283 0.478845 -0.86335 -0.159169
-47.8857 81.893 -0.817868 0.482018 -0.858348 -0.175418
-46.8565 82.5926 -1.35801 0.462455 -0.863829 -0.198494
-46.1662 83.0955 -1.73641 0.47311 -0.835498 -0.27948
-45.3075 83.7824 -2.4014 0.415813 -0.847274 -0.330495
-44.7946 84.3574 -3.14609 0.36093 -0.826325 -0.432338
-44.3564 84.781 -3.89345 0.199389 -0.939575 -0.278287
-43.8522 85.072 -4.90101 0.164027 -0.976478 -0.0827573
-43.3822 85.0728 -5.69233 0.0988639 -0.992609 0.0703758
-42.7258 85.0247 -6.40458 0.0459297 -0.989707 0.13551
-41.6474 85.003 -6.66168 0.0719222 -0.973946 0.202119
-40.57 85.2234 -6.24266 0.182122 -0.970112 0.144637
-40.0872 85.4819 -5.38786 0.231443 -0.967053 0.106033
-39.7761 85.6605 -4.42799 0.222155 -0.971908 0.07075
-39.3616 85.8203 -3.09253 0.322595 -0.94548 0.0406907
-38.9883 85.8841 -2.02198 0.371607 -0.923314 -0.0969456
-38.5612 85.9347 -1.13053 0.347602 -0.926547 -0.143818
-38.0655 86.0082 -0.328211 0.409793 -0.896355 -0.167815
-37.4992 86.3903 -0.986168 0.409796 -0.896354 -0.167811
-38.0441 86.2584 -1.95998 0.397563 -0.91608 -0.0462053
-38.4039 86.1649 -3.04398 0.332109 -0.941719 -0.000686266
-38.6444 86.0274 -3.96465 0.322596 -0.94548 0.0406894
-38.93 85.8542 -4.88902 0.282539 -0.953502 0.10491
-39.2924 85.5701 -6.04619 0.250488 -0.945176 0.20952
-39.7126 85.3042 -6.82176 0.212457 -0.936576 0.278725
-40.8927 84.9125 -7.5565 0.109013 -0.965503 0.236475
-41.8515 84.8045 -7.64502 0.0393854 -0.968222 0.239736
-42.8404 84.7791 -7.4503 0.0799805 -0.956268 0.281344
-43.7887 84.9014 -6.71581 0.110215 -0.980317 0.1604
-44.4539 84.9325 -5.73393 0.163114 -0.984605 0.0510321
-45.0051 84.8556 -4.63274 0.164017 -0.976479 -0.0827538
-45.4268 84.4393 -3.85661 0.353776 -0.855975 -0.371202
-46.0746 83.7081 -2.95713 0.456487 -0.778657 -0.413471
-46.9358 82.8148 -2.35834 0.500121 -0.834684 -0.230605
-47.6909 82.2545 -1.96084 0.491667 -0.844531 -0.21099
-48.5448 81.6609 -1.51249 0.493127 -0.848227 -0.193225
-49.5814 80.9272 -0.896341 0.513773 -0.844552 -0.150895
-50.3385 80.3755 -0.359667 0.509223 -0.849121 -0.14027
-51.0665 79.8326 0.266826 0.508387 -0.850488 -0.134784
-51.8 79.3042 0.881827 0.506172 -0.852642 -0.129584
-52.7128 78.6871 1.42472 0.50818 -0.852795 -0.120385
-53.5307 78.127 1.97372 0.513075 -0.851196 -0.110541
-54.5012 77.4412 2.7758 0.51294 -0.851766 -0.106686
-55.1881 76.9584 3.30965 0.515456 -0.850034 -0.108374
-56.057 76.3449 3.94708 0.519734 -0.847185 -0.110244
-56.8235 75.7812 4.61568 0.521864 -0.845016 -0.116645
-57.5152 75.2312 5.47043 0.522661 -0.843128 -0.126306
-57.9556 74.8509 6.20004 0.520433 -0.844546 -0.126062
-58.3594 74.4854 6.92724 0.519627 -0.843556 -0.135568
-58.9436 73.9557 7.98557 0.517336 -0.843752 -0.142984
-59.3642 73.5611 8.78507 0.517997 -0.841729 -0.151979
-59.827 73.0633 9.93816 0.508885 -0.846471 -0.156602
-60.1311 72.7134 10.7895 0.509147 -0.843581 -0.170617
-60.375 72.3631 11.7355 0.511647 -0.83936 -0.183554
-60.6559 71.976 12.7049 0.506432 -0.841295 -0.189073
-60.9159 71.6314 13.5353 0.50354 -0.842123 -0.193051
-61.0772 71.3444 14.3777 0.502092 -0.841123 -0.200803
-61.3075 70.9836 15.2666 0.501295 -0.838832 -0.21227
-61.4449 70.6436 16.3187 0.494179 -0.839991 -0.223451
-61.6229 70.2339 17.4549 0.480017 -0.844298 -0.238021
-61.6366 69.914 18.5434 0.470698 -0.848994 -0.240108
-61.5921 69.6868 19.4277 0.473248 -0.847759 -0.239435
-61.4641 69.4665 20.4121 0.461674 -0.850841 -0.250851
-61.2201 69.2345 21.6327 0.463312 -0.848524 -0.255606
-60.8818 69.0587 22.8195 0.465574 -0.845022 -0.263017
-60.6813 68.8939 23.6957 0.460944 -0.847775 -0.262313
-60.3729 68.6904 24.8718 0.453337 -0.849072 -0.271225
-60.279 68.3449 26.126 0.439513 -0.854974 -0.275406
-60.1637 68.1025 27.086 0.417666 -0.865392 -0.276756
-60.1775 67.7277 28.2117 0.405557 -0.867625 -0.287638
-60.3474 67.2051 29.5668 0.398751 -0.869463 -0.291476
-60.4884 66.7281 30.8088 0.368291 -0.882482 -0.292553
-60.5086 66.4089 31.7427 0.36816 -0.882124 -0.293796
-60.4457 66.1341 32.652 0.362779 -0.888105 -0.282183
-60.3131 65.8644 33.6826 0.358668 -0.890732 -0.279203
-60.0772 65.677 34.6001 0.3519 -0.89358 -0.278566
-59.6516 65.5606 35.5244 0.345879 -0.899585 -0.266672
-58.7533 65.5757 36.6164 0.330316 -0.907833 -0.258322
-58.1877 65.5815 37.3209 0.324248 -0.911224 -0.253965
-57.242 65.6486 38.276 0.327474 -0.908374 -0.260033
-56.2748 65.8093 38.8939 0.321929 -0.907935 -0.268355
-55.1873 66.0515 39.3482 0.31313 -0.908047 -0.27821
-54.2378 66.2945 39.5851 0.286146 -0.912831 -0.291309
-53.2252 66.5466 39.7983 0.284023 -0.909207 -0.303969
-52.0863 66.7356 40.167 0.253355 -0.910631 -0.326438
-51.051 66.8243 40.6893 0.228101 -0.910356 -0.345241
-50.2608 66.8322 41.1817 0.227543 -0.908511 -0.350474
-49.4107 66.8039 41.7413 0.206014 -0.911748 -0.35535
-48.4302 66.7868 42.3034 0.188773 -0.912847 -0.362042
-47.1047 66.8825 42.7163 0.175499 -0.912245 -0.370146
-45.7825 66.9845 43.0592 0.163436 -0.913684 -0.372117
-44.7783 67.1594 43.0425 0.149064 -0.91923 -0.364413
-43.6855 67.4353 42.7754 0.138577 -0.922332 -0.360695
-42.7045 67.7858 42.2515 0.134884 -0.922673 -0.36122
-41.9199 68.1578 41.588 0.130361 -0.921801 -0.365036
-41.2351 68.5993 40.7116 0.119561 -0.924133 -0.362882
-40.76 68.9864 39.9189 0.115703 -0.918769 -0.377428
-40.3433 69.3482 39.1482 0.0894412 -0.916622 -0.389621
-39.9045 69.7406 38.3488 0.0789546 -0.909547 -0.407712
-39.4863 70.1666 37.4472 0.0641961 -0.905193 -0.419657
-39.0008 70.7048 36.3709 0.0374221 -0.905084 -0.423583
-38.5501 71.1061 35.6026 0.0213973 -0.892446 -0.450647
-37.9372 71.5494 34.7768 0.00669038 -0.876349 -0.481423
-37.3226 71.9485 34.0285 -0.00794813 -0.880271 -0.47438
-36.6665 72.3047 33.3442 -0.0352155 -0.870809 -0.490359
-35.5735 72.7024 32.5435 -0.0530921 -0.875078 -0.480929
-34.6875 72.9697 31.9385 -0.0603196 -0.867268 -0.493925
-34.0135 73.2335 31.3848 -0.106563 -0.858813 -0.501083
-33.3923 73.5134 30.7729 -0.104178 -0.850693 -0.514979
-32.5918 73.9361 29.9103 -0.128505 -0.843208 -0.522003
-31.8399 74.3698 29.0513 -0.144585 -0.828829 -0.540498
-31.2457 74.7771 28.2838 -0.133423 -0.819704 -0.557031
-30.7399 75.2188 27.5106 -0.144926 -0.81121 -0.566473
-30.3051 75.71 26.6876 -0.142483 -0.814971 -0.561712
-29.9322 76.1337 25.9845 -0.13507 -0.822854 -0.551724
-29.6374 76.8063 24.8619 -0.137755 -0.834938 -0.532825
-29.4635 77.3159 24.0116 -0.157356 -0.842837 -0.514651
-29.3989 78.0358 22.7754 -0.14911 -0.859475 -0.488947
-29.3118 78.5628 21.8406 -0.13996 -0.857061 -0.495841
-29.3331 79.1987 20.7317 -0.133559 -0.868646 -0.476927
-29.3134 79.6429 19.9122 -0.107286 -0.870123 -0.481015
-29.3022 80.073 19.096 -0.106429 -0.882051 -0.458976
-29.3196 80.7293 17.8304 -0.107365 -0.884029 -0.454935
-29.1659 81.1475 16.9632 -0.0420257 -0.890737 -0.452296
-28.9912 81.5723 16.1333 -0.0288229 -0.887324 -0.460245
-28.9047 81.981 15.3302 -0.0109069 -0.888019 -0.459239
-28.8721 82.592 14.192 0.00604689 -0.884962 -0.465531
-28.9204 83.1964 13.0851 0.0405251 -0.868787 -0.493526
-28.8375 83.8404 11.9842 0.079976 -0.848184 -0.523624
-28.7254 84.3994 11.1006 0.0837104 -0.845304 -0.527664
-28.5857 84.9063 10.3697 0.181572 -0.828341 -0.529984
-28.3753 85.4289 9.64531 0.226772 -0.793816 -0.561948
-27.9661 86.1156 8.89356 0.264922 -0.789879 -0.55309
-27.4714 86.6812 8.34432 0.291858 -0.794429 -0.532636
-26.7633 87.3556 7.7163 0.308728 -0.841621 -0.443127
-26.099 87.8101 7.27436 0.267841 -0.924241 -0.272102
-25.3062 88.2336 6.5665 0.203437 -0.947521 -0.246074
-24.5923 88.5455 5.98791 0.0918596 -0.972068 -0.143203
-23.6918 88.5966 4.97587 -0.100561 -0.989383 -0.0579611
-23.0509 88.4862 3.84641 -0.153156 -0.98766 0.0248252
-22.7778 88.378 2.94343 -0.244071 -0.966957 0.0736391
-22.8085 88.2741 1.67779 -0.279021 -0.955951 0.0847145
-23.2785 88.3703 0.862433 -0.259091 -0.963057 0.055977
-24.107 88.5263 0.307602 -0.216294 -0.975212 0.0466774
-25.2597 88.7476 0.121838 -0.192166 -0.979547 -0.0596734
-26.442 88.9234 0.153998 -0.11025 -0.98983 -0.0898982
-27.5659 89.0145 0.412299 -0.0920029 -0.991518 -0.091797
-28.8629 88.889 0.713223 0.0821618 -0.971754 -0.221231
-30.1449 88.6667 0.881627 0.187266 -0.954761 -0.231004
-31.0533 88.4274 1.0891 0.25592 -0.914138 -0.314415
-31.9387 88.1201 1.26302 0.25576 -0.914377 -0.313849
-33.0244 87.7239 1.36268 0.311674 -0.882139 -0.351513
-33.9788 87.3581 1.33881 0.338905 -0.87583 -0.343226
-35.0995 86.9811 1.05424 0.381938 -0.870081 -0.311581
-36.0685 86.7014 0.57649 0.425739 -0.864571 -0.266953
-37.0416 86.4661 -0.370666 0.426846 -0.882334 -0.194476
-37.1415 86.4481 -0.498144 0.395069 -0.900285 -0.182776
-36.5157 86.9083 -1.05487 0.458624 -0.864383 -0.206168
-35.8273 87.0759 -0.314943 0.424151 -0.871593 -0.24581
-34.9967 87.3843 0.18691 0.432239 -0.839742 -0.325073
-34.0798 87.7213 0.397597 0.327284 -0.867615 -0.374339
-33.2039 88.0139 0.472668 0.2854 -0.88352 -0.371375
-32.2454 88.3251 0.462049 0.248163 -0.896616 -0.364734
-31.2543 88.6765 0.202889 0.256079 -0.913898 -0.314982
-30.2575 88.9417 0.00478348 0.123182 -0.948591 -0.289513
-29.3597 89.0745 -0.12769 0.0803164 -0.959567 -0.26878
-28.4725 89.1793 -0.308056 0.052168 -0.961725 -0.268899
-27.4975 89.1187 -0.62666 -0.106126 -0.985826 -0.129938
-26.2581 88.984 -0.814831 -0.113383 -0.990417 -0.0788611
-25.3745 88.7759 -0.827362 -0.198632 -0.980059 0.00553254
-24.3591 88.5523 -0.703804 -0.225655 -0.973906 0.0173326
-22.8659 88.1392 -0.168549 -0.33266 -0.938924 0.0855838
-22.2064 88.0027 0.642429 -0.318479 -0.942633 0.10007
-21.7269 87.9829 1.74489 -0.306848 -0.943989 0.121367
-21.747 88.153 3.09251 -0.198688 -0.973345 0.114553
-22.1578 88.3757 4.24922 -0.198354 -0.972835 0.119363
-22.6469 88.4822 5.17718 -0.0590319 -0.99773 0.0324012
-23.2116 88.5231 5.9767 0.0245212 -0.99969 -0.00442562
-24.0627 88.4922 6.79638 0.24796 -0.935424 -0.0802172
-24.7504 88.1862 7.47627 0.272062 -0.936174 -0.213959
-25.6915 87.6224 8.13363 0.356121 -0.84084 -0.404461
-26.3861 87.0765 8.55658 0.4193 -0.786261 -0.449334
-26.9436 86.2841 9.19866 0.336593 -0.739514 -0.582944
-27.4282 85.6373 9.77299 0.218709 -0.763458 -0.6077
-27.6688 84.8815 10.5872 0.153917 -0.771076 -0.613084
-27.7752 84.3335 11.3633 0.0879347 -0.84365 -0.529643
-27.9338 83.7446 12.2474 0.0268061 -0.847225 -0.530557
-27.9799 83.2074 13.1191 0.0118276 -0.868107 -0.496237
-27.9754 82.4773 14.3517 -0.0289657 -0.865662 -0.498827
-28.022 82.0231 15.192 -0.0529447 -0.872325 -0.48591
-28.0632 81.5496 16.0309 -0.0836566 -0.879059 -0.469315
-28.1389 81.1225 16.8427 -0.088524 -0.872072 -0.481304
-28.3781 80.443 18.1638 -0.108278 -0.884032 -0.454712
-28.3473 79.927 19.1434 -0.116396 -0.879326 -0.461776
-28.3865 79.4321 20.0608 -0.132991 -0.858542 -0.49517
-28.3559 78.8731 21.0283 -0.136538 -0.859321 -0.492874
-28.3868 78.3439 21.9567 -0.140531 -0.858167 -0.493761
-28.454 77.8203 22.8729 -0.148522 -0.854339 -0.498042
-28.5009 77.1337 24.0544 -0.114998 -0.849425 -0.515026
-28.7239 76.556 24.9964 -0.161536 -0.827586 -0.537594
-29.0773 75.7964 26.2597 -0.151898 -0.817738 -0.554942
-29.4581 75.3388 27.0132 -0.140313 -0.810127 -0.569184
-29.9152 74.7566 27.9511 -0.14737 -0.807449 -0.571234
-30.3934 74.4038 28.5944 -0.162812 -0.814552 -0.556774
-31.26 73.9065 29.6063 -0.144856 -0.828654 -0.540694
-31.8493 73.5853 30.2971 -0.126558 -0.844299 -0.520714
-32.927 73.0602 31.4714 -0.114869 -0.865067 -0.487873
-33.6264 72.7506 32.1501 -0.0987968 -0.873117 -0.477082
-34.3456 72.5167 32.7421 -0.0479524 -0.883209 -0.466522
-35.1488 72.265 33.3011 -0.0472298 -0.882022 -0.468827
-35.9065 72.0159 33.8387 -0.0236395 -0.88566 -0.463733
-36.7729 71.5746 34.7051 -0.0124731 -0.879403 -0.475916
-37.4111 71.1841 35.4676 -0.00687726 -0.887392 -0.460954
-38.1123 70.6375 36.5766 0.0101172 -0.90673 -0.421307
-38.4835 70.2478 37.3768 0.0257457 -0.90957 -0.414431
-39.0455 69.6575 38.6519 0.0497506 -0.911094 -0.409186
-39.4415 69.3297 39.4552 0.108589 -0.92262 -0.370109
-39.8358 68.9443 40.2939 0.110886 -0.919781 -0.376439
-40.3481 68.5637 41.0966 0.120969 -0.924307 -0.361971
-40.955 68.1628 41.9302 0.128075 -0.926388 -0.35405
-41.5935 67.8034 42.6204 0.13384 -0.923982 -0.358249
-42.5547 67.38 43.3455 0.134877 -0.922917 -0.360599
-43.4404 67.1123 43.6934 0.136358 -0.923317 -0.359004
-44.6598 66.8375 43.9186 0.149442 -0.9232 -0.354074
-46.1459 66.5814 43.9207 0.164948 -0.921651 -0.351215
-47.0942 66.5107 43.6411 0.168973 -0.912197 -0.373198
-48.1123 66.4266 43.3673 0.177131 -0.913094 -0.367252
-49.3699 66.4025 42.7919 0.186176 -0.915625 -0.356327
-50.3763 66.4377 42.1365 0.199716 -0.917385 -0.344265
-51.5215 66.4576 41.3723 0.211871 -0.918124 -0.334901
-53.0257 66.2987 40.7616 0.237781 -0.929018 -0.283523
-54.2818 66.0132 40.4653 0.285925 -0.918699 -0.272469
-55.1606 65.7993 40.2523 0.307259 -0.916444 -0.256363
-56.6026 65.4594 39.7007 0.320005 -0.910657 -0.261342
-57.5119 65.2946 39.1659 0.314787 -0.912405 -0.261539
-58.353 65.1837 38.5296 0.316776 -0.914801 -0.250585
-59.0542 65.166 37.6934 0.329015 -0.910528 -0.250374
-59.9106 65.1306 36.6889 0.339733 -0.905883 -0.252897
-60.5569 65.1831 35.652 0.338737 -0.903743 -0.261736
-60.9034 65.2934 34.7909 0.349457 -0.899668 -0.261565
-61.227 65.5157 33.6307 0.351012 -0.894906 -0.275491
-61.3385 65.9363 32.1515 0.355352 -0.889938 -0.285815
-61.3747 66.386 30.7069 0.37326 -0.883835 -0.281853
-61.1909 66.8955 29.3749 0.380851 -0.881414 -0.279396
-61.1096 67.2367 28.4355 0.384759 -0.877352 -0.286728
-61.0165 67.6076 27.3389 0.411956 -0.870684 -0.268705
-61.1111 67.8424 26.4194 0.416166 -0.870379 -0.263146
-61.1181 68.1386 25.3891 0.454234 -0.852099 -0.259999
-61.4193 68.3919 24.0506 0.447708 -0.855267 -0.260913
-61.6204 68.5648 23.1234 0.453935 -0.852301 -0.25986
-61.9405 68.6953 22.1252 0.459346 -0.850238 -0.257092
-62.177 68.8596 21.1626 0.45043 -0.855986 -0.25363
-62.3507 69.0959 20.0464 0.457744 -0.852515 -0.252367
-62.4912 69.3732 18.7993 0.460574 -0.854788 -0.239185
-62.5 69.6936 17.6619 0.458295 -0.854149 -0.245755
-62.407 69.9685 16.797 0.472707 -0.851981 -0.224926
-62.3368 70.2602 15.8342 0.476499 -0.854966 -0.204895
-62.2194 70.5521 14.9325 0.481053 -0.849538 -0.216502
-61.8858 70.9704 13.9888 0.47819 -0.853521 -0.206968
-61.5773 71.4267 12.7588 0.485722 -0.85262 -0.192519
-61.2625 71.8313 11.7503 0.495328 -0.849876 -0.179652
-60.9893 72.2275 10.6742 0.498337 -0.849042 -0.175349
-60.5805 72.6968 9.51269 0.495814 -0.852046 -0.167884
-59.9868 73.2946 8.14897 0.50205 -0.851825 -0.149319
-59.5673 73.6901 7.33632 0.506827 -0.849729 -0.145083
-58.9868 74.2054 6.31109 0.509176 -0.849196 -0.140023
-58.5688 74.5755 5.51061 0.520889 -0.844339 -0.125563
-57.7108 75.2864 4.28613 0.5182 -0.84614 -0.124525
-57.1396 75.724 3.66938 0.514278 -0.849209 -0.119745
-56.1724 76.4195 2.86203 0.516101 -0.848698 -0.115545
-55.2127 77.0929 2.14458 0.510852 -0.852317 -0.11219
-54.4237 77.6486 1.51958 0.512471 -0.851329 -0.112305
-53.6977 78.1553 0.990938 0.512304 -0.85142 -0.112376
-53.0249 78.6251 0.547545 0.508067 -0.852836 -0.120578
-52.3018 79.1166 0.119987 0.509868 -0.851685 -0.121098
-51.3949 79.7843 -0.682272 0.516622 -0.846012 -0.13178
-50.4021 80.5307 -1.47045 0.520934 -0.840033 -0.151326
-49.208 81.3751 -2.18553 0.518386 -0.843239 -0.141723
-48.1706 82.1453 -2.73902 0.534731 -0.826786 -0.174307
-47.4832 82.6552 -3.09854 0.548549 -0.794608 -0.246183
-46.725 83.5255 -3.62368 0.650391 -0.690848 -0.315787
-46.4041 84.2894 -4.09169 0.258766 -0.749915 -0.608825
-45.9979 84.7996 -4.74605 0.0772923 -0.946606 -0.237441
-45.4466 84.8543 -5.86673 0.0289644 -0.999415 -0.018172
-44.9277 84.79 -6.66424 0.0755844 -0.991359 0.10721
-44.088 84.6284 -7.75656 0.0459751 -0.957656 0.284185
-42.8844 84.4563 -8.43446 0.0467977 -0.942124 0.33067
-41.2561 84.5522 -8.55395 0.0954645 -0.937349 0.334887
-40.183 84.7583 -8.31811 0.120573 -0.936539 0.328656
-39.4035 85.0412 -7.88059 0.174387 -0.92962 0.323925
-38.7258 85.4093 -7.14035 0.222632 -0.912643 0.337249
-38.2297 85.8964 -5.98296 0.306634 -0.934767 0.179406
-38.027 86.1413 -5.10919 0.37247 -0.921964 0.105924
-37.7179 86.3673 -4.07343 0.351343 -0.935248 0.0432208
-37.5271 86.5206 -3.14706 0.413776 -0.9081 0.0316919
-37.2324 86.6417 -2.27541 0.45535 -0.888831 -0.0295791
-36.9765 86.7234 -1.64722 0.457655 -0.886239 -0.0716432
-36.5391 86.9036 -1.08727 0.458002 -0.875371 -0.13904
