-31.2155 88.1306 4.02377 0.302683 -0.884534 -0.353687
-30.0059 88.633 3.65239 0.266184 -0.921235 -0.282781
-28.7952 89.0503 3.32763 0.244921 -0.930514 -0.272282
-27.4389 89.3919 2.8883 0.160743 -0.957997 -0.237492
-25.9449 89.5636 2.52094 0.0769394 -0.983751 -0.162217
-24.8236 89.5517 2.55932 -0.054208 -0.9976 -0.0154906
-25.4388 89.4969 3.48912 0.153345 -0.985711 -0.0507559
-26.28 89.3278 4.14231 0.177634 -0.967032 -0.182472
-27.0829 89.0585 4.66422 0.233059 -0.953024 -0.193463
-27.7854 88.7192 5.19077 0.269941 -0.92156 -0.279031
-28.4892 88.3202 5.75746 0.287237 -0.886002 -0.363999
-29.3468 87.6834 6.55767 0.310709 -0.866029 -0.391731
-30.0071 87.028 7.38437 0.304205 -0.84355 -0.441649
-30.69 86.2247 8.49008 0.279829 -0.844044 -0.457478
-31.1019 85.6217 9.41648 0.245738 -0.860769 -0.445746
-31.42 85.0294 10.3687 0.196128 -0.875407 -0.441811
-31.725 84.3412 11.6297 0.144444 -0.885639 -0.441338
-31.8589 83.8485 12.6223 0.129181 -0.908377 -0.397698
-31.9039 83.4554 13.4576 0.0726773 -0.905982 -0.41618
-31.9421 82.9119 14.719 0.0618279 -0.917572 -0.392718
-32.1095 82.358 15.9908 0.00721846 -0.925714 -0.37724
-32.2444 81.9359 17.0191 -0.0202455 -0.921504 -0.38784
-32.3343 81.4863 18.1449 -0.0720556 -0.921298 -0.381465
-32.3865 81.1041 19.0459 -0.0866347 -0.909766 -0.405745
-32.4604 80.6684 20.0032 -0.100882 -0.89388 -0.435959
-32.5175 80.193 20.932 -0.11663 -0.880344 -0.459773
-32.4971 79.5215 22.1665 -0.10651 -0.865044 -0.49026
-32.5057 78.9584 23.1779 -0.105118 -0.873087 -0.476098
-32.6408 78.4993 23.9949 -0.106033 -0.84435 -0.525195
-32.8789 78.0418 24.7723 -0.0980374 -0.84501 -0.525634
-33.2078 77.6017 25.5501 -0.0944225 -0.848804 -0.520208
-33.5819 77.1001 26.4101 -0.0894915 -0.842644 -0.530982
-34.1981 76.4929 27.378 -0.0996752 -0.810248 -0.577429
-34.9913 75.7994 28.5207 -0.0956995 -0.821948 -0.561459
-35.5553 75.4353 29.1315 -0.0818176 -0.819942 -0.566569
-36.7381 74.8509 30.1453 -0.0618495 -0.832066 -0.551217
-37.9096 74.3796 30.9924 -0.0532507 -0.842266 -0.536426
-38.7311 74.0525 31.5634 -0.0205809 -0.840624 -0.541202
-39.6236 73.5182 32.4403 -0.00405036 -0.842647 -0.538106
-40.4113 72.9336 33.3903 0.0273284 -0.849694 -0.526065
-41.1542 72.2623 34.4681 0.0580606 -0.858811 -0.508678
-41.5656 71.8307 35.1602 0.0794099 -0.868433 -0.489407
-41.9488 71.3843 35.9075 0.0693388 -0.876134 -0.477055
-42.3183 70.9462 36.6542 0.101063 -0.874431 -0.474506
-42.7139 70.5179 37.4017 0.108101 -0.887349 -0.448248
-43.2513 69.9844 38.3663 0.110527 -0.906907 -0.406574
-43.998 69.4247 39.3956 0.119731 -0.907442 -0.402631
-44.916 69.0169 40.037 0.137475 -0.905375 -0.401742
-45.9759 68.7518 40.2582 0.156792 -0.905217 -0.394888
-47.4698 68.6343 39.9075 0.165565 -0.903614 -0.395051
-48.4116 68.6406 39.4455 0.190281 -0.898821 -0.39486
-49.6928 68.6219 38.7987 0.238659 -0.891272 -0.385587
-50.615 68.547 38.3998 0.255662 -0.902327 -0.347041
-51.6979 68.4141 37.9525 0.27002 -0.89912 -0.344111
-52.8236 68.2186 37.5246 0.293758 -0.893058 -0.340673
-53.7373 68.0506 37.1505 0.314783 -0.890888 -0.326969
-54.9786 67.7796 36.6083 0.336384 -0.88796 -0.313644
-55.7592 67.6313 36.159 0.347401 -0.888594 -0.299521
-56.4905 67.58 35.4656 0.354725 -0.885976 -0.298551
-57.1208 67.5953 34.6447 0.361652 -0.882249 -0.301332
-57.6036 67.6984 33.76 0.386879 -0.872899 -0.297274
-57.9064 67.9029 32.7635 0.393243 -0.866321 -0.30764
-57.9682 68.2193 31.8329 0.404963 -0.859778 -0.310956
-57.9202 68.5641 30.9371 0.418611 -0.850314 -0.318953
-57.8347 69.0612 29.6985 0.431953 -0.847429 -0.308531
-57.8059 69.5387 28.4333 0.445139 -0.844415 -0.298019
-57.7917 69.923 27.4098 0.462079 -0.832423 -0.305868
-57.8704 70.3009 26.2774 0.477545 -0.823438 -0.306144
-58.0152 70.6399 25.0954 0.488946 -0.818328 -0.301986
-58.2538 70.9356 23.8945 0.490802 -0.818575 -0.298284
-58.4834 71.1293 22.9206 0.520169 -0.806805 -0.280158
-58.7667 71.3488 21.7566 0.519753 -0.807824 -0.277986
-59.0144 71.5616 20.6279 0.518514 -0.817094 -0.251994
-59.172 71.8459 19.3663 0.516982 -0.82021 -0.244918
-59.1919 72.2073 18.1272 0.534307 -0.81303 -0.231294
-59.0975 72.5246 17.2339 0.540501 -0.806118 -0.2409
-58.8163 73.0622 16.028 0.546224 -0.809226 -0.216184
-58.4793 73.6316 14.6976 0.544672 -0.812921 -0.206088
-58.2669 73.9717 13.8626 0.568107 -0.802483 -0.182416
-57.984 74.4529 12.558 0.562644 -0.810377 -0.163325
-57.6857 74.8504 11.6189 0.557811 -0.813429 -0.164852
-57.3227 75.2402 10.8497 0.548612 -0.821558 -0.155135
-56.9856 75.609 10.0972 0.562331 -0.815984 -0.133659
-56.4815 76.1224 9.02457 0.556518 -0.820376 -0.131421
-55.9207 76.6332 8.03982 0.546621 -0.830086 -0.110086
-55.3336 77.1231 7.19412 0.540934 -0.833848 -0.109746
-54.6509 77.6564 6.37302 0.524923 -0.844335 -0.10749
-54.0663 78.0859 5.81814 0.517148 -0.849776 -0.101951
-53.36 78.5688 5.32114 0.511363 -0.853332 -0.101647
-52.4558 79.1683 4.76766 0.502006 -0.859205 -0.098776
-51.491 79.7927 4.15954 0.491803 -0.865565 -0.0944853
-50.5367 80.42 3.48278 0.480938 -0.868079 -0.122267
-49.6335 81.019 2.73623 0.472084 -0.869653 -0.14374
-49.0195 81.4507 2.19887 0.467001 -0.870551 -0.154943
-48.3364 81.9291 1.60557 0.475715 -0.856398 -0.200694
-47.5779 82.4454 1.10437 0.448243 -0.872543 -0.194284
-46.8662 82.8951 0.77989 0.450345 -0.863668 -0.22572
-46.141 83.3693 0.382541 0.417807 -0.877402 -0.234779
-45.4328 83.8453 -0.104937 0.422104 -0.867017 -0.264784
-44.7962 84.3594 -0.712906 0.400437 -0.861874 -0.309913
-44.1492 84.9706 -1.59976 0.373164 -0.848542 -0.371965
-43.8345 85.4599 -2.30383 0.335124 -0.854374 -0.395029
-43.6199 85.9621 -3.04847 0.168781 -0.814232 -0.546667
-43.3736 86.2825 -3.90933 -0.15445 -0.954781 -0.254044
-42.7643 86.3247 -5.08321 0.0220852 -0.998543 -0.0492338
-42.0622 86.2208 -5.72697 -0.0394925 -0.98927 0.140662
-41.5927 86.3387 -4.9681 0.0678786 -0.985506 0.135523
-41.3285 86.3266 -3.71547 0.131929 -0.989021 -0.0665709
-41.1326 86.2883 -2.8295 0.168865 -0.972985 -0.13688
-40.8635 86.1406 -1.85399 0.208077 -0.956768 -0.203223
-40.536 86.0335 -0.928795 0.307165 -0.93239 -0.19052
-39.8958 85.9611 0.162564 0.342339 -0.898929 -0.273369
-39.1838 85.9436 1.1496 0.355437 -0.8916 -0.280559
-38.2821 86.0175 2.10171 0.372861 -0.880933 -0.291254
-37.2831 86.1712 2.87267 0.384961 -0.873422 -0.297533
-36.0344 86.4801 3.49823 0.368914 -0.871566 -0.322833
-34.945 86.8229 3.79893 0.362056 -0.87126 -0.331375
-33.9043 87.1601 4.01038 0.338993 -0.870031 -0.357705
-32.6578 87.5949 4.07713 0.318325 -0.879099 -0.354736
-31.6285 87.9718 4.05455 0.308857 -0.877983 -0.365518
-31.3267 88.083 4.03899 0.312748 -0.873161 -0.373732
-31.66 88.3182 3.13998 0.280138 -0.900145 -0.331734
-30.433 88.7812 2.77691 0.249377 -0.913972 -0.3201
-29.3812 89.1372 2.49276 0.243773 -0.932022 -0.26816
-28.4982 89.378 2.2434 0.155154 -0.957791 -0.241997
-27.4578 89.5682 1.92815 0.0402893 -0.97448 -0.220829
-26.2669 89.6348 1.59808 -0.0397551 -0.992377 -0.0992942
-25.2288 89.6359 1.45724 -0.0422792 -0.997274 -0.0479923
-24.0928 89.5401 1.57765 -0.0887875 -0.995401 -0.0302905
-23.5387 89.486 2.29984 -0.135826 -0.990455 0.0234721
-23.8946 89.5342 3.1702 -0.0361727 -0.997955 0.0441003
-24.6704 89.6322 4.06199 0.0772124 -0.988114 0.0194118
-25.4237 89.4545 4.68436 0.197969 -0.979226 -0.0438684
-26.2615 89.1708 5.21256 0.292347 -0.938945 -0.161178
-27.2924 88.6498 5.98218 0.289606 -0.927649 -0.235787
-28.2164 87.9894 6.76872 0.296243 -0.876223 -0.379641
-28.8774 87.4207 7.4725 0.29764 -0.834854 -0.462951
-29.4099 86.8395 8.15642 0.305346 -0.82207 -0.48035
-29.9009 86.2168 8.95987 0.254893 -0.841345 -0.476622
-30.2425 85.6721 9.705 0.256141 -0.8293 -0.496642
-30.5277 85.1337 10.5581 0.179127 -0.865761 -0.466253
-30.7431 84.6188 11.3852 0.150663 -0.871406 -0.465798
-30.9352 84.0166 12.5057 0.104156 -0.881119 -0.460952
-30.9936 83.4036 13.7294 0.072677 -0.905982 -0.416181
-31.028 82.8216 14.9773 0.0310543 -0.901181 -0.432329
-31.1456 82.4183 15.8694 -0.00708723 -0.905893 -0.423448
-31.3397 81.8235 17.2253 -0.0286677 -0.92116 -0.388127
-31.4172 81.4028 18.1618 -0.0600044 -0.913469 -0.402461
-31.4763 80.9502 19.1979 -0.0852475 -0.900426 -0.425028
-31.5546 80.5345 20.0272 -0.118461 -0.883203 -0.453784
-31.6084 80.0031 21.0612 -0.121485 -0.876949 -0.464975
-31.5804 79.4052 22.157 -0.119325 -0.868017 -0.481983
-31.5827 78.9326 22.982 -0.143991 -0.855016 -0.498209
-31.7419 78.2835 24.113 -0.133993 -0.845927 -0.51609
-31.9471 77.8435 24.897 -0.123878 -0.846481 -0.517806
-32.2639 77.4193 25.6662 -0.135368 -0.833062 -0.535769
-32.605 76.9776 26.3824 -0.123501 -0.81352 -0.568271
-32.9909 76.538 27.088 -0.106055 -0.81422 -0.570603
-33.4577 76.1083 27.8055 -0.102505 -0.822595 -0.559313
-34.0445 75.5656 28.7032 -0.0955823 -0.823467 -0.559255
-34.9465 74.9927 29.699 -0.077417 -0.833962 -0.546364
-35.8153 74.5903 30.4374 -0.0780728 -0.834388 -0.54562
-36.6069 74.2483 31.0641 -0.0561136 -0.84159 -0.537193
-37.3958 73.9493 31.6141 -0.0519589 -0.850717 -0.522747
-38.3987 73.5374 32.3934 -0.0231518 -0.857395 -0.513806
-39.0429 73.1518 33.047 0.000437658 -0.856714 -0.515742
-40.0264 72.4125 34.3082 0.00708939 -0.871236 -0.490814
-40.7063 71.7321 35.4587 0.0356069 -0.875468 -0.481963
-41.1545 71.203 36.3558 0.0776811 -0.885159 -0.458206
-41.5998 70.7049 37.2824 0.0860241 -0.894185 -0.439355
-41.982 70.3026 37.991 0.102238 -0.897836 -0.42751
-42.6578 69.6905 39.1821 0.109741 -0.906863 -0.406886
-43.3214 69.23 40.0557 0.123113 -0.911722 -0.391927
-43.9702 68.8859 40.6522 0.121624 -0.911597 -0.392677
-45.1434 68.5038 41.1584 0.138319 -0.918391 -0.370709
-46.4559 68.3023 41.1393 0.15454 -0.915972 -0.370288
-47.4361 68.2351 40.8977 0.165941 -0.913297 -0.371759
-48.3 68.2298 40.4984 0.179382 -0.911332 -0.370525
-49.5094 68.263 39.8084 0.204361 -0.90924 -0.362362
-50.7007 68.1869 39.279 0.236054 -0.905902 -0.350943
-51.6679 68.068 38.8711 0.248968 -0.908236 -0.3361
-52.9946 67.8578 38.3693 0.271701 -0.90587 -0.324928
-54.0072 67.6636 37.9536 0.293947 -0.906031 -0.304314
-54.9769 67.4561 37.5736 0.318925 -0.90318 -0.287321
-56.0527 67.2322 37.0419 0.34232 -0.896567 -0.281042
-56.8614 67.1491 36.3342 0.354045 -0.890846 -0.284686
-57.6196 67.156 35.3738 0.353518 -0.890566 -0.286212
-58.2196 67.1936 34.4784 0.366377 -0.888757 -0.275461
-58.5858 67.3052 33.6362 0.387025 -0.87296 -0.296904
-58.8203 67.6245 32.3996 0.377569 -0.877809 -0.294749
-58.8247 67.9679 31.3958 0.38359 -0.872381 -0.303004
-58.7298 68.3115 30.548 0.422951 -0.851267 -0.310425
-58.6289 68.8406 29.2033 0.420494 -0.856624 -0.298885
-58.6062 69.2506 28.0726 0.434979 -0.848192 -0.302263
-58.6244 69.7286 26.6918 0.457367 -0.834651 -0.306877
-58.7537 70.1355 25.3156 0.477381 -0.828939 -0.291439
-58.9804 70.417 24.1465 0.488748 -0.822568 -0.290511
-59.316 70.6663 22.8022 0.49234 -0.827796 -0.26899
-59.6148 70.9053 21.5077 0.497496 -0.824237 -0.270428
-59.8279 71.0821 20.5337 0.500626 -0.82991 -0.246219
-59.9873 71.4079 19.1264 0.50535 -0.825422 -0.251596
-59.993 71.724 18.0472 0.507179 -0.829278 -0.234654
-59.9097 72.0611 17.0261 0.508445 -0.830639 -0.226892
-59.7397 72.3874 16.1921 0.530124 -0.81815 -0.221532
-59.4079 72.929 15.0147 0.544672 -0.812923 -0.206083
-59.1793 73.3 14.1394 0.546152 -0.812986 -0.201923
-58.9932 73.6234 13.2945 0.542628 -0.819547 -0.183869
-58.7266 74.0499 12.0802 0.539713 -0.82609 -0.162125
-58.3941 74.4669 11.1077 0.557919 -0.813787 -0.162717
-57.897 75.0062 10.058 0.549161 -0.822596 -0.147293
-57.559 75.3605 9.29821 0.549703 -0.823638 -0.139453
-57.0615 75.8466 8.28669 0.542898 -0.830492 -0.124678
-56.4337 76.4065 7.25209 0.540026 -0.833671 -0.115606
-55.8446 76.8984 6.4173 0.535056 -0.837919 -0.107731
-55.3295 77.3086 5.78557 0.53439 -0.838147 -0.109247
-54.6507 77.8085 5.1207 0.523191 -0.846222 -0.100893
-53.8623 78.3592 4.55211 0.511643 -0.853214 -0.10123
-53.1033 78.8668 4.10966 0.506243 -0.856252 -0.102532
-52.4036 79.3286 3.66616 0.502417 -0.858161 -0.105503
-51.3257 80.0469 2.91107 0.490234 -0.864118 -0.11388
-50.3289 80.7285 2.14844 0.49417 -0.858385 -0.137735
-49.4739 81.342 1.40149 0.494297 -0.857302 -0.143773
-48.6861 81.9398 0.675877 0.488748 -0.855052 -0.173237
-48.0114 82.4241 0.242662 0.472863 -0.858729 -0.195397
-47.0993 83.0056 -0.167416 0.463426 -0.859848 -0.214237
-46.0468 83.78 -0.796961 0.43868 -0.852957 -0.281516
-45.2188 84.4633 -1.60815 0.414661 -0.821415 -0.381445
-44.6971 85.2038 -2.52279 0.347828 -0.835785 -0.424829
-44.4905 85.7591 -3.21974 0.288036 -0.793785 -0.535669
-44.2481 86.4174 -4.21705 0.189479 -0.901963 -0.388022
-43.7463 86.3723 -5.23579 -0.067045 -0.974562 0.188273
-43.2402 86.2085 -6.04779 -0.0121442 -0.985125 0.171408
-42.4213 86.008 -6.94299 -0.046298 -0.972285 0.22917
-41.5659 86.0353 -6.98012 0.0064193 -0.981227 0.180041
-40.9906 86.1354 -6.2914 0.0941967 -0.985444 0.133927
-40.729 86.3533 -5.29489 0.0678879 -0.985507 0.135519
-40.4378 86.4693 -4.0633 0.202003 -0.977281 0.0567842
-40.2206 86.4666 -3.02014 0.243725 -0.96743 -0.0683919
-39.9957 86.452 -2.09994 0.272976 -0.950121 -0.134129
-39.5949 86.3659 -1.03613 0.307686 -0.932458 -0.189346
-39.1306 86.3603 -0.183249 0.350929 -0.909166 -0.219671
-38.2946 86.3803 0.929941 0.376394 -0.89432 -0.241906
-37.3454 86.4948 1.84217 0.384955 -0.873422 -0.297541
-36.4929 86.6986 2.40853 0.391128 -0.86455 -0.314753
-35.4539 86.9815 2.82394 0.362687 -0.869695 -0.334797
-34.3309 87.3472 3.08653 0.360366 -0.870843 -0.334319
-33.2172 87.7371 3.20916 0.325394 -0.880264 -0.34533
-32.2007 88.1029 3.20705 0.310585 -0.88681 -0.342207
-31.7231 88.294 3.14531 0.310588 -0.886809 -0.342204
-32.0244 88.5069 2.32027 0.280136 -0.900143 -0.33174
-30.9571 88.9053 2.012 0.249069 -0.914465 -0.318932
-30.0485 89.2238 1.71818 0.208345 -0.928085 -0.308627
-28.8776 89.5328 1.39778 0.126516 -0.955463 -0.266617
-28.0305 89.72 1.15379 0.0967742 -0.967216 -0.227678
-27.0825 89.7776 0.871564 0.00170469 -0.987493 -0.157653
-26.0964 89.7718 0.61123 -0.0804811 -0.987862 -0.13142
-24.9995 89.661 0.444485 -0.133076 -0.988525 -0.0654938
-23.8405 89.5301 0.535838 -0.19905 -0.972924 0.0171224
-22.9404 89.269 1.03624 -0.223304 -0.969398 0.0571754
-22.4891 89.3207 2.15074 -0.28561 -0.949964 0.12622
-22.7698 89.4066 3.11524 -0.127751 -0.991269 0.0326571
-23.3267 89.5452 3.98203 -0.141164 -0.985998 0.0887754
-24.2092 89.6385 4.90095 -0.027406 -0.999608 0.00568014
-25.0994 89.4349 5.57474 0.208395 -0.944714 -0.24917
-25.808 89.103 6.02983 0.295429 -0.924949 -0.239078
-26.5677 88.71 6.60475 0.271507 -0.882303 -0.379828
-27.4244 88.0368 7.2895 0.324848 -0.83995 -0.434618
-28.0168 87.5032 7.86524 0.307342 -0.838457 -0.449599
-28.6954 86.768 8.7164 0.305242 -0.814453 -0.493451
-29.1174 86.1873 9.425 0.227447 -0.822195 -0.520407
-29.5269 85.4756 10.3415 0.198246 -0.812372 -0.548384
-29.7696 84.8731 11.2456 0.138229 -0.85865 -0.493571
-29.9564 84.3601 12.0899 0.0898657 -0.874589 -0.476464
-30.0751 83.7689 13.1702 0.0604543 -0.884827 -0.461981
-30.052 83.2196 14.1869 0.0290142 -0.88664 -0.459943
-30.089 82.733 15.203 -0.00592325 -0.893472 -0.448469
-30.221 82.3357 16.0069 -0.0393594 -0.906125 -0.421175
-30.3719 81.9317 16.8819 -0.066915 -0.897179 -0.436224
-30.4943 81.3273 18.1954 -0.0558057 -0.909125 -0.4126
-30.5653 80.8321 19.207 -0.11049 -0.887384 -0.447595
-30.6526 80.4049 20.0591 -0.117871 -0.876646 -0.466215
-30.705 79.8331 21.1387 -0.131677 -0.876936 -0.462218
-30.6917 79.27 22.1476 -0.138871 -0.855311 -0.499158
-30.719 78.6811 23.1649 -0.145436 -0.853955 -0.499609
-30.8487 78.0567 24.2564 -0.148865 -0.848842 -0.507253
-31.0284 77.6263 25.0293 -0.153342 -0.84392 -0.514
-31.3154 77.1802 25.7686 -0.146855 -0.819647 -0.553726
-31.7032 76.72 26.536 -0.133313 -0.812995 -0.566792
-32.0862 76.2747 27.2688 -0.131789 -0.81504 -0.564218
-32.55 75.8478 27.9892 -0.129866 -0.813829 -0.566407
-33.0742 75.3796 28.7916 -0.126317 -0.818788 -0.560026
-33.6435 74.9128 29.5965 -0.0969126 -0.825614 -0.555835
-34.3513 74.5609 30.2603 -0.0882677 -0.839485 -0.536166
-35.0623 74.2467 30.8707 -0.0889182 -0.839966 -0.535305
-35.7635 73.9593 31.4286 -0.063008 -0.843491 -0.533374
-36.6597 73.6261 32.083 -0.061081 -0.858358 -0.509403
-37.8233 73.1479 32.9932 -0.0413979 -0.855652 -0.515893
-38.5176 72.7645 33.7075 -0.00802785 -0.875272 -0.483118
-39.0975 72.3291 34.4717 0.0119697 -0.872701 -0.488109
-39.6125 71.8754 35.2851 0.028682 -0.882795 -0.468513
-40.0009 71.4582 36.019 0.0453819 -0.878541 -0.475507
-40.4106 70.978 36.9207 0.0420514 -0.894058 -0.445974
-40.9158 70.4535 37.9244 0.0501007 -0.901694 -0.428982
-41.3138 70.0571 38.7146 0.0941459 -0.90745 -0.409477
-42.0923 69.3981 40.026 0.111896 -0.915739 -0.385876
-42.6187 69.0494 40.6966 0.123789 -0.915531 -0.382593
-43.369 68.6597 41.4062 0.124482 -0.919337 -0.37326
-44.638 68.2168 42.0579 0.133178 -0.918195 -0.373029
-46.1205 67.9712 42.0984 0.148186 -0.916415 -0.371728
-47.0546 67.8684 41.964 0.153552 -0.916613 -0.369109
-48.0905 67.8415 41.5644 0.173697 -0.916319 -0.360818
-49.1024 67.8375 41.0804 0.18553 -0.915834 -0.356084
-49.9299 67.8504 40.6023 0.190693 -0.912713 -0.361229
-50.9383 67.8094 40.1184 0.222522 -0.913038 -0.341367
-52.1701 67.6714 39.6074 0.257851 -0.911054 -0.321224
-53.317 67.4856 39.1618 0.273729 -0.914516 -0.297499
-54.4815 67.2623 38.7201 0.301956 -0.906412 -0.294919
-55.6821 66.9999 38.2251 0.318043 -0.902941 -0.289038
-56.6095 66.8044 37.7506 0.327971 -0.905886 -0.267967
-57.4391 66.7199 37.0008 0.333738 -0.906983 -0.256905
-58.0255 66.7348 36.1867 0.335611 -0.906397 -0.256526
-58.7499 66.7378 35.2342 0.355498 -0.89354 -0.273899
-59.3245 66.7965 34.3036 0.359228 -0.890625 -0.278823
-59.5898 67.0093 33.2796 0.359514 -0.890938 -0.27745
-59.6911 67.2918 32.2678 0.379561 -0.878112 -0.291295
-59.6886 67.6947 31.0801 0.390491 -0.8718 -0.295772
-59.5261 68.176 29.8614 0.390273 -0.873977 -0.28957
-59.4418 68.5852 28.7809 0.421671 -0.858399 -0.292139
-59.4261 68.9794 27.628 0.421047 -0.861645 -0.28335
-59.4198 69.2656 26.7672 0.432036 -0.859861 -0.271514
-59.4758 69.5443 25.8536 0.461279 -0.840239 -0.284992
-59.5712 69.8005 24.9398 0.461267 -0.840883 -0.283106
-59.8092 69.9989 23.9338 0.475719 -0.834514 -0.277991
-60.0559 70.1424 23.0659 0.486065 -0.833771 -0.26185
-60.3006 70.3477 21.9534 0.484654 -0.83435 -0.262612
-60.5306 70.5187 20.9756 0.492616 -0.829782 -0.261979
-60.7133 70.682 20.0976 0.493513 -0.831976 -0.253498
-60.789 70.9317 19.1042 0.493687 -0.835649 -0.240755
-60.7943 71.2497 17.9885 0.489487 -0.837993 -0.241185
-60.7091 71.5886 16.9536 0.502709 -0.83536 -0.222186
-60.5248 71.962 15.976 0.509869 -0.831073 -0.222145
-60.314 72.3226 15.1136 0.508689 -0.83422 -0.212577
-60.0038 72.7856 14.0315 0.518544 -0.828574 -0.211134
-59.7421 73.229 12.8341 0.523782 -0.832453 -0.180761
-59.5056 73.5944 11.8211 0.530756 -0.83014 -0.170681
-59.2497 73.9284 11.0028 0.534864 -0.827921 -0.168711
-58.7704 74.4544 9.93281 0.528641 -0.833899 -0.158008
-58.3701 74.8671 9.04579 0.532661 -0.833021 -0.149496
-57.7809 75.4414 7.86382 0.531028 -0.836842 -0.133059
-57.1154 76.0449 6.69597 0.534513 -0.836025 -0.123927
-56.3852 76.6486 5.69522 0.528678 -0.841417 -0.111876
-55.7414 77.1549 4.91199 0.527871 -0.843442 -0.099791
-55.1017 77.625 4.32462 0.519786 -0.847819 -0.104999
-54.4594 78.0768 3.85455 0.519501 -0.84798 -0.105115
-53.5302 78.7046 3.32042 0.510101 -0.853909 -0.103134
-52.3849 79.4778 2.56389 0.502262 -0.857583 -0.110836
-51.6159 80.0049 2.01648 0.506748 -0.853023 -0.124651
-50.7754 80.5984 1.33459 0.507694 -0.851192 -0.132724
-50.0025 81.1719 0.630103 0.501129 -0.850637 -0.158468
-49.356 81.6815 0.0238428 0.509474 -0.844588 -0.164618
-48.7273 82.1467 -0.433076 0.501386 -0.848621 -0.168686
-47.9146 82.7174 -0.810508 0.528981 -0.821729 -0.21162
-46.8943 83.4841 -1.32317 0.464684 -0.84283 -0.271475
-46.0717 84.2226 -1.99719 0.44974 -0.784929 -0.42594
-45.6009 84.8633 -2.64831 0.45349 -0.724958 -0.509948
-45.3417 85.5823 -3.44624 0.354344 -0.755634 -0.550801
-45.1564 86.187 -4.3109 0.34001 -0.879326 -0.333225
-44.8738 86.3816 -5.22716 0.156162 -0.953967 0.174089
-44.2704 86.148 -6.22775 0.0194683 -0.980896 0.191724
-43.6379 86.0132 -7.08471 0.0341051 -0.969251 0.240431
-42.8232 85.7565 -7.96494 -0.0200303 -0.962507 0.270515
-41.7116 85.7233 -8.09928 0.0679886 -0.944637 0.320995
-40.6908 85.9168 -7.61521 0.0594971 -0.969241 0.238813
-40.1375 86.1843 -6.74428 0.198243 -0.96422 0.17581
-39.8738 86.4107 -5.77002 0.20338 -0.96438 0.16914
-39.6017 86.6148 -4.53257 0.201994 -0.977283 0.0567892
-39.3503 86.7028 -3.25978 0.215931 -0.974546 -0.0188359
-39.1456 86.6891 -2.34891 0.359705 -0.928955 -0.0874959
-38.6124 86.6949 -0.876331 0.389578 -0.898573 -0.201979
-37.7264 86.7731 0.385369 0.402096 -0.878973 -0.25637
-36.985 86.9091 1.11539 0.412514 -0.869788 -0.269581
-36.0406 87.1388 1.73157 0.394061 -0.870942 -0.293443
-35.0216 87.4495 2.07918 0.363241 -0.869027 -0.335928
-33.7982 87.867 2.30831 0.359158 -0.870581 -0.336293
-32.8561 88.1874 2.37787 0.317641 -0.886043 -0.337688
-32.1107 88.4737 2.32784 0.314113 -0.886426 -0.339948
-32.2367 88.7556 1.46032 0.304576 -0.892514 -0.332644
-31.3893 89.0782 1.20861 0.240866 -0.910034 -0.33734
-30.3462 89.4386 0.860716 0.179641 -0.928758 -0.324249
-29.1747 89.7203 0.540533 0.119057 -0.968439 -0.218977
-28.1264 89.8802 0.210202 0.0563788 -0.985394 -0.160688
-26.916 89.9297 -0.118868 -0.0520871 -0.989475 -0.128672
-25.8616 89.8675 -0.405863 -0.122577 -0.987017 -0.0959292
-24.6009 89.6713 -0.554604 -0.236974 -0.968032 -0.00166684
-23.7438 89.4117 -0.443732 -0.290949 -0.954176 0.0672526
-22.658 89.1113 -0.0309684 -0.304118 -0.949073 0.0822995
-21.8458 88.955 0.846723 -0.275332 -0.954932 0.110893
-21.545 89.0016 1.91066 -0.290402 -0.949374 0.119811
-21.6948 89.1543 3.06308 -0.227017 -0.966338 0.101272
-22.2887 89.4031 4.14902 -0.161046 -0.983701 0.079578
-23.1991 89.5509 5.20237 -0.13712 -0.988614 -0.0619743
-24.1327 89.4729 6.00817 -0.0398754 -0.963025 -0.266444
-24.9756 89.1549 6.57935 0.254526 -0.907003 -0.335503
-25.7229 88.7496 7.11666 0.271495 -0.882307 -0.379826
-26.3521 88.2642 7.65091 0.31057 -0.849278 -0.426713
-27.0512 87.7078 8.1886 0.325641 -0.836388 -0.440922
-27.7216 87.005 8.90751 0.319969 -0.793258 -0.518036
-28.1737 86.4221 9.54389 0.278709 -0.768208 -0.576348
-28.583 85.6885 10.3672 0.198239 -0.812373 -0.548384
-28.8045 85.0423 11.2005 0.109686 -0.816333 -0.564944
-29.0371 84.432 12.1313 0.103311 -0.858218 -0.5017
-29.194 83.7128 13.3929 0.0723516 -0.87723 -0.47422
-29.0928 83.0636 14.5518 0.00220416 -0.863148 -0.504568
-29.1507 82.6341 15.3507 -0.0288224 -0.885195 -0.464327
-29.3033 82.2273 16.1543 -0.0500785 -0.898291 -0.436081
-29.4795 81.7298 17.1603 -0.0669159 -0.897181 -0.436219
-29.5524 81.2045 18.2272 -0.10537 -0.882034 -0.459252
-29.6388 80.7407 19.1629 -0.116162 -0.882534 -0.45551
-29.7529 80.2532 20.0956 -0.121946 -0.869981 -0.477767
-29.816 79.5966 21.3128 -0.146652 -0.865558 -0.478855
-29.8136 79.0965 22.2006 -0.140458 -0.853825 -0.501244
-29.8441 78.5325 23.1644 -0.143738 -0.853149 -0.501467
-29.9541 77.8293 24.3744 -0.148382 -0.848556 -0.507873
-30.1968 77.2324 25.412 -0.147349 -0.830251 -0.537138
-30.6495 76.638 26.3929 -0.145372 -0.812115 -0.565098
-31.0478 76.1349 27.2165 -0.144504 -0.811571 -0.566102
-31.5653 75.6246 28.0831 -0.1446 -0.813333 -0.563543
-32.0705 75.1983 28.828 -0.142199 -0.816492 -0.559543
-32.5378 74.7696 29.5806 -0.116686 -0.82921 -0.546621
-33.1326 74.425 30.236 -0.119892 -0.832117 -0.541486
-33.8437 74.0936 30.9092 -0.102018 -0.852062 -0.513398
-35.0539 73.6159 31.9042 -0.0693552 -0.862143 -0.501896
-35.7882 73.358 32.4547 -0.0607144 -0.86505 -0.497879
-36.891 72.9599 33.2714 -0.0520173 -0.870084 -0.490151
-37.674 72.5776 34.0011 -0.0280287 -0.877844 -0.478126
-38.2032 72.2209 34.687 -0.00802783 -0.875272 -0.483118
-38.7024 71.8065 35.4412 0.0119837 -0.887058 -0.461502
-39.1117 71.4087 36.1952 0.0286844 -0.882799 -0.468506
-39.5819 70.8211 37.313 0.0425672 -0.894512 -0.44501
-39.9479 70.45 38.0688 0.0581322 -0.909336 -0.411982
-40.3997 70.0317 38.9811 0.0723768 -0.913234 -0.400215
-40.9636 69.5443 39.9896 0.0953315 -0.921224 -0.377172
-41.5483 69.1081 40.8829 0.113585 -0.921903 -0.370396
-42.0935 68.7749 41.5406 0.120773 -0.919258 -0.374672
-42.8991 68.3663 42.2837 0.119319 -0.920042 -0.373205
-43.7905 68.062 42.7425 0.128507 -0.921376 -0.366813
-44.7329 67.8079 43.0466 0.130402 -0.920656 -0.367951
-45.7317 67.659 43.0406 0.143476 -0.921316 -0.361374
-46.9005 67.4989 42.958 0.159063 -0.920113 -0.357898
-48.0487 67.4636 42.5314 0.168744 -0.914768 -0.36705
-49.2926 67.4456 41.9797 0.18197 -0.914954 -0.360202
-50.0602 67.4779 41.5023 0.196616 -0.91535 -0.351308
-51 67.4551 41.0147 0.205054 -0.914403 -0.349021
-52.1855 67.3379 40.5448 0.215432 -0.923485 -0.317435
-53.1793 67.2116 40.1156 0.258993 -0.91729 -0.302489
-54.0482 67.0415 39.8338 0.274827 -0.919537 -0.280929
-55.0982 66.8207 39.467 0.307514 -0.911467 -0.273244
-56.2258 66.595 38.9444 0.31137 -0.909846 -0.274279
-57.0516 66.417 38.5237 0.324264 -0.910419 -0.256807
-58.0494 66.315 37.6376 0.3314 -0.906291 -0.262251
-58.7438 66.3291 36.6749 0.337482 -0.905812 -0.256143
-59.5487 66.3124 35.6335 0.351525 -0.898687 -0.262188
-60.0387 66.3431 34.8489 0.35626 -0.895416 -0.266879
-60.381 66.4863 33.9374 0.359324 -0.892225 -0.273536
-60.5096 66.7979 32.7556 0.362155 -0.888323 -0.282286
-60.5821 67.1385 31.5922 0.37114 -0.885478 -0.279615
-60.5193 67.483 30.6303 0.378922 -0.879832 -0.286781
-60.3851 67.8278 29.7395 0.399254 -0.871941 -0.283398
-60.2543 68.2782 28.5275 0.399356 -0.873292 -0.279063
-60.2477 68.5737 27.641 0.432041 -0.859857 -0.271519
-60.2335 68.8448 26.7692 0.443034 -0.85807 -0.259686
-60.2798 69.2032 25.5581 0.452701 -0.846978 -0.278439
-60.4447 69.4679 24.4567 0.474128 -0.839037 -0.266868
-60.7795 69.6181 23.3896 0.486254 -0.833324 -0.262921
-60.9897 69.7926 22.4452 0.484659 -0.834346 -0.262616
-61.2035 69.9633 21.5157 0.482963 -0.835553 -0.261897
-61.4571 70.1346 20.4848 0.48414 -0.836382 -0.257049
-61.5809 70.4286 19.2433 0.487586 -0.839245 -0.240679
-61.5974 70.7415 18.1245 0.489407 -0.838069 -0.241082
-61.5461 71.0414 17.1606 0.493987 -0.84039 -0.222981
-61.394 71.3811 16.2183 0.494993 -0.8407 -0.219519
-61.2087 71.7338 15.2677 0.502132 -0.836435 -0.219445
-60.9866 72.0999 14.3418 0.508636 -0.836994 -0.201818
-60.6655 72.5559 13.2548 0.524284 -0.831989 -0.181441
-60.4903 72.8798 12.2743 0.524806 -0.832807 -0.176034
-60.2632 73.2159 11.3366 0.525833 -0.833155 -0.171327
-59.952 73.5867 10.511 0.519833 -0.836656 -0.172443
-59.5433 74.0376 9.54603 0.528638 -0.8339 -0.158009
-59.1377 74.4475 8.6489 0.528828 -0.835778 -0.147615
-58.6388 74.9337 7.62996 0.532263 -0.835953 -0.133712
-58.1309 75.3993 6.70852 0.529273 -0.839449 -0.123268
-57.6311 75.8358 5.88185 0.53189 -0.837739 -0.123599
-57.087 76.2805 5.15183 0.527333 -0.84171 -0.115949
-56.5129 76.7363 4.43765 0.523702 -0.84466 -0.110838
-55.8821 77.211 3.80099 0.521915 -0.846144 -0.107847
-54.9861 77.8463 3.11522 0.518164 -0.848667 -0.106146
-53.9979 78.5175 2.55713 0.514522 -0.851232 -0.103175
-53.1305 79.1102 1.9893 0.512719 -0.851613 -0.108972
-52.2114 79.7471 1.33573 0.510638 -0.850723 -0.124576
-51.4693 80.2759 0.748611 0.507694 -0.851192 -0.132724
-50.6376 80.9084 -0.0356951 0.519823 -0.841296 -0.147779
-49.84 81.5422 -0.775872 0.512188 -0.843 -0.16432
-49.1988 82.0294 -1.25743 0.512187 -0.841063 -0.173856
-48.1895 82.7667 -1.68913 0.528981 -0.821729 -0.21162
-47.2849 83.494 -2.13952 0.605553 -0.745721 -0.261602
-46.6122 84.2959 -2.70302 0.449734 -0.784933 -0.425939
-46.2135 85.284 -3.59731 0.401304 -0.717149 -0.565756
-46.0915 85.8809 -4.26674 0.190599 -0.811651 -0.537149
-45.8937 86.1652 -5.09169 0.131474 -0.99053 -0.0395594
-45.4965 86.1374 -6.06356 0.145729 -0.974579 0.17017
-44.7737 85.9418 -7.12986 0.038544 -0.976678 0.211222
-44.1239 85.7433 -8.01223 0.0371509 -0.941131 0.329663
-43.1991 85.3905 -8.89253 0.0241335 -0.896488 0.442332
-42.1054 85.3451 -9.06369 0.0488191 -0.893861 0.445358
-40.9534 85.4639 -8.90758 0.0613009 -0.931685 0.357056
-39.9933 85.7897 -8.30472 0.0733496 -0.94856 0.300677
-39.4 86.1012 -7.60611 0.214754 -0.92877 0.302103
-39.0782 86.4223 -6.60753 0.193106 -0.964059 0.182481
-38.8838 86.6724 -5.60289 0.311694 -0.939885 0.139511
-38.6673 86.8783 -4.45058 0.281176 -0.955288 0.0914596
-38.5113 86.9623 -3.54307 0.310886 -0.950131 0.0245017
-38.2591 87.027 -2.29159 0.36614 -0.927109 -0.0793681
-37.9234 87.0843 -1.27967 0.381081 -0.911917 -0.136608
-37.3774 87.1372 -0.408208 0.40522 -0.894348 -0.189576
-36.6212 87.2965 0.372626 0.423422 -0.871576 -0.247121
-35.4178 87.6254 1.10577 0.386517 -0.873879 -0.294857
-34.2875 88.0209 1.38657 0.351731 -0.865972 -0.354886
-33.0125 88.4727 1.50927 0.309891 -0.887879 -0.339906
-32.7704 88.5512 1.52029 0.304576 -0.892514 -0.332645
-32.7434 88.912 0.641478 0.28418 -0.87741 -0.386515
-31.7416 89.2923 0.393552 0.240049 -0.906844 -0.346426
-30.8113 89.618 0.0618199 0.177906 -0.934999 -0.3068
-29.7888 89.8499 -0.238846 0.0860333 -0.965071 -0.24746
-28.9084 89.9722 -0.484719 0.0366439 -0.974042 -0.223382
-28.0465 90.0732 -0.799173 -0.00761331 -0.975929 -0.214537
-27.1281 90.0552 -1.06518 -0.124915 -0.986994 -0.0963831
-25.6416 89.875 -1.40375 -0.162141 -0.986162 -0.0344879
-24.7216 89.6763 -1.57818 -0.309838 -0.950252 0.0319456
-23.7057 89.3489 -1.46275 -0.300811 -0.952766 0.0399647
-22.5336 88.9432 -1.17791 -0.347666 -0.933657 0.0861003
-21.7978 88.7665 -0.625916 -0.361503 -0.921978 0.127235
-21.1565 88.6228 0.192143 -0.373871 -0.917553 0.135342
-20.6629 88.6975 1.68672 -0.316049 -0.935404 0.153542
-20.6966 88.9258 3.07648 -0.256326 -0.950691 0.172436
-21.1752 89.2304 4.2027 -0.1893 -0.970413 0.137291
-21.93 89.4181 5.17173 -0.0997283 -0.994016 0.0230723
-22.9797 89.4826 6.24434 0.0124556 -0.996425 -0.0299347
-23.6973 89.3951 6.78369 0.133012 -0.970409 -0.157553
-24.8186 88.8771 7.57644 0.302849 -0.911568 -0.278077
-25.4793 88.3645 8.14907 0.320215 -0.866109 -0.383819
-26.1322 87.8594 8.63795 0.357224 -0.818562 -0.44873
-26.9198 87.0725 9.35174 0.369029 -0.794503 -0.482269
-27.369 86.4065 9.92789 0.251202 -0.76402 -0.594282
-27.8545 85.3848 10.9444 0.180812 -0.753495 -0.627873
-28.08 84.7045 11.8771 0.0906772 -0.837413 -0.538762
-28.2078 84.1932 12.6318 0.0389665 -0.867801 -0.495381
-28.1829 83.632 13.595 0.0327107 -0.855861 -0.51617
-28.1098 83.096 14.4807 -0.00924231 -0.855194 -0.518226
-28.2402 82.5053 15.5398 -0.040172 -0.87615 -0.47989
-28.4281 82.0467 16.3619 -0.0665724 -0.878123 -0.472875
-28.5216 81.6074 17.2327 -0.0933249 -0.877482 -0.470345
-28.5848 81.1751 18.0708 -0.105673 -0.875342 -0.471499
-28.6676 80.6798 19.0157 -0.125172 -0.877813 -0.46236
-28.8736 80.0654 20.2131 -0.121947 -0.869984 -0.477763
-28.9424 79.339 21.5192 -0.140035 -0.86605 -0.479945
-28.9429 78.8739 22.3056 -0.163148 -0.847653 -0.504839
-29.0264 77.9899 23.8609 -0.144249 -0.856121 -0.495943
-29.1151 77.4559 24.7674 -0.129018 -0.842153 -0.523576
-29.3851 76.8673 25.7401 -0.14829 -0.816908 -0.557286
-29.8338 76.2439 26.7504 -0.142613 -0.81313 -0.564341
-30.2855 75.6216 27.7602 -0.145227 -0.812227 -0.564974
-30.9975 75.0572 28.7632 -0.169566 -0.809705 -0.561805
-31.5881 74.4706 29.7988 -0.134104 -0.832606 -0.537386
-32.524 73.9882 30.7989 -0.140192 -0.837988 -0.527372
-33.188 73.7313 31.3806 -0.0887505 -0.86439 -0.494266
-33.9825 73.4095 32.0956 -0.0741949 -0.875933 -0.476693
-34.7744 73.1372 32.7093 -0.0646021 -0.874115 -0.481385
-35.5099 72.8618 33.3047 -0.0608357 -0.875172 -0.479971
-36.3692 72.588 33.8827 -0.0464209 -0.88356 -0.465442
-37.3382 72.1007 34.8846 -0.00424477 -0.887586 -0.460622
-37.7996 71.7284 35.6084 0.00166952 -0.887046 -0.461635
-38.2284 71.3472 36.3293 0.0073765 -0.88581 -0.46399
-38.557 70.9828 37.0881 0.0436705 -0.894753 -0.44442
-38.8151 70.5974 37.861 0.036283 -0.911923 -0.408753
-39.2419 70.2137 38.7142 0.0556468 -0.922296 -0.382423
-39.8278 69.7225 39.8574 0.0828983 -0.92964 -0.358009
-40.2427 69.3829 40.5826 0.105661 -0.925982 -0.362331
-40.9795 68.8521 41.7115 0.127681 -0.922452 -0.36439
-41.6437 68.4294 42.5342 0.129538 -0.918929 -0.37244
-42.2295 68.0664 43.2372 0.119311 -0.920042 -0.373207
-43.1244 67.8403 43.5132 0.11469 -0.927212 -0.356101
-44.0663 67.5952 43.831 0.131155 -0.925096 -0.356365
-44.9993 67.4038 43.9844 0.135141 -0.92405 -0.357563
-46.054 67.2594 43.9392 0.144197 -0.923166 -0.356332
-47.307 67.0722 43.8493 0.163719 -0.916244 -0.365639
-48.1978 67.0617 43.4587 0.172355 -0.914471 -0.366111
-49.4713 67.0844 42.8648 0.156918 -0.921237 -0.35517
-50.6184 67.1203 42.139 0.197229 -0.92096 -0.336054
-52.0129 67.0008 41.6229 0.213979 -0.919527 -0.329672
-53.046 66.9428 41.0984 0.217151 -0.938528 -0.268349
-54.1234 66.7474 40.756 0.278933 -0.923658 -0.262778
-55.0438 66.5528 40.4312 0.306704 -0.91808 -0.250504
-55.8782 66.3602 40.1479 0.301968 -0.91511 -0.267189
-56.7395 66.2106 39.6431 0.318866 -0.91009 -0.264685
-57.6255 66.0243 39.2122 0.318795 -0.9129 -0.254918
-58.2902 65.9533 38.6291 0.325149 -0.911494 -0.251856
-58.9037 65.9333 37.895 0.331011 -0.910577 -0.247525
-59.4907 65.906 37.1982 0.334673 -0.910365 -0.243357
-60.1897 65.8914 36.269 0.341661 -0.907799 -0.243245
-60.6697 65.92 35.4753 0.348271 -0.902624 -0.252937
-61.2408 66.0443 34.2841 0.344303 -0.900758 -0.264747
-61.3521 66.2614 33.4011 0.355588 -0.893457 -0.274395
-61.4423 66.6501 32.0226 0.35802 -0.891361 -0.278024
-61.398 66.9921 30.9734 0.372777 -0.8843 -0.281161
-61.3197 67.3117 30.0707 0.376144 -0.88333 -0.279718
-61.159 67.686 29.1092 0.379275 -0.884489 -0.271559
-61.0653 68.0182 28.1917 0.393642 -0.874955 -0.281957
-61.049 68.4182 26.8307 0.420268 -0.86992 -0.258096
-61.0685 68.6815 25.8764 0.45872 -0.84796 -0.265593
-61.2508 69.0343 24.428 0.459034 -0.84837 -0.263735
-61.5403 69.1492 23.5256 0.465782 -0.846584 -0.257563
-61.8239 69.3645 22.316 0.465776 -0.845511 -0.261083
-62.1213 69.5561 21.1704 0.463562 -0.847198 -0.259504
-62.3722 69.8695 19.6347 0.470919 -0.848172 -0.242567
-62.4 70.1879 18.4721 0.469395 -0.848165 -0.245528
-62.3358 70.6262 17.0116 0.480069 -0.84814 -0.224005
-62.11 71.1028 15.6875 0.485181 -0.846697 -0.218401
-61.8277 71.6167 14.2727 0.492751 -0.845926 -0.203875
-61.5198 72.0681 13.1391 0.496736 -0.846622 -0.191011
-61.391 72.335 12.2875 0.497174 -0.84763 -0.185298
-61.0961 72.7591 11.1224 0.502693 -0.844668 -0.183832
-60.7189 73.1884 10.1544 0.505424 -0.844945 -0.174954
-60.338 73.6148 9.20057 0.51124 -0.841682 -0.173796
-59.8643 74.0738 8.22652 0.517403 -0.842114 -0.152109
-59.3185 74.6071 7.03861 0.517607 -0.843814 -0.141635
-58.8335 75.037 6.18336 0.525258 -0.84133 -0.127548
-58.3378 75.4795 5.30664 0.525406 -0.841235 -0.127563
-57.6383 76.0443 4.38065 0.520264 -0.845639 -0.119249
-56.8657 76.6447 3.48522 0.522738 -0.844707 -0.114959
-56.213 77.1229 2.91712 0.516107 -0.849493 -0.109524
-55.5421 77.59 2.45556 0.516107 -0.849493 -0.109526
-54.7906 78.1163 1.90303 0.516614 -0.849567 -0.106523
-54.0672 78.6037 1.53545 0.517392 -0.848852 -0.10831
-53.4025 79.0644 1.06275 0.515072 -0.849489 -0.114138
-52.7431 79.5301 0.612934 0.513272 -0.849766 -0.120207
-52.1009 79.9977 0.0773347 0.520274 -0.843173 -0.135547
-51.4037 80.5386 -0.62132 0.519728 -0.843844 -0.133451
-50.6471 81.1195 -1.24598 0.534058 -0.83461 -0.134935
-50.035 81.6315 -1.7674 0.530364 -0.829106 -0.1753
-49.2416 82.2325 -2.25379 0.529849 -0.825315 -0.195233
-48.3682 82.8556 -2.56406 0.555926 -0.811161 -0.177979
-47.7387 83.4059 -2.9371 0.604451 -0.742227 -0.269717
-47.228 84.0694 -3.273 0.651767 -0.670831 -0.353816
-47.1275 84.8488 -3.71571 0.398267 -0.672027 -0.624311
-47.0316 85.7176 -4.44622 0.289816 -0.635518 -0.702146
-46.8084 86.0549 -5.27434 0.118924 -0.988675 -0.0449514
-46.3246 86.009 -6.41491 0.046343 -0.993387 0.105041
-45.8147 85.8603 -7.29472 0.0450949 -0.975348 0.216015
-45.2768 85.676 -8.06209 0.0144562 -0.926212 0.376687
-44.5774 85.3485 -8.91069 0.0122706 -0.933477 0.358061
-43.9164 85.0582 -9.52003 0.0256262 -0.886652 0.461727
-42.616 84.9071 -9.91053 0.0367503 -0.893355 0.447799
-41.5222 84.9688 -9.90075 0.0655676 -0.892199 0.446858
-40.5273 85.14 -9.7371 0.10078 -0.892209 0.440234
-39.6686 85.3862 -9.40733 0.111461 -0.92451 0.363518
-38.8011 85.8902 -8.45311 0.137563 -0.922116 0.361633
-38.2646 86.226 -7.77522 0.158475 -0.917401 0.363886
-38.1265 86.6941 -6.73414 0.234872 -0.921202 0.288974
-37.9484 86.945 -5.76569 0.308793 -0.933657 0.181327
-37.8326 87.13 -4.64105 0.338581 -0.936728 0.0889041
-37.6653 87.2648 -3.6254 0.362148 -0.931991 0.0155694
-37.4214 87.383 -2.27074 0.385444 -0.92037 -0.033944
-36.8711 87.5585 -1.07628 0.456699 -0.876191 -0.118911
-36.0483 87.7457 -0.175285 0.431466 -0.863442 -0.261352
-34.9564 88.1883 0.384533 0.387327 -0.842457 -0.371563
-33.3495 88.6969 0.683981 0.312479 -0.871058 -0.377754
-33.2029 88.7433 0.686637 0.284181 -0.87741 -0.386515
