-26.6305 91.2816 4.65518 0.216357 -0.938926 -0.264854
-25.8641 91.542 4.25262 0.237651 -0.950369 -0.200799
-24.8034 91.8297 3.70625 0.121693 -0.984348 -0.127478
-23.6849 91.9763 3.0614 0.0321782 -0.997142 -0.0619188
-22.698 92.0386 2.3566 -0.0341286 -0.998633 -0.0378355
-21.9526 92.0279 1.7758 -0.0455381 -0.998158 -0.0400979
-21.3251 91.9352 0.756322 -0.11962 -0.992182 -0.00152281
-22.392 92.0936 0.326279 -0.133483 -0.990458 -0.0342841
-23.42 92.2277 0.459594 -0.0925469 -0.990106 -0.083668
-24.518 92.1992 0.933421 -0.019344 -0.991736 -0.126826
-25.2562 92.0994 1.45023 0.0270353 -0.984854 -0.171266
-26.1675 91.9314 1.98192 0.135648 -0.969637 -0.203478
-27.0647 91.7137 2.42188 0.135612 -0.969705 -0.203178
-28.1281 91.357 3.04191 0.197931 -0.9525 -0.23136
-28.9023 91.0526 3.48815 0.173744 -0.932161 -0.317629
-30.0431 90.5788 4.07617 0.261628 -0.901035 -0.345736
-30.8707 90.2043 4.40106 0.25586 -0.898138 -0.35747
-31.736 89.8797 4.62191 0.262203 -0.888523 -0.375622
-32.9576 89.3846 4.77943 0.323561 -0.869944 -0.372164
-33.946 88.9933 4.80121 0.332342 -0.859382 -0.388602
-34.9299 88.6258 4.75859 0.358913 -0.84545 -0.395301
-36.0091 88.2575 4.53378 0.370983 -0.847715 -0.378942
-37.0394 87.9709 4.13118 0.376438 -0.857167 -0.35151
-38.1507 87.7471 3.46943 0.384683 -0.856258 -0.344734
-39.051 87.6103 2.79544 0.385675 -0.865882 -0.318595
-39.8624 87.562 1.98537 0.367596 -0.868681 -0.332065
-40.5835 87.6001 1.02833 0.347741 -0.896416 -0.2748
-41.1923 87.7578 -0.0988007 0.297749 -0.898673 -0.322075
-41.4807 87.9383 -0.978417 0.238794 -0.921397 -0.306602
-41.6406 88.2617 -2.16395 0.233711 -0.938192 -0.255293
-41.6701 88.5079 -3.10542 0.176574 -0.956688 -0.231449
-41.6894 88.7386 -4.17 0.176693 -0.969667 -0.165949
-41.7284 88.8549 -5.3053 0.17715 -0.98197 -0.0659801
-41.7064 88.8907 -6.38923 0.047123 -0.99887 0.00614823
-41.6498 88.7335 -7.61872 0.0133935 -0.975985 0.217425
-41.682 88.4147 -9.00249 -0.0395135 -0.96936 0.242447
-42.3257 88.1495 -10.0143 -0.0340105 -0.936986 0.347702
-43.1357 88.3716 -9.39849 -0.0273749 -0.966719 0.254373
-43.3913 88.5996 -8.55939 -0.0468928 -0.962977 0.264533
-43.6162 88.7285 -7.65647 0.0329605 -0.990283 0.135105
-43.8574 88.7822 -6.72847 0.0246061 -0.999397 -0.00400599
-44.0978 88.6905 -5.37395 0.0593344 -0.984194 -0.166859
-44.2545 88.4225 -3.91018 0.0669397 -0.981562 -0.179038
-44.4639 87.9025 -2.58886 0.106742 -0.897372 -0.42817
-44.7494 87.3831 -1.65081 0.201097 -0.846638 -0.492711
-45.0546 86.8337 -0.893608 0.320466 -0.820653 -0.471708
-45.5495 86.2237 -0.106177 0.332762 -0.83268 -0.442596
-46.1353 85.6152 0.586268 0.358229 -0.838141 -0.409015
-47.0701 84.8957 1.38243 0.380656 -0.877718 -0.289075
-47.7563 84.4215 1.85498 0.431566 -0.862654 -0.26378
-48.6969 83.783 2.5314 0.447917 -0.872512 -0.195177
-49.4418 83.28 3.1849 0.438226 -0.886255 -0.148185
-50.0392 82.8755 3.72755 0.449991 -0.883029 -0.131893
-50.8529 82.3556 4.46737 0.470286 -0.876009 -0.106374
-51.5894 81.8919 5.14402 0.466133 -0.880114 -0.0896911
-52.4872 81.3243 5.77484 0.499601 -0.863568 -0.0681853
-53.2168 80.8667 6.30443 0.507563 -0.859445 -0.0592893
-53.8443 80.4333 6.86 0.535502 -0.84212 -0.0633364
-54.5992 79.8962 7.60983 0.546066 -0.835472 -0.0614011
-55.1404 79.494 8.22443 0.558869 -0.826506 -0.0663754
-55.8286 78.9152 9.17887 0.571368 -0.81524 -0.0944592
-56.3605 78.4251 10.1295 0.580416 -0.808739 -0.0951781
-56.7676 78.0123 11.0257 0.594926 -0.795356 -0.116067
-57.1689 77.523 12.1226 0.604869 -0.78258 -0.147316
-57.5832 76.9364 13.444 0.603556 -0.778864 -0.170563
-57.8975 76.4915 14.3682 0.601681 -0.776437 -0.186523
-58.2815 75.8613 15.6349 0.610525 -0.764192 -0.207615
-58.4943 75.4178 16.6167 0.590224 -0.777694 -0.216389
-58.6131 75.0927 17.4534 0.587902 -0.77956 -0.215972
-58.6855 74.6655 18.6636 0.576773 -0.778068 -0.248869
-58.6943 74.3797 19.5281 0.57765 -0.776747 -0.250969
-58.6583 74.0703 20.4829 0.576869 -0.769753 -0.273308
-58.5534 73.784 21.5217 0.549148 -0.791368 -0.26865
-58.4011 73.5669 22.4349 0.549522 -0.785908 -0.283505
-58.2158 73.3447 23.3957 0.548195 -0.783573 -0.292396
-58.053 73.1139 24.3195 0.550007 -0.782908 -0.290761
-57.9022 72.8914 25.2187 0.525568 -0.801724 -0.284634
-57.7658 72.658 26.1112 0.518985 -0.799752 -0.301584
-57.6179 72.3948 27.0422 0.51174 -0.802024 -0.308025
-57.5065 72.0647 28.119 0.498427 -0.809304 -0.310329
-57.4804 71.6435 29.2223 0.469508 -0.823958 -0.317264
-57.5396 71.2565 30.169 0.451706 -0.841523 -0.296195
-57.5256 70.876 31.2437 0.445581 -0.839987 -0.309644
-57.533 70.5384 32.1489 0.432723 -0.841201 -0.323677
-57.416 70.1624 33.3433 0.40109 -0.863441 -0.305932
-57.0438 69.9559 34.4185 0.3952 -0.870618 -0.292588
-56.3041 69.9385 35.4264 0.376307 -0.879022 -0.292768
-55.1915 70.0544 36.4004 0.343986 -0.883675 -0.317296
-54.3922 70.1493 36.9708 0.336082 -0.883714 -0.325724
-53.1199 70.2583 37.8823 0.292464 -0.897628 -0.329234
-52.0487 70.3522 38.5008 0.255975 -0.903522 -0.343389
-51.2211 70.4313 38.8748 0.231027 -0.905456 -0.355681
-50.3581 70.4957 39.2207 0.211294 -0.907447 -0.363174
-49.0024 70.5742 39.6836 0.181645 -0.905124 -0.38437
-47.9816 70.6343 39.9491 0.149498 -0.915255 -0.37411
-46.9657 70.71 40.1254 0.117469 -0.911801 -0.393457
-45.9425 70.8726 40.0615 0.109385 -0.909724 -0.400371
-45.1565 71.1427 39.644 0.0935946 -0.90053 -0.424601
-44.493 71.594 38.8168 0.0824245 -0.895825 -0.43625
-44.0393 72.0431 38.0241 0.0737666 -0.889804 -0.450172
-43.6982 72.453 37.2882 0.0660865 -0.879511 -0.471266
-43.3583 72.9567 36.4291 0.0566057 -0.863035 -0.501832
-42.9189 73.5943 35.3867 0.0537758 -0.852058 -0.520678
-42.5236 74.1309 34.5557 0.0399557 -0.832758 -0.551882
-42.0959 74.5876 33.8921 -0.0114224 -0.826478 -0.562853
-41.5638 75.118 33.1014 -0.0168811 -0.820607 -0.571109
-41.0307 75.6128 32.3888 -0.0208934 -0.813853 -0.580695
-40.3475 76.2112 31.5308 -0.025768 -0.803837 -0.594066
-39.6266 76.7044 30.8052 -0.0695062 -0.793915 -0.604043
-38.9753 77.0548 30.2435 -0.084195 -0.802905 -0.590131
-38.2911 77.4005 29.6672 -0.093782 -0.795143 -0.599127
-37.4897 77.8341 28.9559 -0.101746 -0.798779 -0.592959
-36.7349 78.306 28.2015 -0.102428 -0.790374 -0.604002
-36.0498 78.8499 27.3458 -0.118285 -0.801518 -0.586156
-35.5155 79.3225 26.5833 -0.131418 -0.80949 -0.572223
-35.0555 79.7627 25.8523 -0.135376 -0.808863 -0.572201
-34.6311 80.2862 24.9798 -0.149449 -0.819581 -0.55313
-34.2018 80.8055 24.0482 -0.137619 -0.843453 -0.519263
-33.9169 81.2617 23.2039 -0.152496 -0.859727 -0.487458
-33.7083 81.9101 21.947 -0.145595 -0.878053 -0.455878
-33.499 82.504 20.6943 -0.149292 -0.888836 -0.433224
-33.3617 83.0549 19.4086 -0.10218 -0.925504 -0.364694
-33.2955 83.4459 18.2781 -0.0637948 -0.943457 -0.322602
-33.1871 83.8296 17.2572 -0.0259085 -0.942013 -0.333508
-33.0503 84.1296 16.3267 -0.0155008 -0.951819 -0.30627
-32.8452 84.4848 15.292 0.0354268 -0.94274 -0.33138
-32.6333 84.9422 14.106 0.127672 -0.913056 -0.387336
-32.5044 85.3547 13.1943 0.131042 -0.895958 -0.423807
-32.3898 85.8145 12.3046 0.150468 -0.892246 -0.425385
-32.1934 86.3596 11.33 0.202922 -0.857613 -0.472571
-31.8506 86.9506 10.3893 0.23812 -0.852632 -0.465099
-31.4853 87.4437 9.67871 0.258949 -0.83535 -0.484177
-30.9975 87.9908 8.96979 0.272984 -0.843275 -0.462998
-30.3349 88.7215 8.05085 0.274695 -0.845199 -0.458254
-29.5753 89.3959 7.20816 0.283041 -0.865019 -0.414248
-28.8577 89.9968 6.45735 0.299705 -0.86187 -0.409093
-27.928 90.6269 5.58952 0.282645 -0.900534 -0.329958
-26.9046 91.1616 4.82107 0.224137 -0.927119 -0.300354
-26.2184 91.1476 5.51158 0.27746 -0.928866 -0.245406
-25.1655 91.5901 4.93355 0.248994 -0.953976 -0.167128
-24.017 91.8459 4.3294 0.103638 -0.98686 -0.122555
-23.209 91.9674 3.89677 0.0642333 -0.993922 -0.076162
-22.3248 92.0538 3.25035 0.0864872 -0.995992 -0.0228205
-21.3646 91.9931 2.47152 -0.0275951 -0.997574 0.0619162
-20.6977 91.8744 1.86714 -0.0874333 -0.987708 0.129573
-20.1801 91.7075 0.903932 -0.216195 -0.972558 0.0859651
-20.5704 91.7442 -0.0235124 -0.233593 -0.971925 0.0282259
-21.437 91.9216 -0.505882 -0.196275 -0.979972 0.00179915
-22.3179 92.1136 -0.66696 -0.179528 -0.982932 -0.0281268
-23.6161 92.2948 -0.485027 -0.124666 -0.991135 -0.044248
-24.5227 92.3442 -0.103858 -0.0246088 -0.988387 -0.149949
-25.6609 92.2239 0.554991 0.0637005 -0.985317 -0.158399
-26.8371 91.9974 1.22189 0.135679 -0.969571 -0.203772
-27.8706 91.7343 1.78373 0.138749 -0.957141 -0.253753
-28.6827 91.4789 2.26853 0.156338 -0.94838 -0.275281
-29.7384 91.091 2.91804 0.173518 -0.937909 -0.299776
-30.5164 90.7516 3.2577 0.24262 -0.903488 -0.353335
-31.4576 90.3525 3.61502 0.251529 -0.902671 -0.349166
-32.6177 89.9083 3.85683 0.308355 -0.880407 -0.359424
-33.4861 89.5571 3.92313 0.323148 -0.868514 -0.375845
-34.48 89.1776 3.93 0.3485 -0.859158 -0.374227
-35.4361 88.812 3.82944 0.372792 -0.852039 -0.3675
-36.5855 88.4594 3.44319 0.389561 -0.849421 -0.355988
-37.7001 88.2165 2.79752 0.385852 -0.860718 -0.332089
-38.618 88.0685 2.08891 0.398656 -0.858235 -0.323273
-39.3396 88.0144 1.34235 0.364447 -0.881178 -0.30117
-39.9885 88.0376 0.409404 0.391146 -0.879091 -0.272404
-40.5285 88.1995 -0.852069 0.282654 -0.922467 -0.262987
-40.7015 88.4753 -2.12216 0.254329 -0.938711 -0.229128
-40.735 88.7566 -3.27408 0.19136 -0.962441 -0.185378
-40.7534 88.891 -4.1791 0.158795 -0.976998 -0.142337
-40.7851 88.995 -5.21859 0.117952 -0.992393 -0.0336021
-40.7783 88.9993 -6.13784 0.131089 -0.989167 0.0660677
-40.7056 88.8543 -7.24089 0.0629852 -0.977429 0.201655
-40.7263 88.5534 -8.60778 0.0499241 -0.973397 0.22362
-40.8685 88.2913 -9.52192 0.0458671 -0.951436 0.301337
-41.1833 87.9622 -10.4543 0.0121439 -0.94589 0.32426
-41.9168 87.7017 -11.0719 -0.0188776 -0.889697 0.45521
-43.1028 87.8325 -10.9374 -0.0382847 -0.909554 0.408545
-43.9914 88.2941 -9.78504 -0.0304563 -0.951537 0.30191
-44.3472 88.6351 -8.66658 -0.0664108 -0.959236 0.274693
-44.562 88.7516 -7.77163 -0.0611237 -0.99381 0.091657
-44.8597 88.8141 -6.65939 -0.0722329 -0.996709 -0.0368028
-45.053 88.6569 -5.50822 0.0559183 -0.984385 -0.166914
-45.1422 88.4949 -4.58241 0.0406028 -0.982445 -0.182081
-45.2677 88.154 -3.41241 0.21756 -0.889836 -0.400607
-45.4435 87.7126 -2.56506 0.243715 -0.849109 -0.463708
-45.7281 87.095 -1.72782 0.302435 -0.814144 -0.495474
-46.2112 86.3221 -0.789286 0.320466 -0.820653 -0.471708
-46.7458 85.6781 -0.121252 0.427813 -0.79371 -0.432437
-47.4306 85.0564 0.485465 0.474431 -0.819883 -0.320481
-48.4086 84.2968 1.1539 0.463731 -0.849444 -0.250277
-49.4978 83.4816 1.97551 0.473535 -0.86243 -0.177924
-50.3431 82.8685 2.77733 0.466348 -0.874287 -0.134694
-50.9801 82.433 3.3557 0.475358 -0.87203 -0.116613
-51.6528 81.9796 3.94188 0.493289 -0.863458 -0.10413
-52.3459 81.5246 4.52397 0.496099 -0.863448 -0.0913381
-53.1647 80.9821 5.12124 0.51593 -0.852751 -0.0813916
-54.0792 80.3716 5.82413 0.526624 -0.847711 -0.0625483
-54.7011 79.926 6.41609 0.53761 -0.840327 -0.0694654
-55.2842 79.4956 6.99927 0.544858 -0.834766 -0.0793465
-55.9211 79.0008 7.74521 0.552497 -0.828882 -0.0877552
-56.6131 78.3966 8.84364 0.571453 -0.813689 -0.106544
-57.1684 77.8591 9.92742 0.597847 -0.795333 -0.100127
-57.6403 77.3512 10.9999 0.607121 -0.785093 -0.122611
-57.9392 76.9762 11.8639 0.605202 -0.782264 -0.147628
-58.2634 76.5338 12.8754 0.604538 -0.780411 -0.15925
-58.6127 76.0518 13.8546 0.601317 -0.780974 -0.168814
-58.8751 75.6459 14.6822 0.594617 -0.778345 -0.201258
-59.0834 75.2667 15.553 0.587528 -0.77942 -0.217521
-59.281 74.8468 16.524 0.577221 -0.787907 -0.214077
-59.4007 74.5177 17.3979 0.585851 -0.781724 -0.213743
-59.4605 74.1119 18.5935 0.577597 -0.776761 -0.251044
-59.4716 73.7934 19.5806 0.548396 -0.797083 -0.252795
-59.4519 73.4753 20.6045 0.546223 -0.792555 -0.271102
-59.3536 73.2381 21.4957 0.541903 -0.796296 -0.268729
-59.1542 72.9989 22.5726 0.535216 -0.797794 -0.277612
-58.9668 72.8042 23.4812 0.535505 -0.795824 -0.282664
-58.7921 72.5706 24.465 0.530487 -0.799952 -0.280465
-58.652 72.3535 25.3492 0.528024 -0.800841 -0.282547
-58.4379 71.9873 26.7466 0.491807 -0.823458 -0.282822
-58.3132 71.6568 27.8919 0.478869 -0.827053 -0.294394
-58.2912 71.3093 28.9107 0.464708 -0.828766 -0.31176
-58.3403 70.9582 29.771 0.452931 -0.839621 -0.299122
-58.3579 70.6325 30.7056 0.438886 -0.85263 -0.283503
-58.3933 70.2697 31.7125 0.417819 -0.856168 -0.30398
-58.359 69.9376 32.7265 0.415556 -0.860934 -0.293438
-58.2388 69.669 33.6581 0.395206 -0.870616 -0.292584
-57.7601 69.4696 34.9467 0.385121 -0.877244 -0.286482
-57.2113 69.4609 35.6875 0.374123 -0.88413 -0.279411
-56.4777 69.5176 36.4642 0.349207 -0.895283 -0.276629
-55.6191 69.6346 37.153 0.331683 -0.898192 -0.288262
-54.8369 69.7327 37.7126 0.317851 -0.901465 -0.293781
-53.7886 69.8406 38.4298 0.284262 -0.909985 -0.301865
-52.7112 69.9264 39.1093 0.250268 -0.915617 -0.314662
-51.35 70.053 39.746 0.215381 -0.921335 -0.323655
-50.2919 70.1267 40.1806 0.181462 -0.918258 -0.351952
-49.4369 70.1759 40.489 0.164532 -0.917087 -0.362659
-48.224 70.2428 40.8102 0.149515 -0.915245 -0.374129
-47.2507 70.2975 41.0036 0.117193 -0.916245 -0.382977
-46.1044 70.4198 41.0529 0.101682 -0.91829 -0.382616
-45.0857 70.6527 40.7722 0.095166 -0.917563 -0.385934
-44.3405 70.9766 40.1961 0.0904121 -0.914438 -0.39448
-43.823 71.324 39.535 0.0937013 -0.907223 -0.410081
-43.2029 71.8804 38.4665 0.0752584 -0.896045 -0.437537
-42.7259 72.4418 37.4287 0.0362104 -0.886133 -0.462015
-42.3633 72.983 36.4743 0.0458954 -0.865204 -0.499315
-41.9325 73.6119 35.4351 0.00430658 -0.857655 -0.514208
-41.3405 74.2458 34.3971 0.009418 -0.852784 -0.52218
-40.6975 74.8894 33.4184 -0.0128861 -0.827363 -0.561519
-40.184 75.3513 32.7098 -0.0445087 -0.821484 -0.568063
-39.6282 75.8171 32.018 -0.0506185 -0.80918 -0.585376
-39.0169 76.2421 31.3664 -0.0688045 -0.811633 -0.579946
-38.3792 76.6049 30.773 -0.0792877 -0.808195 -0.583553
-37.7019 76.9451 30.2047 -0.0867531 -0.808266 -0.582391
-36.9758 77.2921 29.5964 -0.10417 -0.805137 -0.58375
-36.0362 77.854 28.6798 -0.101336 -0.797764 -0.594394
-35.4048 78.3227 27.9365 -0.120833 -0.801415 -0.58577
-34.8572 78.7829 27.1911 -0.123379 -0.801315 -0.585382
-34.4054 79.184 26.5192 -0.133109 -0.811455 -0.569055
-33.999 79.6416 25.7641 -0.146757 -0.819827 -0.553479
-33.5339 80.2348 24.7648 -0.150887 -0.825614 -0.543517
-33.0671 80.8321 23.6957 -0.154963 -0.831076 -0.534126
-32.8925 81.3115 22.7728 -0.168459 -0.861335 -0.479295
-32.7251 81.8606 21.7063 -0.160231 -0.864845 -0.475646
-32.5609 82.2989 20.8235 -0.124013 -0.888007 -0.442792
-32.4429 82.8317 19.6321 -0.14073 -0.913339 -0.382108
-32.406 83.1968 18.7727 -0.0924291 -0.906077 -0.412599
-32.2773 83.6944 17.5274 -0.0275556 -0.934165 -0.355777
-32.1366 84.0635 16.5701 -0.0012714 -0.940023 -0.339374
-31.9052 84.4651 15.4123 0.0544297 -0.930569 -0.359788
-31.7293 84.8662 14.4889 0.085543 -0.91972 -0.383142
-31.5685 85.5299 13.1309 0.128468 -0.884624 -0.448189
-31.3954 86.1805 11.9603 0.16993 -0.857825 -0.48501
-31.0714 86.8241 10.9651 0.19684 -0.835397 -0.513192
-30.7177 87.3241 10.2464 0.232135 -0.841402 -0.48731
-30.0761 88.0821 9.32902 0.262986 -0.826064 -0.498414
-29.4585 88.7508 8.52223 0.274702 -0.845199 -0.45825
-28.8313 89.3511 7.81431 0.31448 -0.839635 -0.442848
-28.2017 89.8925 7.15067 0.300169 -0.859336 -0.414028
-27.3945 90.4844 6.39373 0.281448 -0.893581 -0.349715
-26.6377 90.9485 5.79137 0.27746 -0.928866 -0.245406
-25.8762 91.0125 6.40969 0.297018 -0.904499 -0.299584
-24.8573 91.4948 5.82982 0.229888 -0.924643 -0.302039
-24.0424 91.6906 5.40175 0.136564 -0.980092 -0.144118
-23.2573 91.8367 4.9845 0.0939497 -0.986875 -0.131344
-22.2519 91.9899 4.35655 0.071129 -0.992354 -0.10087
-21.2096 92.0481 3.56819 -0.0494366 -0.997947 0.0237599
-20.3829 91.9556 2.87687 -0.0836656 -0.992744 0.0863649
-19.5277 91.7044 1.97361 -0.229841 -0.962142 0.146479
-19.1655 91.4032 0.826045 -0.352263 -0.912105 0.209704
-19.6429 91.3624 -0.462526 -0.386209 -0.915233 0.114849
-20.4014 91.5552 -1.1328 -0.328395 -0.93905 0.10169
-21.2138 91.8014 -1.43101 -0.309119 -0.945098 0.105996
-22.2337 92.1114 -1.65198 -0.302861 -0.948181 0.0954378
-23.1777 92.2783 -1.59036 -0.159325 -0.98602 -0.04879
-24.1631 92.424 -1.28848 -0.141673 -0.983739 -0.110395
-25.3317 92.4349 -0.775328 0.0179858 -0.991289 -0.130422
-26.2464 92.31 -0.209958 0.0636715 -0.985116 -0.159664
-27.3661 92.1139 0.418542 0.104061 -0.974143 -0.200541
-28.497 91.8266 1.05012 0.141785 -0.961242 -0.236415
-29.4352 91.5224 1.60466 0.200619 -0.94471 -0.259349
-30.3111 91.1946 2.09622 0.221743 -0.936764 -0.270746
-31.5025 90.7093 2.66454 0.268942 -0.908913 -0.318666
-32.6487 90.2488 2.94843 0.28971 -0.889954 -0.352207
-33.6118 89.8839 3.0459 0.32403 -0.87622 -0.356592
-35.0053 89.3277 3.04949 0.363562 -0.858109 -0.36259
-36.2003 88.936 2.72759 0.389548 -0.849387 -0.356081
-37.3208 88.675 2.08399 0.409014 -0.845291 -0.343788
-38.2006 88.5117 1.36828 0.402835 -0.870401 -0.283065
-38.8403 88.4546 0.680995 0.379229 -0.886973 -0.259649
-39.4165 88.4634 -0.321626 0.359899 -0.90568 -0.224007
-39.7015 88.6098 -1.40247 0.322103 -0.91447 -0.240566
-39.7978 88.843 -2.58575 0.25227 -0.949294 -0.187619
-39.8087 88.9905 -3.64095 0.267019 -0.957317 -0.110656
-39.8749 89.0977 -5.10468 0.162819 -0.98531 -0.0515154
-39.8803 89.0997 -6.12624 0.116506 -0.981601 0.149578
-39.7613 88.9094 -7.31958 0.121201 -0.975938 0.180714
-39.7566 88.6806 -8.3665 0.130125 -0.96711 0.218556
-39.9401 88.2713 -9.66912 0.119204 -0.935554 0.332459
-40.1652 87.9487 -10.5318 0.00137187 -0.924065 0.377695
-41.0134 87.4224 -11.6517 -0.00145988 -0.899582 0.436634
-42.325 87.1343 -12.163 -0.0149293 -0.85711 0.514545
-43.3205 87.3079 -11.9561 -0.0497464 -0.884161 0.464526
-44.2801 87.76 -11.1726 -0.0341942 -0.889905 0.454863
-44.7379 88.1294 -10.3988 -0.151285 -0.900696 0.407257
-45.056 88.4768 -9.55334 -0.127497 -0.96695 0.2208
-45.2911 88.7056 -8.65654 -0.0254208 -0.981922 0.1844
-45.7015 88.8842 -7.23687 0.0606186 -0.99188 0.0486548
-45.953 88.6794 -5.96685 0.102318 -0.986538 -0.125742
-46.0902 88.455 -4.60774 0.155964 -0.944712 -0.255337
-46.2475 87.7907 -3.14212 0.245848 -0.885133 -0.394444
-46.4916 87.2083 -2.35517 0.298433 -0.805598 -0.511811
-46.8371 86.5141 -1.53992 0.448917 -0.71018 -0.542327
-47.4091 85.6722 -0.763325 0.470395 -0.767707 -0.432151
-47.9704 85.0527 -0.283946 0.468415 -0.818481 -0.332679
-48.6078 84.4716 0.171887 0.545159 -0.791326 -0.275617
-49.4551 83.795 0.697538 0.519894 -0.830237 -0.20104
-50.0595 83.3109 1.22365 0.496049 -0.852476 -0.164985
-50.6665 82.8372 1.83682 0.499076 -0.854158 -0.144174
-51.3295 82.3702 2.46667 0.486384 -0.864042 -0.129716
-52.1097 81.823 3.17592 0.507685 -0.855138 -0.104857
-52.7414 81.3792 3.71051 0.517987 -0.849615 -0.0988974
-53.7942 80.6647 4.45611 0.515922 -0.852755 -0.0813945
-54.5298 80.1544 5.05203 0.530817 -0.844302 -0.0734015
-55.374 79.5443 5.8261 0.536936 -0.840344 -0.0741513
-56.0453 79.0443 6.47824 0.55045 -0.831067 -0.0795768
-56.5511 78.6453 7.13663 0.561428 -0.822442 -0.0908676
-57.2059 78.069 8.16634 0.570902 -0.814848 -0.100267
-57.639 77.6518 8.97306 0.579301 -0.807697 -0.109711
-58.0108 77.2693 9.77784 0.58229 -0.804309 -0.118429
-58.4751 76.7611 10.8469 0.582988 -0.799996 -0.141874
-58.8788 76.213 12.1735 0.583725 -0.79575 -0.161395
-59.3597 75.5899 13.4244 0.582044 -0.792244 -0.183234
-59.7153 75.027 14.6554 0.5825 -0.787237 -0.202365
-59.9282 74.621 15.6358 0.564739 -0.79737 -0.212746
-60.1132 74.2541 16.525 0.566561 -0.794402 -0.218776
-60.2117 73.9484 17.3725 0.547027 -0.808782 -0.215948
-60.2816 73.5938 18.42 0.550346 -0.797707 -0.246544
-60.2823 73.2319 19.5819 0.551055 -0.796115 -0.250079
-60.2524 72.8727 20.7792 0.53296 -0.80184 -0.270125
-60.1095 72.6287 21.7857 0.538043 -0.796738 -0.275171
-59.9186 72.4506 22.6814 0.508625 -0.818259 -0.267864
-59.7152 72.2504 23.6761 0.507643 -0.818631 -0.268592
-59.5526 72.0499 24.5869 0.506024 -0.81823 -0.272826
-59.4059 71.8232 25.5343 0.504101 -0.819072 -0.273868
-59.2334 71.5527 26.6401 0.488993 -0.827125 -0.277039
-59.1333 71.308 27.5378 0.476401 -0.830066 -0.289822
-59.0927 70.8722 28.8781 0.469321 -0.830922 -0.298503
-59.1795 70.3565 30.2649 0.440687 -0.850446 -0.287292
-59.2563 69.9015 31.5496 0.419776 -0.866377 -0.270334
-59.2488 69.4962 32.7955 0.399311 -0.869341 -0.291198
-59.1322 69.2242 33.8412 0.379174 -0.882899 -0.276979
-58.9107 69.0502 34.6972 0.373247 -0.888631 -0.266145
-58.431 69.0091 35.5297 0.360934 -0.893802 -0.266167
-57.7038 69.0318 36.4451 0.364102 -0.891059 -0.270947
-56.7999 69.1227 37.3352 0.355166 -0.89306 -0.276151
-55.6606 69.2891 38.1842 0.320376 -0.911406 -0.258193
-54.4312 69.4452 39.0177 0.294005 -0.916769 -0.270317
-53.177 69.5498 39.8345 0.26503 -0.911633 -0.313766
-52.1287 69.6428 40.3653 0.244391 -0.91307 -0.32646
-50.82 69.727 40.946 0.183395 -0.917584 -0.352712
-49.6958 69.7899 41.3517 0.148341 -0.924382 -0.351443
-48.631 69.8532 41.6372 0.149296 -0.924066 -0.351871
-47.336 69.926 41.8935 0.115218 -0.92223 -0.369076
-46.0542 70.0487 41.9621 0.100402 -0.920931 -0.376543
-44.748 70.3046 41.6737 0.0905535 -0.920301 -0.380587
-43.6876 70.7308 40.9096 0.0866578 -0.914884 -0.394306
-43.1297 71.0917 40.2074 0.0821437 -0.909921 -0.406375
-42.4717 71.6196 39.1263 0.0729196 -0.904333 -0.420103
-42.0027 72.1129 38.1595 0.0511241 -0.901973 -0.428756
-41.5488 72.7127 37.0157 0.0497314 -0.878349 -0.474575
-41.0851 73.3937 35.8414 0.0314153 -0.876889 -0.479665
-40.4985 74.0038 34.7922 -0.0160954 -0.852002 -0.523292
-39.9535 74.5734 33.8651 -0.00797538 -0.844384 -0.53568
-39.3319 75.1416 32.9679 -0.0383774 -0.833786 -0.550753
-38.5366 75.7235 32.0246 -0.070582 -0.81867 -0.569665
-37.9229 76.0958 31.416 -0.080751 -0.80968 -0.581281
-36.9873 76.5503 30.6462 -0.0867794 -0.808338 -0.582288
-36.0534 76.9859 29.8715 -0.0897208 -0.821827 -0.562601
-35.2461 77.4727 29.0716 -0.0864012 -0.803739 -0.588676
-34.5413 77.9906 28.2206 -0.113229 -0.810183 -0.575137
-33.9166 78.4965 27.385 -0.118299 -0.805748 -0.580262
-33.2915 79.1248 26.3301 -0.143913 -0.810495 -0.567791
-32.8275 79.723 25.3389 -0.146615 -0.817137 -0.557462
-32.4275 80.1778 24.5299 -0.152212 -0.830998 -0.535046
-32.1288 80.6671 23.6501 -0.174317 -0.85807 -0.483042
-31.9554 81.1465 22.7434 -0.160394 -0.858043 -0.487887
-31.7435 81.7651 21.5717 -0.152493 -0.869208 -0.470199
-31.5416 82.3623 20.3661 -0.160633 -0.878166 -0.450477
-31.4822 82.9687 19.0668 -0.0924279 -0.906077 -0.412599
-31.3574 83.5637 17.7837 -0.0911107 -0.90044 -0.425308
-31.2636 83.8936 16.9427 -0.0482997 -0.929917 -0.364584
-31.0477 84.3176 15.9036 0.00879177 -0.909555 -0.415083
-30.8517 84.6965 15.0422 0.0156772 -0.916582 -0.399539
-30.7271 85.1419 14.108 0.0941819 -0.876699 -0.47113
-30.6284 85.7113 13.0284 0.126057 -0.870791 -0.474442
-30.5079 86.1908 12.235 0.139693 -0.855955 -0.497822
-30.1782 86.8664 11.2474 0.211758 -0.834045 -0.509439
-29.646 87.6031 10.3236 0.234799 -0.804582 -0.545451
-29.0734 88.2627 9.55487 0.288745 -0.818765 -0.495316
-28.6227 88.8092 8.95387 0.309878 -0.819536 -0.481575
-28.0142 89.3936 8.30445 0.305919 -0.823301 -0.477615
-27.4455 89.8751 7.74393 0.312909 -0.859037 -0.405146
-26.7117 90.4439 7.07691 0.322185 -0.880697 -0.347124
-26.4058 90.661 6.81046 0.316577 -0.880131 -0.353763
-25.6111 90.7286 7.39949 0.301564 -0.891586 -0.336636
-26.395 90.1042 8.0993 0.350038 -0.841932 -0.410639
-27.1508 89.4677 8.76339 0.325435 -0.814248 -0.48072
-27.8116 88.8228 9.42803 0.29563 -0.819971 -0.489675
-28.4401 88.0356 10.25 0.28474 -0.785284 -0.549775
-28.91 87.4189 10.9121 0.256059 -0.799099 -0.543497
-29.3604 86.7398 11.7533 0.190946 -0.808892 -0.556087
-29.644 86.1084 12.6191 0.140425 -0.857154 -0.495541
-29.724 85.5795 13.4899 0.0881995 -0.857611 -0.506296
-29.8265 84.9368 14.6488 0.081023 -0.884072 -0.460273
-30.002 84.5012 15.5235 0.00879228 -0.909555 -0.415083
-30.2023 84.1044 16.3543 0.00190678 -0.902527 -0.430628
-30.3701 83.7314 17.238 -0.0686167 -0.912367 -0.401034
-30.4432 83.3278 18.0785 -0.0921822 -0.897588 -0.43102
-30.5224 82.9288 18.9176 -0.12796 -0.879959 -0.457491
-30.5556 82.4071 19.9355 -0.128906 -0.881327 -0.454584
-30.6994 81.8016 21.1352 -0.169949 -0.868693 -0.465285
-30.8933 81.3444 22.041 -0.164304 -0.859072 -0.484767
-31.0376 80.9036 22.8688 -0.160387 -0.858042 -0.487891
-31.285 80.2306 24.1148 -0.171844 -0.837675 -0.517966
-31.7899 79.6038 25.2292 -0.158782 -0.827295 -0.538862
-32.2556 79.0193 26.2125 -0.141432 -0.815297 -0.561505
-32.7459 78.4421 27.1793 -0.136164 -0.819249 -0.557037
-33.4277 77.8769 28.1542 -0.128323 -0.81053 -0.571466
-34.1667 77.3169 29.0919 -0.111964 -0.808042 -0.578387
-34.8171 76.8776 29.8211 -0.0906656 -0.813048 -0.574836
-35.741 76.3931 30.6876 -0.0897227 -0.821823 -0.562607
-36.5357 76.0449 31.306 -0.082437 -0.817918 -0.569399
-37.5129 75.5579 32.1549 -0.081608 -0.827487 -0.555523
-38.1464 75.164 32.8232 -0.0693615 -0.842387 -0.53439
-38.8065 74.6601 33.6768 -0.0300393 -0.840942 -0.540228
-39.2936 74.1853 34.4582 -0.0139288 -0.855242 -0.517373
-39.769 73.6893 35.3409 0.0108344 -0.875286 -0.483485
-40.2299 73.2129 36.209 0.00676164 -0.880084 -0.47477
-40.5576 72.7854 36.9948 0.0564724 -0.891449 -0.449587
-40.8096 72.3693 37.7887 0.057138 -0.891611 -0.449184
-41.1497 71.9598 38.5877 0.0545289 -0.902673 -0.426859
-41.7074 71.4075 39.7228 0.0541606 -0.913981 -0.402126
-42.1454 71.0468 40.4719 0.0678639 -0.921624 -0.382104
-42.6723 70.7217 41.1556 0.0764755 -0.917951 -0.389252
-43.4968 70.2798 42.0208 0.0890163 -0.918791 -0.384549
-44.4458 69.977 42.5379 0.0881918 -0.920338 -0.381043
-45.352 69.7807 42.804 0.0873172 -0.921426 -0.378615
-46.3997 69.6446 42.8677 0.10309 -0.921843 -0.373602
-47.3652 69.5596 42.7994 0.115134 -0.922143 -0.36932
-48.3444 69.4957 42.6467 0.129124 -0.925105 -0.357083
-49.2148 69.4654 42.4129 0.135136 -0.929122 -0.343793
-50.0983 69.407 42.1915 0.147391 -0.924702 -0.351001
-51.2423 69.3598 41.7496 0.177526 -0.930454 -0.320409
-52.375 69.3026 41.2319 0.212128 -0.930601 -0.298302
-53.3484 69.2197 40.743 0.252793 -0.925378 -0.282437
-54.457 69.1354 40.0237 0.272671 -0.920999 -0.277523
-55.3394 69.0266 39.4498 0.294011 -0.916765 -0.270324
-56.2689 68.8961 38.8102 0.317614 -0.91092 -0.263337
-57.1088 68.7655 38.2048 0.337752 -0.907203 -0.250812
-57.9767 68.6488 37.4468 0.343436 -0.90687 -0.244192
-58.7042 68.5965 36.6067 0.346678 -0.906079 -0.242558
-59.5041 68.582 35.4773 0.366245 -0.897855 -0.244051
-59.9345 68.7345 34.3232 0.369359 -0.892784 -0.257896
-60.1033 68.9804 33.2521 0.384968 -0.885561 -0.259963
-60.1387 69.2574 32.2882 0.407764 -0.870011 -0.276631
-60.086 69.6512 31.0635 0.419767 -0.866381 -0.270335
-59.9936 70.0595 29.9146 0.428286 -0.86257 -0.26934
-59.9169 70.4047 28.9763 0.447906 -0.852524 -0.269412
-59.9095 70.8181 27.721 0.466238 -0.841249 -0.273325
-59.9959 71.061 26.7774 0.478203 -0.836134 -0.268437
-60.1836 71.3561 25.5209 0.491281 -0.830876 -0.26132
-60.3821 71.6296 24.3133 0.501329 -0.823121 -0.266723
-60.6338 71.8738 23.0832 0.509601 -0.817891 -0.267136
-60.8899 72.084 21.9417 0.50839 -0.819787 -0.263605
-61.0877 72.3877 20.6054 0.507986 -0.821522 -0.258946
-61.098 72.7138 19.5461 0.522874 -0.817586 -0.241099
-61.1018 73.0163 18.5163 0.517917 -0.822001 -0.236804
-61.0707 73.3312 17.5084 0.548688 -0.803243 -0.231244
-60.9444 73.6774 16.547 0.540858 -0.811271 -0.222064
-60.7799 74.0083 15.7012 0.538596 -0.815854 -0.210468
-60.5257 74.4885 14.5042 0.558794 -0.805494 -0.197264
-60.3364 74.8216 13.6747 0.558935 -0.806418 -0.19303
-59.9936 75.2966 12.7053 0.562996 -0.804859 -0.187562
-59.5403 75.8844 11.4355 0.559264 -0.812407 -0.164683
-59.2419 76.2883 10.4316 0.566639 -0.808574 -0.158521
-58.6514 76.9149 9.1683 0.562662 -0.815461 -0.135775
-58.1251 77.4517 8.04039 0.562297 -0.818307 -0.118947
-57.3693 78.1312 6.82447 0.555455 -0.825305 -0.101347
-56.9148 78.5196 6.08172 0.548702 -0.831059 -0.0906148
-56.2599 79.0215 5.39837 0.54256 -0.834598 -0.0952587
-55.3764 79.6636 4.61681 0.527688 -0.844974 -0.0869715
-54.7633 80.1056 4.06199 0.525271 -0.846136 -0.0902424
-54.021 80.6262 3.50919 0.525802 -0.8457 -0.091231
-53.2691 81.1448 2.98448 0.521333 -0.846804 -0.105519
-52.4043 81.7607 2.25711 0.511128 -0.851785 -0.114438
-51.6685 82.3084 1.56314 0.50204 -0.855738 -0.12433
-51.0158 82.8115 0.883962 0.508645 -0.845273 -0.163687
-50.2276 83.4538 0.106869 0.523335 -0.83303 -0.179392
-49.6233 83.9664 -0.363213 0.570778 -0.787634 -0.232045
-48.8931 84.6217 -0.799096 0.555959 -0.754899 -0.342463
-48.2548 85.3361 -1.23752 0.542173 -0.739715 -0.398585
-47.7265 86.1576 -1.83869 0.519777 -0.674287 -0.521428
-47.3359 87.1699 -2.78731 0.482987 -0.669563 -0.564277
-47.1308 87.7142 -3.55021 0.263081 -0.875424 -0.405489
-47.0028 88.2773 -4.76799 0.238194 -0.904615 -0.353462
-46.932 88.555 -5.62909 0.0807201 -0.987414 -0.133761
-46.7994 88.6932 -6.76374 0.102318 -0.986538 -0.125742
-46.5617 88.7815 -7.74746 0.13173 -0.991029 -0.0225702
-46.2937 88.7084 -8.6757 -0.00572221 -0.987608 0.156838
-46.0475 88.5203 -9.67078 -0.0451048 -0.976237 0.211962
-45.6096 88.0863 -10.7142 -0.0854443 -0.892869 0.442135
-45.2248 87.6944 -11.4414 -0.087562 -0.895645 0.436066
-44.5146 87.2136 -12.2574 -0.0663542 -0.846378 0.527648
-43.764 86.8478 -12.7541 -0.0321182 -0.83506 0.549221
-42.581 86.6149 -13.0396 -0.0128624 -0.810368 0.585779
-41.4152 86.7309 -12.82 0.0125806 -0.854562 0.519032
-40.4842 87.0267 -12.3698 0.0240906 -0.857622 0.513717
-39.7382 87.3898 -11.7841 0.0234659 -0.885365 0.461118
-39.2409 87.9098 -10.797 0.101493 -0.892962 0.43854
-38.9917 88.3488 -9.79125 0.10217 -0.929166 0.354134
-38.8593 88.6711 -8.79946 0.0945471 -0.957803 0.271429
-38.787 88.99 -7.4898 0.114281 -0.974544 0.192885
-38.9402 89.1902 -6.19748 0.104895 -0.985869 0.130608
-38.9501 89.2541 -5.17389 0.201639 -0.977668 -0.00823954
-38.9195 89.2613 -4.01793 0.240541 -0.966284 -0.0918472
-38.8956 89.1837 -3.08472 0.309605 -0.946129 -0.0887138
-38.8566 88.9905 -1.72401 0.337799 -0.93013 -0.144046
-38.5482 88.8543 -0.419018 0.405397 -0.894148 -0.186028
-37.8756 88.9212 0.542265 0.411441 -0.884829 -0.21862
-37.0769 89.0778 1.25461 0.416643 -0.866662 -0.274419
-36.2026 89.3162 1.83516 0.405359 -0.844278 -0.35021
-35.0853 89.676 2.1729 0.352747 -0.855995 -0.377945
-33.9514 90.1118 2.1624 0.301496 -0.874209 -0.379016
-33.036 90.4691 2.07325 0.276721 -0.900107 -0.33569
-32.0257 90.8328 1.87085 0.26634 -0.909585 -0.31892
-31.1448 91.187 1.4593 0.214 -0.937429 -0.274647
-30.0195 91.604 0.848224 0.171514 -0.945094 -0.278174
-29.1707 91.8928 0.359534 0.145639 -0.960863 -0.235646
-27.9866 92.2044 -0.32943 0.0889906 -0.974405 -0.206436
-27.0055 92.3808 -0.872035 0.0489366 -0.98302 -0.176484
-25.977 92.5596 -1.52275 0.0117296 -0.978932 -0.198747
-25.1592 92.612 -1.91025 -0.0489868 -0.984168 -0.165343
-24.298 92.5118 -2.25561 -0.206462 -0.973468 -0.0986603
-23.3053 92.3468 -2.55812 -0.22623 -0.96844 0.025449
-21.8871 91.9075 -2.578 -0.302859 -0.948181 0.0954497
-20.8092 91.5602 -2.29669 -0.371581 -0.920665 0.115796
-19.7059 91.1673 -1.83264 -0.403267 -0.898537 0.170272
-18.7508 90.9015 -0.796864 -0.428076 -0.886793 0.174208
-18.3434 90.9338 0.165913 -0.37745 -0.893129 0.240658
-18.1579 91.0791 1.11061 -0.343277 -0.91106 0.227425
-18.3765 91.3883 1.96056 -0.333864 -0.91015 0.24528
-19.0819 91.7465 2.94946 -0.249507 -0.957201 0.145261
-19.8716 91.9593 3.68673 -0.143663 -0.981612 0.125692
-20.5732 92.0107 4.28707 -0.0297548 -0.999557 0.000781469
-21.471 91.9858 4.94425 0.0723112 -0.994674 -0.0624598
-22.2752 91.9132 5.49318 0.127251 -0.988772 -0.0501856
-23.1479 91.714 5.98418 0.137338 -0.983716 -0.103905
-24.0496 91.4691 6.45197 0.2003 -0.933115 -0.298624
-24.9935 91.0807 6.95627 0.267412 -0.909042 -0.319113
-25.4607 90.8189 7.27911 0.275338 -0.901915 -0.332775
-24.9155 90.7245 8.09991 0.320257 -0.906295 -0.275797
-24.2002 91.1151 7.61588 0.272865 -0.928021 -0.25152
-22.8667 91.6897 6.83634 0.234776 -0.955014 -0.157597
-22.0441 91.8771 6.43512 0.136095 -0.984238 -0.104314
-20.9591 92.0018 5.68782 0.0675634 -0.997291 -0.0290957
-19.7704 92.0193 4.89133 -0.000666257 -0.996637 0.0819444
-18.8281 91.905 4.07103 -0.0463177 -0.987663 0.149588
-17.9689 91.5808 3.17229 -0.184513 -0.935584 0.301062
-17.4649 91.0885 2.20393 -0.376801 -0.883009 0.274171
-17.221 90.7515 1.32675 -0.406875 -0.884861 0.226877
-17.3567 90.5072 0.254077 -0.414942 -0.870465 0.264355
-17.757 90.379 -0.924498 -0.443092 -0.879881 0.171692
-18.4017 90.5324 -1.75353 -0.456484 -0.867233 0.198758
-19.0502 90.7141 -2.43668 -0.449435 -0.871173 0.19765
-20.1117 91.1337 -3.12281 -0.424271 -0.892894 0.15078
-21.0053 91.5081 -3.36294 -0.353321 -0.932095 0.0797684
-21.8951 91.8376 -3.59809 -0.372823 -0.925475 0.067073
-22.8426 92.2011 -3.61495 -0.343858 -0.937765 -0.0485591
-23.9462 92.6019 -3.45202 -0.349842 -0.935488 -0.049729
-24.9519 92.743 -3.03789 -0.136389 -0.976463 -0.153918
-25.9216 92.7604 -2.64149 -0.0717073 -0.987956 -0.137118
-26.9636 92.6326 -2.17789 0.0521872 -0.980154 -0.191152
-28.0732 92.4036 -1.32728 0.0806481 -0.978014 -0.191873
-29.101 92.1756 -0.732006 0.129835 -0.966677 -0.219083
-30.4228 91.781 -0.00179526 0.166077 -0.950576 -0.261711
-31.4688 91.4176 0.498483 0.213899 -0.930305 -0.29796
-32.2013 91.109 0.982154 0.206118 -0.919199 -0.332876
-33.1696 90.7646 1.19066 0.245871 -0.902469 -0.353692
-34.0493 90.484 1.30299 0.263073 -0.885468 -0.38115
-35.0128 90.1109 1.34156 0.369998 -0.833067 -0.411219
-36.0367 89.7215 1.01288 0.434029 -0.84279 -0.316646
-37.0948 89.392 0.173125 0.455726 -0.860278 -0.227938
-37.817 89.268 -0.956118 0.37512 -0.916614 -0.138218
-37.9848 89.351 -2.12562 0.356537 -0.927483 -0.0915703
-37.9331 89.5219 -3.33304 0.309597 -0.946131 -0.088712
-38.0443 89.4686 -4.66491 0.197377 -0.977891 0.0647832
-38.0339 89.3711 -5.8094 0.160434 -0.977573 0.135759
-37.864 89.2432 -6.95385 0.147062 -0.978705 0.143209
-37.7886 89.0409 -8.0482 0.151398 -0.962314 0.225901
-37.9312 88.7513 -9.0634 0.173472 -0.945253 0.276412
-38.0964 88.2873 -10.2721 0.184714 -0.906954 0.378571
-38.4387 87.7292 -11.3072 0.119402 -0.869082 0.476726
-38.762 87.2054 -12.2367 0.0716147 -0.873133 0.482014
-39.4465 86.8447 -12.7634 0.0726891 -0.852392 0.516925
-40.2203 86.4657 -13.2575 0.011668 -0.820935 0.570903
-41.6367 86.0709 -13.7387 0.00730243 -0.797298 0.602691
-42.8841 86.0339 -13.8382 -0.0190605 -0.790801 0.61169
-43.8411 86.1688 -13.7175 -0.0400371 -0.798787 0.600281
-44.8268 86.6358 -13.1756 -0.0710268 -0.819993 0.567513
-45.5721 87.0356 -12.676 -0.0663544 -0.846378 0.527647
-46.1748 87.6824 -11.6637 -0.0871907 -0.876616 0.470995
-46.5608 88.085 -10.9374 -0.119337 -0.905022 0.400615
-46.9483 88.4145 -10.126 -0.157106 -0.922731 0.347502
-47.1549 88.6443 -9.27017 -0.0729513 -0.985779 0.151386
-47.4277 88.7817 -8.29314 -0.0501359 -0.997411 -0.0515501
-47.7108 88.613 -6.81361 0.0882935 -0.987063 -0.131719
-47.8665 88.2979 -5.24967 0.184843 -0.932684 -0.304546
-47.9929 87.9189 -4.39312 0.193016 -0.875568 -0.44286
-48.0355 87.4056 -3.6209 0.435517 -0.692756 -0.574185
-48.2291 86.745 -3.01372 0.500479 -0.623487 -0.595425
-48.4786 85.9355 -2.37088 0.544465 -0.639908 -0.542287
-49.0748 84.9073 -1.81679 0.715201 -0.652015 -0.251721
-49.638 84.2445 -1.49713 0.57898 -0.794694 -0.182328
-50.4135 83.5509 -0.92285 0.555896 -0.812826 -0.172228
-51.1416 82.9662 -0.392662 0.540092 -0.823863 -0.171902
-51.6922 82.5012 0.270904 0.519663 -0.842588 -0.14141
-52.2005 82.0786 0.885606 0.519981 -0.846236 -0.116211
-53.2454 81.2965 1.85602 0.526291 -0.843417 -0.107704
-53.9219 80.8161 2.37073 0.525094 -0.845129 -0.100162
-54.833 80.1837 2.95295 0.523885 -0.846453 -0.095193
-55.5353 79.6817 3.52807 0.526762 -0.844813 -0.0938724
-56.1297 79.2509 4.07039 0.5278 -0.84375 -0.09745
-57.093 78.5355 4.9434 0.537013 -0.837626 -0.0999835
-57.6226 78.1244 5.52761 0.544129 -0.831795 -0.109729
-58.1357 77.6592 6.52391 0.542137 -0.832036 -0.117148
-58.8014 77.0763 7.47954 0.545875 -0.828455 -0.125234
-59.1955 76.6927 8.25239 0.547233 -0.825281 -0.139455
-59.5357 76.3412 9.01505 0.541734 -0.827983 -0.143987
-59.9617 75.8939 9.87593 0.548349 -0.820993 -0.158943
-60.2534 75.53 10.7252 0.55915 -0.814452 -0.154984
-60.6634 75.0466 11.7264 0.561661 -0.808159 -0.177194
-60.9297 74.675 12.5568 0.552482 -0.814665 -0.176017
-61.1777 74.2576 13.6368 0.533222 -0.822231 -0.199019
-61.3784 73.9207 14.499 0.532741 -0.82296 -0.197291
-61.6366 73.4299 15.7511 0.523039 -0.825936 -0.209553
-61.8977 72.9765 16.9082 0.507174 -0.834884 -0.213876
-61.9679 72.6923 17.7591 0.514107 -0.823366 -0.240338
-61.9349 72.3608 18.9757 0.501871 -0.830762 -0.240746
-61.9117 72.0198 20.1588 0.507891 -0.822168 -0.257063
-61.8478 71.7813 21.0402 0.506178 -0.822862 -0.258224
-61.6151 71.5464 22.2344 0.499803 -0.82551 -0.262166
-61.4554 71.3437 23.1464 0.507674 -0.819433 -0.266077
-61.213 71.1467 24.2207 0.507686 -0.82002 -0.264237
-61.0033 70.9912 25.1642 0.478843 -0.838223 -0.260944
-60.7971 70.673 26.5909 0.468327 -0.845579 -0.256208
-60.7147 70.4297 27.5284 0.458729 -0.85267 -0.249603
-60.7331 70.0489 28.7643 0.43735 -0.857355 -0.271417
-60.8308 69.7191 29.67 0.430064 -0.861781 -0.269032
-60.949 69.2394 31.1176 0.399722 -0.881296 -0.25171
-60.9971 68.7522 32.7076 0.386244 -0.886009 -0.256491
-60.8391 68.3838 34.2178 0.379736 -0.889212 -0.255133
-60.4703 68.1967 35.4715 0.366853 -0.901657 -0.228874
-59.9127 68.1484 36.5304 0.354164 -0.907053 -0.227512
-59.1984 68.203 37.4047 0.342792 -0.911708 -0.226276
-58.0591 68.3277 38.5659 0.32988 -0.915236 -0.23129
-56.9706 68.4972 39.3766 0.312126 -0.916236 -0.251169
-55.7624 68.6894 40.2043 0.29524 -0.924488 -0.239941
-54.5559 68.8445 40.9841 0.251999 -0.937829 -0.237123
-53.7428 68.9015 41.52 0.221867 -0.941188 -0.254497
-52.9287 68.9548 41.9757 0.18276 -0.946993 -0.264203
-51.9119 68.9986 42.479 0.168145 -0.942449 -0.288993
-50.979 69.0384 42.8608 0.143511 -0.939615 -0.3104
-49.8366 69.0838 43.2002 0.122733 -0.934262 -0.334011
-48.7168 69.137 43.4449 0.12628 -0.928026 -0.350372
-47.4123 69.1818 43.7327 0.112428 -0.923363 -0.367098
-46.4116 69.2835 43.7751 0.105148 -0.926329 -0.361744
-44.8975 69.496 43.6132 0.0890219 -0.923594 -0.372894
-43.5664 69.8217 43.1224 0.0889593 -0.922696 -0.375124
-42.6757 70.1543 42.5161 0.0887716 -0.923367 -0.373515
-42.0313 70.4988 41.8177 0.114046 -0.922302 -0.368355
-41.3805 70.8527 41.0817 0.0733041 -0.922076 -0.380003
-40.9312 71.1999 40.3179 0.0674727 -0.921718 -0.381649
-40.3555 71.7221 39.181 0.0468318 -0.910928 -0.408999
-39.9694 72.145 38.3438 0.03148 -0.903683 -0.426749
-39.5788 72.7371 37.1772 0.0347524 -0.895022 -0.444666
-39.2793 73.1667 36.3463 0.0322647 -0.889052 -0.456667
-38.8773 73.5564 35.5794 0.00188629 -0.885466 -0.464094
-38.3743 74.0824 34.6437 0.00423466 -0.865326 -0.501192
-37.9301 74.5021 33.8461 -0.0697657 -0.858911 -0.506579
-37.0582 75.0303 32.8813 -0.0807559 -0.839044 -0.537794
-36.1547 75.5072 32.046 -0.0631377 -0.829959 -0.554238
-34.9983 76.0075 31.1373 -0.0896474 -0.827628 -0.554062
-34.3757 76.336 30.5509 -0.0904572 -0.826124 -0.556177
-33.8079 76.6858 29.9379 -0.0892103 -0.82002 -0.565339
-32.8956 77.361 28.7821 -0.117435 -0.820255 -0.559794
-32.0185 77.9694 27.6751 -0.155869 -0.819791 -0.551017
-31.5189 78.3937 26.9205 -0.145553 -0.809706 -0.568499
-31.2556 78.8828 26.1525 -0.155531 -0.814951 -0.558193
-30.66 79.516 25.0248 -0.16888 -0.824398 -0.540194
-30.2834 79.9152 24.2926 -0.17185 -0.837673 -0.517967
-30.1325 80.7477 22.8398 -0.165707 -0.852542 -0.495544
-29.9107 81.2078 21.9499 -0.14281 -0.854373 -0.498948
-29.6909 81.6914 21.0081 -0.146558 -0.867256 -0.475802
-29.6023 82.1509 20.1292 -0.14938 -0.871358 -0.467354
-29.579 82.7792 18.9504 -0.112998 -0.88026 -0.460841
-29.474 83.3226 17.9103 -0.0889278 -0.884397 -0.457263
-29.3558 83.8063 16.9109 -0.0621239 -0.892693 -0.446216
-29.1887 84.1857 16.1068 -0.0605631 -0.897844 -0.436128
-29.055 84.6322 15.2661 -0.00440811 -0.873944 -0.485799
-28.8148 85.1953 14.299 0.0395242 -0.857906 -0.511983
-28.7817 85.6727 13.4926 0.0603442 -0.837908 -0.541721
-28.5454 86.4942 12.3553 0.149394 -0.791796 -0.591288
-28.2016 87.199 11.5195 0.236869 -0.744537 -0.622622
-27.591 88.0599 10.6901 0.332337 -0.753379 -0.565357
-27.1955 88.6415 10.0854 0.355035 -0.769194 -0.531031
-26.3582 89.508 9.29453 0.363636 -0.819796 -0.442384
-25.7454 90.0533 8.80648 0.37337 -0.84447 -0.384012
-25.2525 90.4603 8.39056 0.379044 -0.841122 -0.385736
-25.023 90.6603 8.18606 0.35249 -0.872032 -0.331633
