-43.9707 89.4706 -3.57528 0.157987 -0.958323 -0.237816
-43.8518 89.7546 -4.66232 0.148702 -0.960613 -0.234755
-43.5839 89.982 -5.75788 0.102902 -0.973873 -0.196676
-43.5112 90.1769 -6.93625 0.0179255 -0.988533 -0.149939
-43.4823 90.2902 -7.96241 -0.0178051 -0.99842 -0.0532948
-43.4105 90.2848 -8.90558 -0.037199 -0.996517 0.0746379
-43.3959 90.1904 -9.86004 -0.0624737 -0.986662 0.149139
-43.4814 89.955 -11.1346 -0.0662047 -0.971616 0.226882
-43.3258 89.6656 -12.1298 -0.0667814 -0.94969 0.305989
-42.3577 89.3669 -12.6476 -0.111487 -0.907436 0.399477
-41.8895 89.5678 -12.0345 -0.0565221 -0.925534 0.374421
-41.7212 89.9157 -10.8904 -0.0210661 -0.973613 0.226209
-41.6634 90.136 -10.0092 -0.00823388 -0.969966 0.243102
-41.7548 90.2997 -8.59188 0.0284574 -0.995388 0.0916143
-41.8851 90.3153 -7.57827 0.0675545 -0.997568 -0.0171841
-42.0412 90.2608 -6.68105 0.118597 -0.984201 -0.131469
-42.1502 90.1164 -5.69816 0.14465 -0.982701 -0.110745
-42.3062 89.9583 -4.75047 0.104073 -0.983545 -0.147672
-42.3641 89.7686 -3.68612 0.160814 -0.957229 -0.240062
-42.2614 89.4262 -2.21363 0.246525 -0.940338 -0.234026
-42.0962 89.1917 -1.21813 0.282984 -0.917471 -0.279583
-41.6973 88.8519 0.280871 0.309867 -0.909706 -0.276435
-41.3652 88.6869 1.11605 0.357627 -0.874444 -0.326955
-40.6154 88.5856 2.29509 0.376238 -0.865534 -0.33019
-39.6112 88.6021 3.3702 0.384739 -0.856997 -0.342826
-38.7584 88.7078 4.05496 0.377231 -0.852278 -0.362203
-37.796 88.8553 4.66863 0.359965 -0.861423 -0.358282
-36.7787 89.092 5.09836 0.355412 -0.854681 -0.378421
-35.6935 89.4181 5.35418 0.34396 -0.859012 -0.379175
-34.7848 89.7208 5.44402 0.318444 -0.866833 -0.383658
-33.6945 90.1234 5.45302 0.323855 -0.868547 -0.375054
-32.2518 90.7261 5.2508 0.306363 -0.876038 -0.372423
-31.448 91.1005 5.00818 0.27353 -0.885613 -0.375329
-30.3746 91.6019 4.58055 0.248158 -0.90109 -0.355349
-29.4151 92.0409 4.09616 0.255482 -0.905768 -0.337076
-28.3722 92.5112 3.44303 0.246553 -0.934411 -0.257075
-27.4929 92.8961 2.73431 0.19927 -0.956307 -0.213934
-26.628 93.2285 2.05397 0.172519 -0.960314 -0.217464
-25.5737 93.5317 1.25369 0.115328 -0.968885 -0.218968
-24.5505 93.7408 0.665915 0.0873019 -0.977558 -0.190365
-23.4237 93.8867 0.0357144 0.0452863 -0.993235 -0.106931
-22.214 93.9395 -0.620623 -0.0741899 -0.992396 -0.073462
-21.0805 93.8033 -0.983976 -0.117069 -0.992046 -0.0319346
-19.9763 93.6288 -0.925624 -0.16999 -0.984611 0.0405554
-18.9751 93.4949 -0.11456 -0.196563 -0.971618 0.113322
-19.5019 93.6194 0.621746 -0.126591 -0.991325 0.0321426
-20.8668 93.7248 1.4824 -0.0266454 -0.999399 -0.020711
-21.822 93.696 2.02385 0.051037 -0.995531 -0.0794357
-22.7079 93.6146 2.45468 0.0679595 -0.991073 -0.109506
-23.7365 93.4218 2.98735 0.133234 -0.977913 -0.161045
-24.7512 93.1627 3.62775 0.1454 -0.967038 -0.209035
-25.6118 92.9254 4.12065 0.165321 -0.958469 -0.230812
-26.6552 92.567 4.73249 0.197196 -0.946663 -0.254079
-27.385 92.221 5.23172 0.243018 -0.918203 -0.312802
-28.3656 91.6777 5.94204 0.269456 -0.892935 -0.360638
-29.0226 91.2498 6.48299 0.282312 -0.879804 -0.38194
-29.6306 90.7597 7.07389 0.29096 -0.86127 -0.4166
-30.2534 90.2203 7.76406 0.28633 -0.864446 -0.413217
-30.8035 89.668 8.48765 0.269461 -0.856124 -0.440956
-31.2771 89.1479 9.20808 0.263056 -0.848949 -0.457937
-31.6338 88.6634 9.8792 0.255752 -0.84348 -0.472369
-31.9683 88.1393 10.6583 0.237608 -0.867628 -0.436766
-32.2521 87.6469 11.4293 0.204309 -0.852885 -0.480268
-32.5937 86.9211 12.6097 0.180613 -0.87014 -0.45801
-32.8651 86.2735 13.8522 0.148496 -0.918912 -0.361849
-33.1798 85.7806 15.1081 0.0780228 -0.945575 -0.310629
-33.4282 85.4667 16.2091 0.0316578 -0.954077 -0.295372
-33.6609 85.1234 17.4245 -0.0289553 -0.962426 -0.269889
-33.7537 84.8511 18.4469 -0.0310408 -0.96533 -0.25918
-33.8632 84.3856 19.7344 -0.112587 -0.930199 -0.348259
-33.8908 84.0421 20.5981 -0.126661 -0.920383 -0.369935
-33.9873 83.5707 21.6933 -0.176912 -0.887486 -0.425524
-34.1427 83.1935 22.5024 -0.162863 -0.871259 -0.462544
-34.5665 82.6996 23.5232 -0.152216 -0.853645 -0.497978
-35.1198 82.2564 24.4631 -0.18383 -0.847108 -0.498613
-35.6122 81.8813 25.1491 -0.161366 -0.8142 -0.557568
-36.2547 81.4668 25.9279 -0.156527 -0.803338 -0.574584
-37.135 80.9162 26.9013 -0.149272 -0.788384 -0.596798
-37.8454 80.4507 27.6917 -0.15813 -0.76215 -0.627773
-38.4624 80.0464 28.3336 -0.153186 -0.75403 -0.638635
-39.0975 79.5722 29.0279 -0.135708 -0.750671 -0.64649
-39.7903 79.061 29.7508 -0.122176 -0.749292 -0.650872
-40.4508 78.541 30.4893 -0.0950642 -0.771098 -0.629457
-40.9516 78.0928 31.1038 -0.0780482 -0.762823 -0.641698
-41.6313 77.4027 31.9633 -0.0546749 -0.762634 -0.644136
-42.0975 76.8958 32.6496 -0.0478697 -0.795668 -0.603838
-42.5225 76.3876 33.3487 -0.0450622 -0.793221 -0.607265
-43.0103 75.6819 34.3225 -0.0150276 -0.802291 -0.596744
-43.3675 75.1506 35.1049 -0.012165 -0.829177 -0.558762
-43.6291 74.6827 35.8325 0.028604 -0.840173 -0.541564
-44.0497 74.0754 36.7966 0.0217594 -0.860933 -0.508253
-44.5208 73.5336 37.7011 0.0620872 -0.874056 -0.481842
-45.0648 73.0643 38.5089 0.0521051 -0.884969 -0.462725
-45.7736 72.6373 39.2536 0.0900832 -0.902536 -0.421086
-46.6138 72.322 39.749 0.0905056 -0.902284 -0.421535
-47.6888 72.0806 39.9887 0.115794 -0.902876 -0.414013
-49.1945 71.8911 39.9025 0.158316 -0.906991 -0.390247
-50.555 71.7911 39.534 0.187823 -0.910342 -0.368782
-51.7092 71.7482 38.9836 0.230914 -0.900313 -0.368937
-52.7713 71.7326 38.2913 0.261952 -0.902717 -0.341295
-53.5696 71.7268 37.6406 0.296499 -0.890268 -0.345704
-54.6104 71.7114 36.6888 0.346943 -0.879838 -0.324687
-55.271 71.6778 36.0486 0.364455 -0.87684 -0.313233
-56.2438 71.6346 34.9828 0.378414 -0.87254 -0.308994
-56.8072 71.7277 33.9685 0.411146 -0.85788 -0.308221
-57.062 72.0367 32.7808 0.432181 -0.84813 -0.306423
-57.1154 72.3893 31.7779 0.460716 -0.82779 -0.319486
-57.115 72.7882 30.6808 0.475832 -0.820599 -0.316047
-57.1154 73.216 29.6001 0.499819 -0.807474 -0.313277
-57.1314 73.7062 28.3373 0.533666 -0.78466 -0.315325
-57.2626 74.0347 27.2675 0.532039 -0.787594 -0.310841
-57.3205 74.363 26.3788 0.552392 -0.771201 -0.316246
-57.5348 74.6745 25.1993 0.559977 -0.770232 -0.305212
-57.7738 74.9964 24.0058 0.58194 -0.752679 -0.307454
-58.0052 75.2945 22.7694 0.581849 -0.761159 -0.286442
-58.1148 75.57 21.7922 0.600891 -0.745077 -0.28817
-58.2023 75.919 20.6615 0.616405 -0.74159 -0.264744
-58.2314 76.2647 19.6316 0.624958 -0.736875 -0.257355
-58.17 76.6567 18.6096 0.635017 -0.730113 -0.252148
-58.0038 77.1156 17.6872 0.654021 -0.722222 -0.225058
-57.7894 77.5654 16.8669 0.654041 -0.72219 -0.225104
-57.5576 78.0108 16.0665 0.665457 -0.719965 -0.195804
-57.3302 78.459 15.23 0.671946 -0.718932 -0.176304
-56.9385 79.0959 13.9678 0.648512 -0.745789 -0.150166
-56.4472 79.7405 12.6803 0.65136 -0.747766 -0.128746
-55.8977 80.3311 11.4362 0.605503 -0.793163 -0.0652287
-55.3476 80.8446 10.2888 0.602922 -0.795192 -0.0644551
-54.9826 81.1459 9.48914 0.587318 -0.809056 -0.0133618
-54.4399 81.5474 8.65365 0.573747 -0.818432 -0.0313662
-53.8632 81.9073 7.90307 0.520913 -0.853502 0.0135958
-53.2594 82.3119 7.25184 0.50833 -0.859965 -0.0386688
-52.6052 82.6983 6.7048 0.49115 -0.8699 -0.0433253
-51.9584 83.086 6.20313 0.466813 -0.883254 -0.0441248
-51.2549 83.486 5.63858 0.467907 -0.881129 -0.065052
-50.6056 83.8808 5.0118 0.445091 -0.89071 -0.0923582
-49.9982 84.2378 4.38514 0.427029 -0.897188 -0.109538
-49.2162 84.738 3.60376 0.43651 -0.888038 -0.144387
-48.5657 85.1381 3.02804 0.402297 -0.894041 -0.195969
-47.6376 85.7732 2.26049 0.39194 -0.880091 -0.264869
-46.934 86.2416 1.65978 0.3792 -0.875326 -0.300021
-46.3943 86.6907 1.06354 0.361203 -0.847648 -0.38862
-45.7656 87.2936 0.333047 0.361702 -0.841751 -0.400562
-45.0637 88.1517 -0.814645 0.321248 -0.856335 -0.402867
-44.5898 88.7902 -1.96777 0.223531 -0.887022 -0.404012
-44.2552 89.1484 -2.7591 0.179188 -0.928693 -0.324686
-43.9916 89.4262 -3.41373 0.179206 -0.944195 -0.27388
-44.9935 89.3491 -3.80353 0.179207 -0.944195 -0.273879
-44.7641 89.7031 -4.94664 0.102044 -0.957134 -0.268337
-44.5513 89.9703 -5.99221 0.0643688 -0.976861 -0.20215
-44.4614 90.1828 -6.97517 -0.00545702 -0.980543 -0.1933
-44.41 90.2948 -7.87721 0.0167673 -0.997174 -0.0732383
-44.3634 90.3012 -9.24486 -0.0371813 -0.995192 0.0888214
-44.3585 90.1475 -10.3903 -0.0419728 -0.985577 0.163943
-44.4183 89.9512 -11.3744 -0.0480445 -0.971828 0.230743
-44.3031 89.6717 -12.3854 -0.120182 -0.95197 0.281619
-43.6216 89.186 -13.2745 -0.0816706 -0.868965 0.488088
-42.8045 88.808 -13.8005 -0.074218 -0.8519 0.518207
-41.8868 88.7369 -13.8337 -0.0442209 -0.850598 0.523953
-41.2673 89.0491 -13.172 -0.0277645 -0.89923 0.436594
-40.9798 89.4377 -12.2647 -0.0350393 -0.932098 0.360506
-40.7711 89.8454 -11.218 0.0359295 -0.957924 0.280509
-40.6955 90.063 -10.3476 0.0564403 -0.969734 0.237551
-40.7631 90.2707 -9.32419 0.0568604 -0.992347 0.109003
-40.8412 90.3729 -8.29045 0.0667684 -0.992416 0.103208
-40.9749 90.4188 -7.07722 0.161886 -0.98579 -0.0356938
-41.1412 90.3127 -5.92438 0.161954 -0.982932 -0.0867478
-41.3549 90.0879 -4.4475 0.203484 -0.96826 -0.144384
-41.4198 89.9312 -3.48447 0.225299 -0.952831 -0.203356
-41.332 89.6926 -2.30492 0.246518 -0.940342 -0.234019
-41.1117 89.407 -0.914314 0.31106 -0.924083 -0.222022
-40.7038 89.1644 0.454535 0.345458 -0.896349 -0.27788
-40.3074 89.0831 1.26248 0.361664 -0.886967 -0.285915
-39.7618 89.0507 2.01016 0.375921 -0.876103 -0.301871
-39.091 89.083 2.75192 0.379951 -0.866574 -0.322715
-38.219 89.1801 3.45664 0.369287 -0.865587 -0.33821
-37.2724 89.357 3.99233 0.362744 -0.86055 -0.357591
-36.0358 89.698 4.404 0.341874 -0.86129 -0.375901
-34.7203 90.1357 4.56023 0.317559 -0.86755 -0.382768
-33.7814 90.4818 4.54885 0.312168 -0.86941 -0.382984
-32.77 90.8982 4.41482 0.301501 -0.879981 -0.367025
-31.6914 91.4129 4.08089 0.286816 -0.892704 -0.346214
-30.63 91.9085 3.61291 0.269294 -0.911092 -0.311535
-29.763 92.2756 3.1795 0.212665 -0.927748 -0.306037
-28.9875 92.5952 2.68601 0.196984 -0.940468 -0.276094
-28.0681 92.9876 1.94628 0.186076 -0.947459 -0.25983
-27.3775 93.2736 1.37166 0.156084 -0.957757 -0.239502
-26.6642 93.4977 0.82522 0.1389 -0.966642 -0.215196
-25.7653 93.7335 0.275118 0.0947412 -0.971699 -0.21511
-24.8656 93.8859 -0.226092 0.0627428 -0.983223 -0.171275
-23.65 94.0009 -0.927751 -0.0238923 -0.990384 -0.133233
-22.7873 94.0147 -1.39455 -0.0304509 -0.993663 -0.105115
-21.7744 93.9513 -1.83346 -0.135825 -0.988794 -0.0619447
-20.8387 93.8105 -1.97955 -0.221399 -0.973927 -0.0494753
-19.7767 93.5513 -1.87422 -0.322285 -0.943218 0.0737393
-18.8169 93.2685 -1.55834 -0.315862 -0.938639 0.138523
-17.8407 93.1217 -0.535414 -0.292244 -0.940731 0.172099
-17.9897 93.3502 0.428546 -0.263108 -0.950087 0.162534
-18.7071 93.5883 1.24537 -0.105165 -0.988537 0.0952791
-19.8087 93.7006 1.99365 -0.0378834 -0.998465 0.0191761
-20.7478 93.7081 2.5271 -0.0167474 -0.999758 -0.00469697
-21.6646 93.6335 3.04323 0.0807992 -0.99421 -0.0627307
-22.8153 93.4534 3.57948 0.134203 -0.983969 -0.11347
-23.6975 93.2608 4.06996 0.141073 -0.979142 -0.145928
-24.725 92.9932 4.71359 0.201246 -0.963672 -0.171786
-25.9079 92.577 5.40635 0.238231 -0.937639 -0.247119
-26.8326 92.1214 6.00688 0.266253 -0.913908 -0.306052
-27.6201 91.659 6.58667 0.306954 -0.891241 -0.333869
-28.2469 91.2088 7.13145 0.308234 -0.870281 -0.384191
-28.9118 90.681 7.75185 0.2973 -0.848323 -0.438134
-29.5947 90.0624 8.48597 0.297385 -0.84826 -0.438198
-30.2479 89.3666 9.37656 0.256651 -0.841771 -0.474923
-30.7897 88.68 10.3057 0.255016 -0.843697 -0.472379
-31.2325 87.9406 11.3631 0.204603 -0.847081 -0.490502
-31.5044 87.3965 12.1789 0.176881 -0.848089 -0.498689
-31.7483 86.8131 13.1438 0.161312 -0.861923 -0.480694
-31.9639 86.2545 14.2587 0.106157 -0.89631 -0.4302
-32.2728 85.7522 15.4481 0.0735429 -0.929379 -0.360326
-32.563 85.3673 16.5288 0.0125009 -0.944748 -0.327559
-32.7217 85.0512 17.5917 -0.0274443 -0.964487 -0.262701
-32.7959 84.7224 18.5743 -0.0973116 -0.922968 -0.372372
-32.8926 84.3373 19.5362 -0.111144 -0.919255 -0.377518
-32.9447 83.9975 20.4019 -0.132548 -0.908202 -0.395459
-32.9715 83.4916 21.4711 -0.145611 -0.890787 -0.43046
-33.1552 82.9709 22.5554 -0.171241 -0.878232 -0.446526
-33.5407 82.5461 23.4335 -0.208172 -0.847842 -0.487676
-33.941 82.1669 24.2089 -0.1964 -0.823815 -0.531747
-34.3737 81.7897 24.9382 -0.183479 -0.805279 -0.563522
-34.9301 81.3516 25.7161 -0.168263 -0.798262 -0.578287
-35.6226 80.9322 26.4802 -0.163784 -0.793215 -0.586502
-36.4159 80.4387 27.3523 -0.151404 -0.777319 -0.610361
-37.2872 79.8601 28.2669 -0.146772 -0.762396 -0.630246
-38.1366 79.2598 29.1842 -0.133325 -0.76564 -0.629301
-38.7732 78.8262 29.8453 -0.131656 -0.764126 -0.631489
-39.4854 78.2942 30.6267 -0.106147 -0.769059 -0.630297
-40.1402 77.7305 31.4286 -0.0919976 -0.760892 -0.641947
-40.6181 77.2537 32.0322 -0.0750017 -0.773472 -0.628484
-41.2224 76.6516 32.8925 -0.0683554 -0.791975 -0.606715
-41.7803 76.0051 33.8187 -0.0441593 -0.80869 -0.586576
-42.2344 75.3566 34.7813 -0.0228138 -0.83417 -0.550779
-42.6373 74.6383 35.8961 -0.00450888 -0.850796 -0.52542
-43.0206 74.0713 36.8692 0.0169951 -0.872148 -0.488484
-43.4163 73.6008 37.6732 0.0316542 -0.877948 -0.477709
-43.8903 73.1291 38.5163 0.0390299 -0.892904 -0.448358
-44.578 72.659 39.3977 0.0620129 -0.900514 -0.430352
-45.4016 72.2319 40.1964 0.0650713 -0.911021 -0.407188
-46.4016 71.9188 40.6904 0.0946669 -0.911832 -0.3995
-47.713 71.6806 40.9059 0.122573 -0.915883 -0.382276
-48.7754 71.565 40.8605 0.124889 -0.921906 -0.366483
-50.0623 71.4515 40.6305 0.14949 -0.92517 -0.348873
-50.9292 71.3968 40.3337 0.18343 -0.916793 -0.354638
-51.9874 71.3478 39.8352 0.230317 -0.910763 -0.342732
-52.8066 71.3306 39.346 0.235606 -0.918146 -0.317192
-53.659 71.3015 38.6903 0.267349 -0.914094 -0.304888
-54.7683 71.2753 37.7038 0.304438 -0.906478 -0.292602
-55.5063 71.2402 37.0173 0.350129 -0.89341 -0.28147
-56.5991 71.1639 35.8925 0.361999 -0.889424 -0.27881
-57.1939 71.1295 35.1826 0.377922 -0.884718 -0.272855
-57.6414 71.2063 34.3137 0.385266 -0.882902 -0.268282
-57.8988 71.44 33.2711 0.426692 -0.853633 -0.29874
-57.9798 71.7459 32.2881 0.451048 -0.847751 -0.279061
-57.9691 72.1143 31.1917 0.451487 -0.846707 -0.281509
-57.9429 72.4984 30.1644 0.479391 -0.822489 -0.306099
-57.9465 73.0189 28.7654 0.504559 -0.807519 -0.305505
-57.9964 73.4031 27.6485 0.503347 -0.812196 -0.294923
-58.0769 73.6994 26.7257 0.533662 -0.78593 -0.312282
-58.2328 74.0003 25.637 0.539547 -0.792935 -0.283097
-58.4311 74.269 24.5843 0.560565 -0.768619 -0.308205
-58.6463 74.5464 23.459 0.563798 -0.776633 -0.28102
-58.8038 74.7526 22.587 0.581843 -0.761165 -0.286439
-58.9254 75.1025 21.379 0.58328 -0.762708 -0.279395
-59.0009 75.5093 20.0092 0.60528 -0.753616 -0.256011
-58.9672 75.948 18.749 0.61208 -0.751045 -0.247566
-58.8586 76.3193 17.8744 0.612932 -0.753328 -0.23832
-58.6228 76.8153 16.8967 0.614289 -0.756071 -0.225584
-58.3833 77.2434 16.1419 0.658564 -0.721466 -0.213963
-58.1356 77.7061 15.3044 0.651268 -0.733476 -0.194523
-57.8144 78.2857 14.1106 0.646242 -0.743177 -0.173375
-57.4467 78.8183 13.0443 0.639739 -0.757412 -0.130514
-57.103 79.2536 12.176 0.634169 -0.764166 -0.117807
-56.7569 79.673 11.3099 0.626696 -0.773425 -0.090762
-56.2322 80.1726 10.2928 0.612728 -0.787514 -0.0655402
-55.8772 80.4894 9.46396 0.579271 -0.813035 -0.0584798
-55.4833 80.8184 8.68822 0.569194 -0.821547 -0.0328363
-54.8278 81.3119 7.70418 0.571472 -0.819989 -0.0320968
-54.3166 81.6691 6.99404 0.526709 -0.848699 -0.0478211
-53.7052 82.0824 6.39199 0.527964 -0.847716 -0.051165
-53.0379 82.5064 5.85083 0.498222 -0.865644 -0.0493517
-52.0296 83.1266 5.08603 0.469013 -0.878996 -0.0859816
-51.1956 83.6408 4.3215 0.461366 -0.881165 -0.101494
-50.6233 84.0252 3.7023 0.455309 -0.882495 -0.117885
-50.0176 84.4374 3.05984 0.449493 -0.878729 -0.159479
-49.1439 85.052 2.22335 0.466295 -0.861685 -0.20017
-48.2972 85.6582 1.54832 0.429443 -0.865459 -0.257992
-47.6469 86.1544 1.03683 0.446214 -0.82436 -0.347384
-46.8546 86.8923 0.196113 0.361197 -0.847646 -0.388629
-46.3025 87.53 -0.617376 0.359457 -0.837695 -0.411151
-45.8861 88.1375 -1.38508 0.331042 -0.815995 -0.473881
-45.5066 88.7549 -2.42873 0.274332 -0.867505 -0.41472
-45.1298 89.1985 -3.4309 0.191133 -0.93236 -0.306876
-46.0913 89.1024 -3.73831 0.154394 -0.913275 -0.376951
-46.5243 88.5143 -2.57702 0.266437 -0.864867 -0.425461
-46.8713 87.816 -1.53817 0.34838 -0.809928 -0.471856
-47.254 87.2592 -0.836412 0.386521 -0.807827 -0.440959
-47.7599 86.5956 -0.179686 0.431444 -0.80812 -0.396318
-48.3856 85.9997 0.411234 0.467519 -0.811089 -0.351513
-49.075 85.4385 0.93124 0.489913 -0.834694 -0.251537
-49.6724 84.9616 1.41839 0.463184 -0.859755 -0.21513
-50.6411 84.2265 2.3842 0.48077 -0.8655 -0.140609
-51.1868 83.8275 2.99904 0.478242 -0.870864 -0.111562
-51.8785 83.3423 3.74706 0.494983 -0.862887 -0.102064
-52.7728 82.7645 4.51335 0.496019 -0.865026 -0.0744041
-53.5486 82.2575 5.06049 0.50239 -0.862183 -0.0633868
-54.2043 81.8216 5.59913 0.529221 -0.846731 -0.0545086
-55.03 81.2485 6.40742 0.550913 -0.833327 -0.0453923
-55.6832 80.7532 7.35032 0.561489 -0.825523 -0.0569299
-56.3792 80.1922 8.59664 0.581477 -0.811613 -0.0562771
-56.8664 79.7579 9.57344 0.602254 -0.794719 -0.0755755
-57.2362 79.3825 10.4212 0.604161 -0.791323 -0.0937923
-57.639 78.9333 11.3632 0.628557 -0.767452 -0.125755
-57.9856 78.5125 12.2189 0.635954 -0.761285 -0.12624
-58.3616 78.0162 13.1881 0.645167 -0.751567 -0.137501
-58.6642 77.498 14.3482 0.637423 -0.748419 -0.182656
-58.9808 76.9509 15.4123 0.633971 -0.748501 -0.19449
-59.3158 76.4007 16.3655 0.617533 -0.756527 -0.215223
-59.5353 76.0029 17.1465 0.588411 -0.774606 -0.23119
-59.6925 75.6163 17.9827 0.583217 -0.773556 -0.247931
-59.7734 75.2871 18.841 0.573766 -0.781487 -0.245001
-59.7747 74.9798 19.7936 0.57026 -0.782462 -0.250106
-59.7469 74.649 20.8801 0.566113 -0.783234 -0.257022
-59.683 74.3717 21.8503 0.559135 -0.784481 -0.26825
-59.5 74.0597 23.0981 0.559122 -0.778728 -0.284546
-59.3288 73.8485 23.9964 0.542706 -0.78681 -0.292362
-59.1627 73.6443 24.9038 0.524045 -0.805349 -0.27711
-58.9218 73.3352 26.197 0.51345 -0.809737 -0.283825
-58.8223 73.0856 27.0879 0.503515 -0.815235 -0.286118
-58.7867 72.7878 27.9995 0.486663 -0.823104 -0.292644
-58.7762 72.3207 29.3261 0.482683 -0.822981 -0.299481
-58.7858 71.9521 30.3741 0.449676 -0.847698 -0.281426
-58.8274 71.6171 31.3115 0.442853 -0.851651 -0.280169
-58.8799 71.2659 32.3302 0.41945 -0.864408 -0.277238
-58.7713 70.9444 33.5405 0.400851 -0.8751 -0.270938
-58.5172 70.7422 34.5604 0.392612 -0.881087 -0.263709
-58.0852 70.6534 35.4917 0.377903 -0.884868 -0.272394
-57.3355 70.7036 36.3703 0.3756 -0.885118 -0.274731
-56.5948 70.7628 37.1775 0.362 -0.889424 -0.278808
-55.8444 70.8354 37.8778 0.349564 -0.893194 -0.282858
-54.8392 70.8869 38.8169 0.300955 -0.904738 -0.301455
-54.169 70.9045 39.4332 0.284151 -0.909419 -0.303163
-53.313 70.926 40.1005 0.264395 -0.912599 -0.311864
-52.4038 70.9676 40.6439 0.208745 -0.925655 -0.315486
-51.3587 71.0281 41.1317 0.166423 -0.933251 -0.31835
-50.271 71.0811 41.5306 0.141515 -0.930265 -0.338242
-49.1661 71.162 41.7273 0.133405 -0.926302 -0.352029
-48.1159 71.2571 41.8322 0.109824 -0.921822 -0.371729
-46.9335 71.4055 41.7787 0.0864908 -0.920359 -0.381365
-45.8915 71.6176 41.5137 0.0802539 -0.918834 -0.386287
-45.0472 71.8525 41.1095 0.0698094 -0.919542 -0.386741
-44.1622 72.2414 40.3699 0.0523727 -0.909969 -0.411355
-43.4977 72.6383 39.5663 0.0472392 -0.913109 -0.40497
-42.7582 73.2353 38.4242 0.0459733 -0.887624 -0.458268
-42.3292 73.6836 37.5724 0.00586086 -0.884775 -0.465647
-41.902 74.219 36.5953 0.00559356 -0.874071 -0.485701
-41.6069 74.714 35.7659 -0.00692887 -0.854096 -0.52007
-41.2409 75.3179 34.7686 -0.0363983 -0.830678 -0.555507
-40.8601 75.8262 33.9959 -0.0551125 -0.822581 -0.565939
-40.3002 76.4329 33.0741 -0.0645655 -0.804089 -0.590637
-39.4952 77.2103 31.9516 -0.0750078 -0.773472 -0.628483
-38.7568 77.8677 31.0279 -0.103179 -0.770296 -0.629284
-37.9427 78.4584 30.1263 -0.116862 -0.782025 -0.612189
-37.3458 78.8336 29.5361 -0.132177 -0.765865 -0.62927
-36.626 79.3451 28.7517 -0.140691 -0.772616 -0.619088
-35.9206 79.8427 27.9705 -0.140669 -0.772229 -0.619576
-35.1087 80.3184 27.1639 -0.166255 -0.777084 -0.607041
-34.3055 80.7637 26.3364 -0.167672 -0.794254 -0.583992
-33.7926 81.1362 25.6824 -0.168262 -0.798262 -0.578287
-33.1075 81.778 24.5031 -0.196016 -0.811651 -0.550256
-32.6007 82.2774 23.4964 -0.197339 -0.835991 -0.51203
-32.2359 82.6472 22.7463 -0.197066 -0.838216 -0.508487
-31.9971 83.2159 21.6273 -0.202314 -0.864117 -0.460838
-32.0229 83.7329 20.6253 -0.175121 -0.888327 -0.424509
-31.9032 84.36 19.2001 -0.154818 -0.908928 -0.387144
-31.8103 84.8618 17.8926 -0.0816861 -0.941423 -0.327186
-31.6254 85.316 16.6968 -0.0250839 -0.930355 -0.362625
-31.34 85.6554 15.7695 0.0319604 -0.924362 -0.380175
-31.0402 86.2375 14.5011 0.100294 -0.889997 -0.444799
-30.8419 86.8331 13.4116 0.161185 -0.861787 -0.480981
-30.5394 87.5512 12.2882 0.192318 -0.834113 -0.516981
-30.2801 88.0611 11.5707 0.216823 -0.83015 -0.513448
-29.9033 88.7179 10.6516 0.249131 -0.825243 -0.506235
-29.5393 89.242 10.0125 0.273318 -0.827103 -0.490392
-28.9384 89.8989 9.21142 0.288077 -0.831967 -0.474175
-28.118 90.6709 8.33974 0.328058 -0.83829 -0.435486
-27.228 91.4052 7.51785 0.317295 -0.865801 -0.386928
-26.3848 91.9708 6.84996 0.302118 -0.905062 -0.29931
-25.549 92.4109 6.28888 0.274471 -0.921851 -0.273599
-24.7939 92.7243 5.83356 0.202469 -0.952965 -0.225529
-23.6989 93.0718 5.17441 0.145044 -0.966449 -0.211985
-22.5655 93.3592 4.5242 0.15165 -0.978794 -0.137716
-21.3773 93.5811 3.95337 0.100558 -0.990957 -0.0888369
-20.2327 93.6846 3.33022 0.0073269 -0.999385 -0.0342818
-19.3832 93.701 2.85542 -0.0378859 -0.998465 0.0191875
-18.5932 93.6365 2.37204 -0.0261002 -0.997339 0.068067
-17.8746 93.5204 1.78904 -0.210151 -0.963364 0.166091
-17.2367 93.2508 1.10261 -0.228064 -0.960993 0.153804
-16.7458 92.8466 -0.179937 -0.377264 -0.889255 0.239943
-17.0354 92.71 -1.06254 -0.332116 -0.909459 0.250166
-17.6674 92.7742 -1.87311 -0.393481 -0.909048 0.137127
-18.5495 93.0388 -2.50464 -0.334282 -0.935808 0.105166
-19.39 93.3363 -2.76806 -0.352708 -0.932973 0.0718147
-20.3663 93.6485 -2.92413 -0.291869 -0.953462 0.0756497
-21.5472 93.988 -2.91632 -0.166389 -0.984514 -0.0217728
-22.907 94.1454 -2.39238 -0.142242 -0.987827 -0.0629659
-23.9158 94.1287 -1.86035 -0.0490254 -0.989777 -0.133393
-24.7353 94.0644 -1.3866 0.007489 -0.990041 -0.140581
-25.5666 93.9473 -0.91883 0.0856726 -0.982373 -0.165476
-26.7304 93.7123 -0.241803 0.128972 -0.975079 -0.18052
-27.6772 93.4435 0.394736 0.163323 -0.965314 -0.203702
-28.4619 93.1635 0.978696 0.201727 -0.948327 -0.244911
-29.2161 92.8394 1.60157 0.198476 -0.9463 -0.255194
-30.327 92.3964 2.3703 0.232392 -0.933021 -0.272254
-31.2907 91.9699 2.85648 0.258212 -0.919356 -0.296821
-32.4602 91.4466 3.357 0.28681 -0.892705 -0.346219
-33.2841 91.074 3.57933 0.296978 -0.881102 -0.368054
-34.5234 90.5997 3.6609 0.324149 -0.871157 -0.368798
-35.5722 90.2311 3.59611 0.334777 -0.868076 -0.366564
-36.8484 89.8448 3.27627 0.370165 -0.85298 -0.367959
-37.8236 89.6336 2.74364 0.400173 -0.847085 -0.349727
-38.7928 89.5334 1.86882 0.391514 -0.871605 -0.294577
-39.4358 89.5143 1.0205 0.396266 -0.87811 -0.268133
-39.8662 89.5692 0.20452 0.387545 -0.888629 -0.24364
-40.2248 89.7608 -1.14417 0.311053 -0.924086 -0.222018
-40.3821 89.9478 -2.26005 0.266562 -0.946088 -0.184017
-40.4519 90.1285 -3.27471 0.240457 -0.95752 -0.152839
-40.3832 90.2944 -4.4066 0.207354 -0.969125 -0.13342
-40.2484 90.4099 -5.37903 0.163614 -0.983276 -0.079993
-40.0771 90.5105 -6.60365 0.122837 -0.991568 -0.0400255
-39.9735 90.5039 -7.53519 0.0688753 -0.993146 0.0944302
-39.8407 90.3943 -8.63337 0.0697623 -0.988544 0.130854
-39.7272 90.2267 -9.81547 0.0333573 -0.977081 0.21024
-39.7104 90.0194 -10.7593 0.0359293 -0.957924 0.280509
-39.914 89.6336 -11.8781 0.031863 -0.933172 0.355927
-40.1633 89.1766 -12.8855 0.0285833 -0.896468 0.441656
-40.4668 88.7593 -13.7039 -0.0312646 -0.874875 0.481167
-41.1739 88.3142 -14.4744 -0.0325526 -0.854388 0.518614
-42.0814 88.105 -14.8426 -0.0519823 -0.805979 0.589144
-43.2246 88.3445 -14.6227 -0.0742168 -0.851906 0.518197
-44.2535 88.8693 -13.9442 -0.0846855 -0.858435 0.505465
-44.8506 89.2324 -13.3801 -0.0702398 -0.872363 0.483786
-45.2571 89.6401 -12.6483 -0.0580214 -0.900705 0.430539
-45.3892 89.9287 -11.7856 -0.0539886 -0.980627 0.188297
-45.3078 90.1403 -10.6334 -0.0621741 -0.981766 0.179638
-45.3037 90.2769 -9.5065 0.0495602 -0.995621 0.0792619
-45.3533 90.3362 -8.58521 0.0519959 -0.997433 0.0492258
-45.363 90.2793 -7.67526 0.0713073 -0.987424 -0.141099
-45.4187 90.0964 -6.79434 0.0885577 -0.966266 -0.241843
-45.5831 89.8319 -5.78597 0.086734 -0.967716 -0.23665
-45.7876 89.5129 -4.74362 0.117848 -0.945684 -0.302974
-45.9276 89.3236 -4.20704 0.136118 -0.929478 -0.339967
-46.866 89.2981 -4.52978 0.174167 -0.908823 -0.378541
-46.6091 89.6547 -5.53645 0.126038 -0.948536 -0.290505
-46.3665 90.0436 -6.93876 0.09244 -0.965998 -0.241458
-46.2946 90.2288 -8.2212 0.145968 -0.989199 -0.0133999
-46.2801 90.2786 -9.4579 -0.022629 -0.999596 0.0169592
-46.2768 90.1857 -10.7205 -0.0590898 -0.980829 0.185572
-46.4141 89.9692 -11.8682 -0.0549898 -0.980261 0.189897
-46.222 89.6751 -12.7992 -0.094315 -0.884246 0.457399
-45.9215 89.2502 -13.5363 -0.0912777 -0.87618 0.473262
-45.4128 88.8099 -14.2029 -0.0830957 -0.818282 0.568779
-44.2746 88.172 -14.9988 -0.0560903 -0.808981 0.58413
-43.341 87.6901 -15.528 -0.057911 -0.789907 0.610487
-42.0612 87.4909 -15.6869 -0.0173203 -0.77665 0.629694
-41.0051 87.6888 -15.3678 -0.0205156 -0.819021 0.573205
-40.2487 88.0065 -14.8989 -0.00307754 -0.820493 0.571623
-39.6372 88.5112 -14.1367 0.0168409 -0.864513 0.502294
-39.3105 89.0046 -13.2873 0.0253029 -0.877165 0.478857
-39.041 89.4341 -12.4138 0.0467152 -0.902296 0.428579
-38.7961 89.8912 -11.2578 0.0404997 -0.94872 0.313158
-38.7434 90.2478 -9.95113 0.0676454 -0.974273 0.214509
-38.8215 90.4277 -9.04481 0.089794 -0.984889 0.148092
-38.9704 90.5654 -8.03428 0.0986248 -0.987962 0.114483
-39.0728 90.6329 -6.85986 0.0811999 -0.995027 0.0576916
-39.2262 90.5896 -5.68625 0.144388 -0.988802 -0.00238131
-39.3523 90.5211 -4.77861 0.219834 -0.973106 -0.0688323
-39.4598 90.4074 -3.7565 0.243559 -0.962618 -0.114779
-39.5076 90.2622 -2.62561 0.289094 -0.95299 -0.0852259
-39.3475 90.1298 -1.42682 0.343467 -0.926488 -0.153784
-39.0832 89.9848 -0.147027 0.379387 -0.899243 -0.217776
-38.5702 89.9615 0.83512 0.387539 -0.888629 -0.243652
-37.8848 90.0269 1.64562 0.419567 -0.862066 -0.284265
-37.1221 90.1662 2.25626 0.400244 -0.855569 -0.327473
-36.2315 90.3851 2.66504 0.378589 -0.844998 -0.377689
-35.0722 90.7855 2.73968 0.329459 -0.869618 -0.367682
-33.9638 91.1714 2.75037 0.305617 -0.885676 -0.349537
-32.7144 91.6973 2.42138 0.27284 -0.909128 -0.314712
-31.9406 92.0332 2.09682 0.254468 -0.920962 -0.295084
-30.9757 92.4543 1.61806 0.232392 -0.93302 -0.272255
-29.9041 92.9029 0.87272 0.204235 -0.937872 -0.280507
-29.0964 93.2286 0.238354 0.17662 -0.950079 -0.257199
-28.3639 93.4822 -0.275831 0.156997 -0.959608 -0.233462
-27.5564 93.7231 -0.819732 0.111974 -0.975156 -0.191134
-26.7797 93.9204 -1.33717 0.0906507 -0.974195 -0.205457
-25.5773 94.1461 -2.00669 0.0478602 -0.98488 -0.160241
-24.6367 94.2297 -2.5304 0.00838693 -0.989462 -0.144552
-23.499 94.2742 -3.17409 -0.0848964 -0.992775 -0.0664983
-22.6664 94.1804 -3.56051 -0.127073 -0.98824 -0.0794611
-21.7277 94.0448 -3.89902 -0.282423 -0.944268 -0.169104
-20.8197 93.8225 -3.93933 -0.26605 -0.96109 -0.000644012
-19.7172 93.3983 -3.76425 -0.403193 -0.913922 0.037588
-18.6391 92.9545 -3.60801 -0.404787 -0.90537 0.120802
-17.5748 92.5134 -3.01305 -0.442042 -0.887095 0.1329
-16.87 92.3132 -2.31922 -0.451726 -0.872416 0.186637
-16.3013 92.2153 -1.55107 -0.426348 -0.875713 0.226615
-15.8945 92.2695 -0.652837 -0.446132 -0.860485 0.246033
-15.861 92.6342 0.552911 -0.445584 -0.846021 0.292751
-16.2704 93.0332 1.48461 -0.310177 -0.926759 0.211915
-16.8357 93.3519 2.12612 -0.210143 -0.963366 0.166093
-17.6512 93.647 2.8861 -0.116317 -0.981832 0.11078
-18.7249 93.7497 3.58457 -0.0293445 -0.992166 0.121433
-19.9056 93.7211 4.24908 0.0817141 -0.993921 -0.0205733
-21.1392 93.5285 4.89388 0.118734 -0.987777 -0.0982972
-22.2072 93.3089 5.45114 0.168349 -0.978047 -0.122424
-23.0045 93.1013 5.86015 0.233219 -0.96122 -0.147192
-23.9844 92.7597 6.47091 0.260877 -0.945687 -0.192512
-25.2684 92.2124 7.23012 0.250685 -0.937695 -0.235634
-26.0526 91.72 7.77889 0.302756 -0.878394 -0.369816
-26.7377 91.2057 8.36251 0.334187 -0.836372 -0.434513
-27.4839 90.5444 9.06687 0.332023 -0.827919 -0.451514
-28.031 90.0025 9.62092 0.32206 -0.824068 -0.465822
-28.7583 89.1769 10.5492 0.297134 -0.809491 -0.506276
-29.2944 88.2994 11.6039 0.285444 -0.791086 -0.541022
-29.564 87.7453 12.3595 0.193383 -0.825829 -0.529384
-29.8371 87.0874 13.2581 0.162338 -0.840731 -0.514838
-30.0364 86.5102 14.183 0.126387 -0.846692 -0.516854
-30.1668 85.9988 15.1145 0.0725834 -0.881846 -0.465918
-30.4249 85.553 16.0519 -0.0159564 -0.903917 -0.42741
-30.689 85.1517 16.9511 -0.02151 -0.913469 -0.406339
-30.8536 84.7888 17.8639 -0.109235 -0.921299 -0.369247
-30.9382 84.2488 19.0752 -0.145804 -0.90505 -0.399227
-31.0704 83.8083 20.0781 -0.172353 -0.887273 -0.427834
-31.044 83.2303 21.201 -0.188742 -0.862453 -0.469586
-31.0092 82.7809 22.0014 -0.19211 -0.852393 -0.486332
-31.258 82.3805 22.8034 -0.199404 -0.844178 -0.497339
-31.6873 81.9711 23.6435 -0.198204 -0.836341 -0.511125
-32.1246 81.4924 24.5688 -0.199409 -0.81254 -0.547736
-32.6974 80.9982 25.5038 -0.192948 -0.807666 -0.557152
-33.1501 80.5761 26.2644 -0.179051 -0.799932 -0.572456
-34.0272 80.0312 27.2539 -0.153835 -0.78971 -0.593683
-34.7685 79.6225 27.9615 -0.154394 -0.781067 -0.604926
-35.5164 79.1564 28.7346 -0.13923 -0.774876 -0.616578
-36.1032 78.7168 29.4225 -0.13847 -0.777913 -0.612923
-36.9795 78.174 30.302 -0.119195 -0.781799 -0.612032
-37.67 77.7317 31.0014 -0.11161 -0.789619 -0.603198
-38.2434 77.2786 31.684 -0.0878426 -0.787797 -0.609639
-38.9293 76.6518 32.6291 -0.100064 -0.806352 -0.58291
-39.3982 76.1971 33.3108 -0.0679829 -0.821878 -0.565592
-39.9552 75.6338 34.1874 -0.0551028 -0.822587 -0.565931
-40.3147 75.1658 34.9421 -0.0350759 -0.849819 -0.525905
-40.6548 74.6282 35.8627 -0.0341133 -0.8697 -0.491687
-40.9445 74.1657 36.707 -0.00483996 -0.870765 -0.491676
-41.3961 73.5786 37.8038 0.0114467 -0.89256 -0.450784
-41.8964 73.0624 38.7976 0.0310052 -0.897443 -0.439287
-42.3322 72.712 39.5188 0.0324619 -0.913493 -0.405557
-42.8251 72.3747 40.2391 0.0398482 -0.913301 -0.405264
-43.4295 72.0059 41.0023 0.0573845 -0.918337 -0.391617
-44.1214 71.6917 41.6379 0.0570621 -0.918445 -0.391411
-45.2467 71.346 42.273 0.0696489 -0.91777 -0.390958
-46.0897 71.1651 42.5508 0.0664763 -0.9254 -0.373102
-47.1828 71.0017 42.7243 0.0828382 -0.929091 -0.360454
-48.1011 70.9059 42.7467 0.0953442 -0.929415 -0.35642
-49.0185 70.8286 42.6739 0.120031 -0.928697 -0.350876
-49.9437 70.7625 42.5323 0.124266 -0.930436 -0.344656
-51.0383 70.7035 42.2169 0.15452 -0.928358 -0.338045
-52.1083 70.6523 41.7938 0.198579 -0.93313 -0.29929
-52.9264 70.6139 41.3923 0.186472 -0.93864 -0.290143
-54.2002 70.5498 40.5595 0.257006 -0.924912 -0.279261
-54.9875 70.5128 39.8906 0.279108 -0.919837 -0.275674
-56.0638 70.465 38.8583 0.322045 -0.907027 -0.271274
-56.7585 70.3967 38.2323 0.339812 -0.904802 -0.25623
-57.4165 70.3187 37.5898 0.353481 -0.90109 -0.251171
-58.221 70.2367 36.7225 0.363063 -0.898682 -0.246082
-59.0216 70.204 35.6643 0.381803 -0.889817 -0.249906
-59.3928 70.2972 34.7812 0.389217 -0.885995 -0.252037
-59.6485 70.4597 33.8088 0.389695 -0.886955 -0.247889
-59.7512 70.6719 32.9247 0.409704 -0.873162 -0.264062
-59.8228 70.9358 31.9322 0.421043 -0.869965 -0.256679
-59.7152 71.2735 30.9768 0.432782 -0.860749 -0.267744
-59.6154 71.6375 29.983 0.450925 -0.850465 -0.270625
-59.6183 71.979 28.9254 0.459126 -0.847311 -0.26696
-59.6205 72.3296 27.8884 0.491835 -0.82369 -0.282035
-59.6393 72.6148 26.9916 0.498466 -0.820545 -0.279536
-59.7463 72.8525 26.1098 0.507173 -0.81632 -0.276401
-59.9229 73.0881 25.0782 0.518818 -0.812472 -0.265337
-60.1199 73.3238 24.0079 0.530216 -0.802272 -0.274281
-60.3002 73.5189 23.0723 0.531647 -0.803096 -0.269051
-60.4443 73.7563 22.073 0.533835 -0.804109 -0.261578
-60.5267 73.9915 21.1872 0.535269 -0.802736 -0.262875
-60.5558 74.3809 19.9131 0.545234 -0.798846 -0.254097
-60.5838 74.6664 18.9487 0.54697 -0.801178 -0.242711
-60.451 75.1529 17.6444 0.57977 -0.777567 -0.243325
-60.2154 75.652 16.5331 0.593606 -0.775659 -0.214439
-59.9905 76.051 15.7366 0.602285 -0.769524 -0.212148
-59.688 76.4918 14.9681 0.606067 -0.76847 -0.205275
-59.3697 77.0036 13.9382 0.61281 -0.769144 -0.181195
-59.0301 77.5704 12.6196 0.620822 -0.768248 -0.156029
-58.5248 78.2065 11.436 0.623168 -0.770533 -0.133941
-58.1571 78.6438 10.5489 0.620518 -0.777474 -0.102429
-57.8056 79.0379 9.66065 0.603208 -0.793021 -0.0846832
-57.2557 79.5747 8.47123 0.580758 -0.809332 -0.08703
-56.788 79.9758 7.60663 0.565934 -0.821337 -0.0715881
-56.3309 80.3605 6.75669 0.550959 -0.831979 -0.0652368
-55.7365 80.8282 5.85041 0.546151 -0.834697 -0.0703369
-54.9203 81.4221 4.99676 0.537425 -0.840707 -0.0662314
-53.9666 82.083 4.18403 0.527272 -0.846186 -0.0771578
-52.9729 82.7419 3.54744 0.505737 -0.857817 -0.090827
-52.2503 83.2475 2.81317 0.497969 -0.8591 -0.117865
-51.5063 83.812 1.93397 0.503253 -0.852123 -0.143605
-50.9092 84.2736 1.2732 0.495333 -0.848988 -0.184021
-50.3408 84.7306 0.721483 0.511338 -0.834881 -0.20318
-49.5687 85.3603 0.129441 0.523322 -0.803832 -0.274731
-48.7059 86.2071 -0.551724 0.500551 -0.766097 -0.394743
-47.9997 87.175 -1.40735 0.432877 -0.778796 -0.453976
-47.6496 87.8987 -2.25581 0.393161 -0.787408 -0.472146
-47.4519 88.4075 -3.00918 0.259496 -0.824613 -0.502669
-47.0195 89.0811 -4.09179 0.193935 -0.904369 -0.380139
-47.9047 89.0816 -4.54811 0.19569 -0.904904 -0.37796
-47.6346 89.456 -5.39761 0.151966 -0.944689 -0.290636
-47.3815 89.8507 -6.36207 0.0495 -0.941692 -0.322085
-47.2422 90.0913 -7.25398 0.021724 -0.975243 -0.213251
-47.2445 90.2421 -8.38371 0.0220817 -0.994367 -0.103665
-47.2051 90.3257 -9.51855 -0.173174 -0.984823 -0.0116149
-47.1927 90.3012 -10.4687 -0.0898027 -0.988293 0.121215
-47.4077 90.1632 -11.4557 -0.122319 -0.977341 0.17275
-47.403 89.9246 -12.3557 -0.107926 -0.945504 0.307204
-47.0924 89.4883 -13.3607 -0.131107 -0.883498 0.449714
-46.4482 88.7967 -14.424 -0.116909 -0.837718 0.533274
-45.6969 88.2459 -15.0967 -0.120477 -0.809036 0.573677
-44.9358 87.7681 -15.5957 -0.0706967 -0.795724 0.601519
-43.8289 87.1261 -16.2536 -0.0653938 -0.754023 0.653264
-42.8016 86.8565 -16.4945 -0.0468642 -0.75302 0.656315
-41.8496 86.828 -16.4873 -0.0250711 -0.768747 0.639061
-40.4645 87.2126 -16.0269 0.00589201 -0.789868 0.611937
-39.3678 87.7531 -15.2865 0.0346193 -0.816568 0.575993
-38.6355 88.5465 -14.2161 0.0802134 -0.837256 0.537926
-38.2293 89.1207 -13.1748 0.0529192 -0.905316 0.42143
-38.0083 89.5234 -12.3211 0.0886993 -0.926391 0.36543
-37.8014 89.8866 -11.4765 0.0735423 -0.937946 0.335833
-37.8259 90.2487 -10.2817 0.0765161 -0.963205 0.255274
-37.8487 90.5303 -8.97622 0.0785793 -0.981612 0.171666
-38.0408 90.6683 -7.76478 0.0857415 -0.994476 0.0604013
-38.1062 90.7237 -6.68788 0.101866 -0.992016 0.0712896
-38.2517 90.7581 -5.61777 0.168518 -0.985348 0.0262942
-38.338 90.724 -4.40773 0.223659 -0.972986 -0.0555228
-38.4362 90.6573 -3.39976 0.249783 -0.964346 -0.0767146
-38.4784 90.5825 -2.44364 0.309342 -0.945398 -0.0957424
-38.4224 90.4354 -1.09911 0.365325 -0.921574 -0.12647
-38.1442 90.4001 -0.0734709 0.414451 -0.893346 -0.160182
-37.5913 90.4636 0.704474 0.413126 -0.872005 -0.262554
-36.843 90.6273 1.43926 0.447088 -0.833843 -0.323757
-35.9694 90.8843 1.80817 0.320756 -0.852128 -0.413514
-34.7247 91.2733 1.856 0.28563 -0.882268 -0.373808
-33.7845 91.6082 1.7912 0.254315 -0.90512 -0.340608
-32.5637 92.1342 1.29775 0.246765 -0.914324 -0.321102
-31.4973 92.5736 0.796625 0.212248 -0.937206 -0.276746
-30.7555 92.8942 0.270528 0.209851 -0.938306 -0.274852
-29.9536 93.219 -0.31882 0.17626 -0.950489 -0.255937
-29.054 93.5342 -0.9193 0.145244 -0.956009 -0.254854
-28.023 93.8485 -1.63923 0.116563 -0.969423 -0.215803
-26.7349 94.1399 -2.43335 0.0722308 -0.978541 -0.192976
-25.8558 94.2912 -2.88436 0.0289137 -0.982453 -0.178969
-24.9275 94.3933 -3.4918 -0.0437634 -0.981496 -0.179308
-23.8009 94.3873 -4.10044 -0.114954 -0.982186 -0.146321
-22.6054 94.2905 -4.62403 -0.124573 -0.960632 -0.229412
-21.7165 94.171 -4.93543 -0.149779 -0.987524 -0.0486087
-20.2982 93.5827 -4.87185 -0.423534 -0.903333 0.00992985
-19.4241 93.2018 -4.7684 -0.441272 -0.893696 0.0811597
-18.5597 92.7766 -4.58672 -0.452444 -0.885432 0.104669
-17.5265 92.3046 -4.07948 -0.495325 -0.853919 0.157219
-16.5645 91.9255 -3.25352 -0.491775 -0.846 0.203869
-15.8475 91.743 -2.38868 -0.506167 -0.830162 0.233297
-15.1176 91.746 -0.942174 -0.490498 -0.832168 0.258668
-14.9068 92.0319 0.286735 -0.460678 -0.836603 0.296206
-15.2229 92.6909 1.56629 -0.408411 -0.84698 0.3379
-15.576 93.1393 2.38184 -0.301789 -0.898039 0.306156
-16.1904 93.4521 2.97667 -0.164666 -0.952321 0.251646
-17.1838 93.7736 3.72556 -0.0473505 -0.969651 0.219789
-18.2537 93.8332 4.47402 0.0644435 -0.994622 0.0803741
-19.1049 93.7521 4.90777 0.187816 -0.963163 -0.161392
-20.0097 93.6054 5.3971 0.102468 -0.991645 -0.071769
-21.0424 93.4429 5.92782 0.143892 -0.987169 -0.0692214
-22.0829 93.215 6.45828 0.207537 -0.97299 -0.101086
-22.8765 92.9479 6.9315 0.288114 -0.942929 -0.156577
-23.6513 92.6471 7.47534 0.260874 -0.94569 -0.192505
-24.8926 92.0381 8.10968 0.323282 -0.889804 -0.322082
-25.8185 91.3654 8.81686 0.366672 -0.838154 -0.403794
-26.7542 90.5161 9.66347 0.362023 -0.815689 -0.451183
-27.3004 89.9567 10.246 0.357858 -0.801739 -0.477638
-27.8595 89.2619 10.9747 0.330395 -0.804223 -0.494029
-28.2398 88.6824 11.5829 0.264853 -0.789001 -0.554374
-28.6284 87.8073 12.5192 0.173837 -0.771235 -0.606551
-28.8586 87.2498 13.2879 0.111521 -0.804555 -0.582343
-29.11 86.5562 14.2559 0.0455131 -0.84428 -0.533966
-29.1849 86.0038 15.1535 0.00626984 -0.872895 -0.487868
-29.5041 85.4455 16.2663 -0.0117926 -0.887099 -0.45971
-29.7329 85.0391 17.0845 -0.0909972 -0.890994 -0.444801
-29.9235 84.514 18.1889 -0.104171 -0.899916 -0.423073
-29.9721 84.1274 19.0526 -0.125171 -0.889112 -0.43902
-30.1216 83.4378 20.4614 -0.174089 -0.886886 -0.427932
-30.048 82.9912 21.2546 -0.165078 -0.870576 -0.463169
-30.0597 82.4808 22.1598 -0.182025 -0.855045 -0.485555
-30.4691 81.9384 23.21 -0.196296 -0.837424 -0.509993
-30.8934 81.5607 23.9878 -0.216542 -0.825686 -0.520915
-31.2518 81.0923 24.8592 -0.202154 -0.818071 -0.538202
-31.7393 80.6895 25.6333 -0.183597 -0.814825 -0.549783
-32.5276 80.0675 26.8131 -0.147376 -0.818067 -0.555002
-33.3221 79.5335 27.736 -0.126393 -0.805034 -0.57957
-34.3258 79.0107 28.6595 -0.139856 -0.788983 -0.598287
-35.0064 78.5015 29.4705 -0.10834 -0.786821 -0.607598
-35.6349 78.0887 30.1385 -0.1186 -0.798776 -0.589823
-36.608 77.5724 31.0292 -0.110787 -0.797176 -0.593456
-37.2867 77.0639 31.8169 -0.0932708 -0.787192 -0.609614
-37.8964 76.5589 32.5889 -0.0846872 -0.811004 -0.578861
-38.5861 75.8593 33.6846 -0.0878445 -0.814671 -0.57323
-39.179 75.2956 34.6304 -0.0860716 -0.853881 -0.512508
-39.507 74.8365 35.4037 -0.0505398 -0.869635 -0.4886
-39.8198 74.3952 36.2678 -0.00459093 -0.884219 -0.467049
-40.1229 73.8875 37.2229 0.0107175 -0.88103 -0.472939
-40.498 73.4318 38.0895 -0.00441403 -0.89129 -0.453413
-41.0076 72.9645 39.0549 0.00603359 -0.904506 -0.426417
-41.5611 72.4799 40.1106 0.0232371 -0.918796 -0.393738
-42.468 71.9382 41.3226 0.0492007 -0.92384 -0.379056
-43.0753 71.5995 42.0222 0.0678696 -0.919119 -0.388087
-43.7822 71.3206 42.5634 0.0559519 -0.919611 -0.388825
-44.527 71.0807 43.0221 0.0485112 -0.917382 -0.394861
-45.4779 70.8446 43.4521 0.0635042 -0.925913 -0.37236
-46.4765 70.705 43.6173 0.0694534 -0.924887 -0.373846
-47.5004 70.6156 43.6675 0.0709795 -0.937041 -0.341363
-48.6073 70.5308 43.6281 0.0941095 -0.939627 -0.328832
-50.056 70.4301 43.4348 0.111436 -0.939703 -0.323326
-51.6947 70.3583 42.9619 0.141851 -0.943045 -0.300907
-52.8321 70.2978 42.5012 0.185942 -0.943176 -0.275399
-53.643 70.2653 42.0355 0.205598 -0.947751 -0.243919
-54.685 70.2049 41.2925 0.252653 -0.935963 -0.245234
-55.4728 70.1612 40.6459 0.273034 -0.930345 -0.243863
-56.5042 70.0841 39.6665 0.297151 -0.925367 -0.235367
-57.3084 69.9938 38.9228 0.340497 -0.910047 -0.236316
-58.0259 69.8988 38.2679 0.340778 -0.908561 -0.241634
-58.8681 69.8238 37.3018 0.354356 -0.904005 -0.239181
-59.4788 69.7631 36.6026 0.361541 -0.901865 -0.23649
-60.1119 69.8138 35.4116 0.373504 -0.897281 -0.235241
-60.4531 69.9608 34.3403 0.391503 -0.890387 -0.231185
-60.6483 70.2554 32.9589 0.393339 -0.885701 -0.246612
-60.7903 70.5269 31.7312 0.421043 -0.869963 -0.256684
-60.5228 71.0215 30.4506 0.439574 -0.8623 -0.250918
-60.4328 71.3874 29.4138 0.451306 -0.854771 -0.256178
-60.4936 71.6186 28.5415 0.47361 -0.840801 -0.262198
-60.4418 71.9763 27.492 0.478459 -0.835439 -0.270279
-60.5424 72.3261 26.2288 0.492715 -0.827516 -0.268811
-60.7487 72.5593 25.1408 0.507417 -0.822673 -0.256393
-60.8632 72.8367 24.0214 0.51121 -0.821166 -0.253674
-61.1465 73.0087 22.932 0.528929 -0.804469 -0.270303
-61.3162 73.2906 21.731 0.532399 -0.805485 -0.260278
-61.359 73.558 20.8166 0.523287 -0.812743 -0.256119
-61.3778 73.927 19.5937 0.519741 -0.815282 -0.255307
-61.3985 74.2357 18.5571 0.526412 -0.81577 -0.239018
-61.2297 74.6876 17.382 0.550604 -0.801461 -0.233442
-60.9057 75.3091 15.9348 0.572453 -0.788984 -0.223161
-60.6656 75.7012 15.1257 0.575431 -0.790051 -0.211417
-60.3428 76.17 14.2566 0.576683 -0.79093 -0.204476
-60.1065 76.5474 13.434 0.590843 -0.783656 -0.191798
-59.8858 76.8981 12.6098 0.597791 -0.784555 -0.164611
-59.577 77.3089 11.7931 0.600056 -0.785114 -0.152799
-59.1333 77.8395 10.7741 0.611941 -0.777623 -0.144329
-58.6568 78.3986 9.62616 0.597767 -0.791547 -0.126998
-58.3414 78.7469 8.82198 0.598878 -0.793431 -0.108688
-57.9771 79.1079 7.96304 0.578948 -0.811801 -0.0761473
-57.4998 79.5288 7.10474 0.566193 -0.817847 -0.0991233
-57.029 79.9299 6.268 0.549084 -0.831009 -0.0890579
-56.6029 80.2845 5.5589 0.544536 -0.834513 -0.0839886
-56.0413 80.7253 4.79006 0.539526 -0.83806 -0.0809344
-55.2758 81.2764 4.07305 0.529406 -0.844741 -0.0783664
-54.5628 81.7783 3.43667 0.528571 -0.845551 -0.0752047
-53.7541 82.3334 2.95734 0.515259 -0.852006 -0.0927041
-53.0775 82.8095 2.39491 0.517192 -0.849548 -0.103832
-52.4026 83.3322 1.59456 0.514701 -0.847468 -0.129888
-51.4956 84.0519 0.569041 0.52018 -0.841072 -0.148357
-50.7408 84.6803 -0.168704 0.546853 -0.817412 -0.181079
-50.0732 85.2868 -0.643664 0.599756 -0.761111 -0.246987
-49.4141 86.0279 -1.15893 0.619013 -0.699308 -0.35744
-48.8899 86.8154 -1.77737 0.592298 -0.638876 -0.472914
-48.5811 87.7709 -2.64658 0.311547 -0.73749 -0.599205
-48.3718 88.3448 -3.41014 0.285382 -0.816157 -0.502438
-48.0967 88.847 -4.05514 0.174 -0.868295 -0.444736
-48.0399 88.9277 -4.24974 0.143158 -0.916932 -0.368437
