-21.1844 95.0345 -4.54305 -0.253879 -0.96556 -0.0569223
-22.2832 95.1112 -4.13902 -0.0852957 -0.989784 -0.112856
-23.3749 95.1199 -3.59027 -0.0526886 -0.986868 -0.152694
-24.3571 95.0752 -3.00421 -0.000492666 -0.989532 -0.143624
-25.2911 94.9469 -2.37236 0.0755087 -0.977059 -0.199
-26.1166 94.7592 -1.73327 0.09286 -0.975964 -0.196169
-27.1789 94.4734 -0.955932 0.133936 -0.970606 -0.199113
-27.9108 94.2579 -0.472646 0.140848 -0.966084 -0.216421
-28.7921 93.9706 0.0665619 0.194341 -0.953628 -0.22984
-29.6052 93.662 0.608888 0.211551 -0.945156 -0.248841
-30.672 93.2099 1.36832 0.225736 -0.937819 -0.263703
-31.6686 92.7408 2.04299 0.264018 -0.916147 -0.30161
-32.7425 92.2471 2.53414 0.275053 -0.904035 -0.326972
-33.5744 91.8994 2.8273 0.273612 -0.898039 -0.343881
-34.5108 91.5184 2.99662 0.307022 -0.882591 -0.35605
-35.4522 91.2049 2.94772 0.313624 -0.875537 -0.367525
-36.7032 90.8291 2.66441 0.3729 -0.853292 -0.364471
-37.5147 90.6511 2.25093 0.375602 -0.837166 -0.395999
-38.575 90.445 1.43659 0.393686 -0.871827 -0.291427
-39.442 90.3843 0.230654 0.411418 -0.88353 -0.220055
-39.5778 90.5572 -0.93589 0.314547 -0.930736 -0.186522
-39.5738 90.7095 -1.85781 0.303373 -0.943136 -0.135868
-39.582 90.8695 -2.87313 0.237428 -0.962774 -0.129204
-39.5852 91.0268 -4.00528 0.234086 -0.962117 -0.139767
-39.4845 91.1373 -5.02303 0.176101 -0.981931 -0.0502007
-39.3608 91.2205 -6.01542 0.118542 -0.992039 -0.0313298
-39.2924 91.2361 -6.95092 0.101463 -0.994817 -0.00486533
-39.0266 91.2023 -8.27011 0.0471865 -0.99657 0.0679794
-38.8739 91.1384 -9.17898 -0.00835693 -0.990738 0.135527
-38.776 90.9984 -10.1967 0.00315065 -0.988764 0.148437
-38.7636 90.8122 -11.1203 0.0250775 -0.979528 0.199739
-38.748 90.5733 -12.0049 0.0221525 -0.950673 0.309402
-38.7933 90.14 -13.2059 0.00957311 -0.93125 0.364255
-39.0649 89.5871 -14.4237 0.00703117 -0.888076 0.459643
-39.5419 89.0214 -15.4375 0.0327095 -0.86053 0.508349
-40.0022 88.5376 -16.1924 0.00830663 -0.847289 0.531061
-40.6716 88.1678 -16.7592 0.00595967 -0.789932 0.613166
-41.5116 87.9073 -17.0857 -0.0189779 -0.785683 0.617762
-42.4513 87.8494 -17.2266 -0.0400792 -0.787115 0.61543
-43.3609 88.0064 -17.0856 -0.0486786 -0.791427 0.609322
-44.2008 88.3647 -16.6802 -0.0721868 -0.796777 0.599026
-44.8925 88.8286 -16.1902 -0.0958322 -0.808692 0.579643
-45.5954 89.2957 -15.6165 -0.0935681 -0.823468 0.559594
-46.0915 89.7436 -14.9056 -0.138394 -0.873314 0.467086
-46.1138 90.1599 -14.0168 -0.0775788 -0.926783 0.361205
-46.16 90.5463 -13.0405 0.0490267 -0.975838 0.212924
-46.2994 90.6922 -12.1627 -0.0129793 -0.988958 0.146288
-46.2794 90.8645 -11.128 -0.0312226 -0.987932 0.150654
-46.1422 90.9476 -10.1325 -0.0339248 -0.997651 0.0595105
-46.1377 90.9748 -9.23447 -0.0540488 -0.995522 -0.0655248
-46.1706 90.9431 -8.33279 -0.0251445 -0.999036 -0.0359844
-46.0384 90.7469 -7.2383 0.057382 -0.984792 -0.163989
-46.1399 90.5294 -6.35468 0.0556835 -0.957293 -0.283707
-46.4994 90.1893 -5.43719 0.117493 -0.939498 -0.321775
-46.8971 89.7363 -4.37118 0.15543 -0.919355 -0.361425
-47.238 89.2638 -3.4869 0.152968 -0.879731 -0.450193
-47.6471 88.5732 -2.48678 0.286932 -0.828298 -0.475326
-47.9908 88.0237 -1.69947 0.380465 -0.793091 -0.472916
-48.4296 87.2882 -0.941974 0.449599 -0.777968 -0.435842
-49.0889 86.517 -0.0940374 0.530172 -0.725814 -0.419338
-49.7494 85.9135 0.490699 0.51637 -0.819023 -0.250128
-50.3318 85.425 0.994499 0.484425 -0.848421 -0.213341
-50.9171 84.9613 1.4984 0.486928 -0.858638 -0.16013
-51.5836 84.4508 2.17662 0.503367 -0.852433 -0.140033
-52.4295 83.8172 3.15846 0.483562 -0.867426 -0.114772
-53.3058 83.2209 3.98267 0.511662 -0.854187 -0.0925534
-53.9285 82.8156 4.49533 0.516604 -0.853756 -0.0631342
-54.6397 82.3218 5.19063 0.527948 -0.847276 -0.0582611
-55.4251 81.7772 6.1652 0.543395 -0.83833 -0.0438839
-56.0042 81.3369 7.10246 0.563559 -0.824816 -0.0449742
-56.3995 81.0225 7.8786 0.581155 -0.811883 -0.0557167
-56.867 80.6255 8.92017 0.600315 -0.798415 -0.041055
-57.301 80.2105 10.0184 0.612704 -0.788629 -0.0513436
-57.7166 79.7743 10.7533 0.623777 -0.773787 -0.110254
-58.1601 79.3037 11.5093 0.640052 -0.75742 -0.128456
-58.7507 78.5632 12.8462 0.660392 -0.737601 -0.139238
-59.0871 77.9966 14.1065 0.633814 -0.75266 -0.177401
-59.4328 77.433 15.1508 0.640856 -0.744107 -0.1887
-59.6973 76.9002 16.2831 0.624116 -0.748419 -0.224384
-59.8892 76.4829 17.1981 0.60368 -0.76409 -0.227456
-60.1557 75.9363 18.2971 0.606379 -0.759086 -0.23684
-60.2414 75.5043 19.4584 0.583802 -0.775891 -0.2391
-60.199 75.1339 20.6983 0.582045 -0.769553 -0.262701
-60.0945 74.8214 21.8083 0.557233 -0.786509 -0.266261
-60.045 74.5426 22.7254 0.553982 -0.784728 -0.278022
-59.8615 74.3215 23.7054 0.550985 -0.783537 -0.287103
-59.7076 74.0911 24.6902 0.54007 -0.800078 -0.261149
-59.6293 73.8137 25.6595 0.527341 -0.801067 -0.282852
-59.5639 73.5136 26.6573 0.517593 -0.810342 -0.274655
-59.4939 73.2021 27.7041 0.498386 -0.818556 -0.285596
-59.3706 72.8694 28.8695 0.487691 -0.823399 -0.289971
-59.4486 72.5239 29.7465 0.481695 -0.827037 -0.289714
-59.5775 72.1142 30.7899 0.456209 -0.848466 -0.268251
-59.6842 71.7738 31.7515 0.43454 -0.865053 -0.250717
-59.692 71.5156 32.6326 0.423332 -0.872201 -0.24505
-59.5297 71.2055 33.9971 0.409928 -0.87624 -0.253237
-59.1633 71.084 35.0119 0.401735 -0.881413 -0.248436
-58.4986 71.0457 36.1468 0.387913 -0.884226 -0.260122
-57.8907 71.0563 36.9904 0.364862 -0.896595 -0.250983
-57.2699 71.1105 37.6726 0.355077 -0.899835 -0.25339
-56.4353 71.1802 38.5321 0.327717 -0.907724 -0.261992
-55.6383 71.2213 39.3608 0.303577 -0.915312 -0.264659
-54.9011 71.2579 40.0458 0.264735 -0.921718 -0.283156
-54.1933 71.2701 40.6956 0.264315 -0.925703 -0.270577
-53.0847 71.2823 41.5117 0.229717 -0.926029 -0.299464
-52.2508 71.2871 42.0044 0.185873 -0.929394 -0.31887
-51.2657 71.3361 42.4078 0.143783 -0.933029 -0.329723
-49.9953 71.4283 42.6773 0.131718 -0.932787 -0.335419
-48.5718 71.5676 42.7663 0.106872 -0.929159 -0.353896
-47.2151 71.7074 42.7161 0.0796474 -0.926533 -0.367549
-45.9139 71.9443 42.3697 0.0545358 -0.923979 -0.378535
-45.1052 72.1443 42.0129 0.0522464 -0.920711 -0.386657
-43.9849 72.5067 41.2835 0.0451312 -0.920366 -0.388445
-43.4104 72.8051 40.6293 0.0172184 -0.91512 -0.402638
-42.9135 73.1403 39.9005 0.0158149 -0.903131 -0.428635
-42.335 73.5725 39.0359 0.00538677 -0.898934 -0.438051
-41.8683 74.0552 38.082 -0.00608526 -0.892062 -0.451872
-41.5194 74.4536 37.3453 -0.0236034 -0.874464 -0.484516
-41.1193 74.9703 36.4286 -0.0156232 -0.860954 -0.508443
-40.7876 75.5214 35.4908 -0.0808931 -0.831145 -0.55014
-40.3906 76.1329 34.4899 -0.0922852 -0.8376 -0.538433
-39.9023 76.6401 33.6853 -0.0953968 -0.815715 -0.570515
-39.4601 77.0764 33.009 -0.0975193 -0.795175 -0.598487
-39.0008 77.6178 32.2212 -0.0963453 -0.777043 -0.621647
-38.5275 78.2397 31.3969 -0.116644 -0.770963 -0.625867
-37.8285 78.8768 30.4604 -0.135547 -0.758646 -0.637224
-36.9898 79.3783 29.6615 -0.16924 -0.753766 -0.634975
-36.1633 80.0577 28.6642 -0.170706 -0.738276 -0.652428
-35.3593 80.4921 27.9406 -0.166815 -0.752821 -0.636737
-34.6927 80.7871 27.3948 -0.179293 -0.777416 -0.602868
-34.039 81.1402 26.7519 -0.174106 -0.777689 -0.604058
-33.2231 81.5744 25.9105 -0.20403 -0.791986 -0.575438
-32.4043 82.111 24.8328 -0.214817 -0.816277 -0.536218
-31.9608 82.4812 24.0921 -0.213937 -0.821858 -0.527996
-31.5924 82.9225 23.2559 -0.217928 -0.818883 -0.530946
-31.3314 83.507 22.1282 -0.217294 -0.845608 -0.487576
-31.188 84.0475 21.0571 -0.206505 -0.865473 -0.456203
-31.096 84.4848 20.1151 -0.15889 -0.889661 -0.428086
-30.9669 84.9514 19.0641 -0.147993 -0.905713 -0.397217
-30.7935 85.333 18.1535 -0.122375 -0.915707 -0.381371
-30.6232 85.8974 16.7973 -0.0686893 -0.907061 -0.415359
-30.4697 86.2778 15.8951 0.0292603 -0.906127 -0.419412
-30.242 86.689 15.1091 0.0811747 -0.891024 -0.446639
-29.9131 87.2795 14.0772 0.113032 -0.852261 -0.510759
-29.6871 87.7885 13.2656 0.153817 -0.843979 -0.512927
-29.5591 88.3636 12.4708 0.228694 -0.800049 -0.554635
-29.2235 89.3435 11.1436 0.250389 -0.804478 -0.538628
-28.8036 89.8987 10.4595 0.295252 -0.827062 -0.477537
-28.2006 90.5401 9.77142 0.315051 -0.828403 -0.462611
-27.5649 91.1375 9.14775 0.3524 -0.824026 -0.443616
-26.8828 91.7238 8.51024 0.347805 -0.850854 -0.393802
-26.0155 92.413 7.73083 0.308426 -0.882908 -0.352727
-25.3331 92.8515 7.1584 0.26375 -0.912888 -0.307508
-24.4822 93.2708 6.53523 0.269968 -0.924516 -0.269049
-23.6668 93.6076 6.0086 0.227989 -0.953109 -0.199009
-22.9136 93.8701 5.58086 0.194928 -0.971861 -0.131525
-21.942 94.1072 5.17138 0.186417 -0.974703 -0.123298
-20.7826 94.3519 4.65942 0.152234 -0.983899 -0.0928339
-19.8842 94.4713 4.30333 0.1381 -0.990363 0.0104723
-19.4962 94.5239 4.16115 0.138101 -0.990363 0.0104722
-19.1718 94.5219 5.04106 0.215567 -0.968073 -0.08574
-18.046 94.7685 4.6329 0.164453 -0.979663 0.114956
-16.783 94.7099 3.79842 0.0338674 -0.981893 0.186386
-15.3984 94.4742 3.02956 -0.0817443 -0.959228 0.270556
-14.5558 94.0336 2.28097 -0.32288 -0.854189 0.394325
-13.9983 93.58 1.6418 -0.370439 -0.873567 0.31541
-13.7855 93.1051 0.677646 -0.484587 -0.804634 0.342992
-13.6718 92.6826 -0.221452 -0.488725 -0.812479 0.317844
-13.8997 92.3433 -1.52175 -0.510762 -0.812933 0.279753
-14.3296 92.3164 -2.38844 -0.503258 -0.817866 0.278973
-14.9172 92.4018 -3.2795 -0.511869 -0.829216 0.224435
-15.7251 92.6822 -4.10942 -0.513982 -0.835553 0.191563
-16.4573 93.0063 -4.6632 -0.483857 -0.861126 0.156026
-17.3935 93.4543 -5.14137 -0.476166 -0.867531 0.141779
-18.2766 93.8724 -5.42714 -0.468056 -0.873729 0.132319
-19.3772 94.5451 -5.67093 -0.502007 -0.84969 -0.0223693
-20.4836 94.9698 -5.61611 -0.286604 -0.948848 -0.123231
-21.6957 95.1998 -5.34409 -0.169518 -0.974999 -0.143647
-22.7952 95.2819 -4.93074 -0.096633 -0.980509 -0.171067
-23.8727 95.2645 -4.37111 -0.0465801 -0.987917 -0.147819
-25.206 95.1475 -3.59723 0.0159782 -0.984448 -0.174947
-26.0286 95.0411 -3.09582 0.0772663 -0.975515 -0.205913
-26.878 94.8216 -2.46263 0.111962 -0.973331 -0.200229
-27.5603 94.6146 -1.85514 0.115353 -0.971553 -0.20683
-28.2916 94.4 -1.34522 0.138533 -0.966444 -0.216311
-29.1979 94.1126 -0.785225 0.189037 -0.949485 -0.250487
-30.0429 93.7784 -0.150854 0.192384 -0.945664 -0.261804
-31.0478 93.3796 0.46318 0.216614 -0.937661 -0.271771
-31.9226 92.9986 1.01129 0.265489 -0.918662 -0.292533
-32.7626 92.5858 1.57754 0.236965 -0.91808 -0.317259
-34.0442 92.0656 2.01055 0.257211 -0.904684 -0.33969
-35.0225 91.7296 2.07035 0.298934 -0.879175 -0.371065
-36.4021 91.2981 1.99294 0.32749 -0.848093 -0.412239
-37.2586 91.1124 1.479 0.482502 -0.813802 -0.323911
-38.1187 90.8737 0.761692 0.570153 -0.791811 -0.17586
-38.5646 90.8512 -0.147939 0.406109 -0.899227 -0.160862
-38.715 90.9315 -1.44371 0.341274 -0.933274 -0.102734
-38.6623 91.1037 -2.70629 0.299387 -0.950111 -0.0875013
-38.6127 91.2369 -3.89749 0.244084 -0.96544 -0.0913714
-38.5436 91.3528 -5.16622 0.218844 -0.975299 -0.0299974
-38.4151 91.34 -6.11979 0.144315 -0.989178 0.0195284
-38.281 91.3383 -7.0939 0.0947544 -0.992247 0.0803515
-38.0884 91.2766 -8.12496 0.10232 -0.992055 0.0726867
-37.9245 91.1624 -9.23587 0.0822086 -0.986056 0.141523
-37.7007 91.0505 -10.246 0.0577607 -0.981919 0.172935
-37.793 90.829 -11.1888 0.0618789 -0.973688 0.219221
-37.8193 90.5953 -12.0595 0.104951 -0.958368 0.265549
-37.8436 90.2934 -12.9311 0.0655982 -0.936849 0.343524
-38.0355 89.9033 -13.9728 0.0706844 -0.943963 0.322394
-38.2192 89.46 -14.8948 0.151875 -0.883429 0.443269
-38.6121 88.9208 -15.6422 0.0463216 -0.843176 0.535638
-38.978 88.4638 -16.335 0.0170675 -0.850462 0.52576
-39.5407 87.9779 -17.041 0.0216368 -0.806104 0.591162
-40.451 87.5429 -17.5702 0.034738 -0.788165 0.614146
-41.5144 87.2538 -17.9156 0.00932512 -0.768234 0.640015
-42.7024 87.2098 -17.9845 -0.0227567 -0.741979 0.670036
-43.6128 87.4314 -17.7823 -0.0264185 -0.750735 0.659933
-45.0072 88.1149 -17.1208 -0.094856 -0.764039 0.637637
-45.8408 88.7091 -16.5203 -0.110275 -0.793761 0.596077
-46.8417 89.472 -15.6565 -0.163264 -0.838153 0.515747
-47.1331 90.0373 -14.6727 -0.169925 -0.869082 0.464118
-47.046 90.3551 -13.8258 -0.173739 -0.930161 0.323442
-47.1132 90.5396 -12.8337 0.0595117 -0.97535 0.212486
-47.2322 90.8043 -11.9227 -0.12043 -0.978732 0.166076
-47.1033 90.9814 -10.634 -0.0874289 -0.990493 0.105963
-47.1497 91.0907 -9.5614 -0.0886813 -0.991457 0.000406924
-47.2196 91.0141 -8.56745 -0.118989 -0.980186 -0.118156
-47.0736 90.8258 -7.68855 -0.0500173 -0.97873 -0.198961
-47.0021 90.6254 -6.81053 -0.00629841 -0.927497 -0.372898
-47.3988 90.2529 -5.80993 0.0486196 -0.924827 -0.372956
-47.8019 89.6839 -4.57721 0.104702 -0.918211 -0.382002
-48.2075 89.1522 -3.70866 0.210706 -0.854043 -0.475618
-48.5678 88.4692 -2.76464 0.292909 -0.800257 -0.523252
-48.9483 87.5523 -1.86341 0.416603 -0.702064 -0.566508
-49.5168 86.7468 -1.03279 0.530174 -0.725817 -0.419333
-50.0036 86.0468 -0.503266 0.520568 -0.819346 -0.240169
-50.7 85.3991 0.0833187 0.548474 -0.810867 -0.198601
-51.3489 84.8809 0.6325 0.549271 -0.819918 -0.159338
-51.949 84.4116 1.18798 0.511801 -0.844891 -0.155625
-52.6359 83.8633 2.05172 0.494933 -0.859974 -0.124442
-53.2013 83.413 2.7616 0.521203 -0.846715 -0.105097
-53.8528 82.9631 3.31634 0.522968 -0.847843 -0.0869367
-54.6938 82.3766 3.97775 0.526399 -0.847455 -0.0687361
-55.3727 81.9021 4.63282 0.530376 -0.845874 -0.0565525
-55.9436 81.4836 5.37137 0.544317 -0.836805 -0.0589639
-56.4357 81.1086 6.12805 0.549837 -0.833196 -0.0588324
-57.011 80.6266 7.32682 0.575364 -0.815289 -0.0649338
-57.6607 80.0355 8.79892 0.5969 -0.799336 -0.0689044
-58.0754 79.6373 9.68371 0.620829 -0.777752 -0.0983532
-58.5464 79.1466 10.4177 0.638976 -0.760319 -0.116722
-58.9467 78.6773 11.2831 0.640046 -0.757424 -0.128464
-59.468 78.0442 12.4216 0.621042 -0.770721 -0.142465
-59.7611 77.5464 13.6055 0.611641 -0.773141 -0.166956
-60.0051 77.1348 14.4503 0.610358 -0.766589 -0.199512
-60.3663 76.6078 15.3482 0.614946 -0.763094 -0.198742
-60.6214 76.1457 16.3083 0.61232 -0.760889 -0.214737
-60.8422 75.61 17.6744 0.58323 -0.781456 -0.220703
-60.99 75.1999 18.6626 0.573015 -0.785185 -0.234815
-60.9969 74.9143 19.577 0.546368 -0.800221 -0.247243
-60.9834 74.6016 20.5995 0.546292 -0.798031 -0.254385
-60.8617 74.2326 21.9806 0.543014 -0.795649 -0.268474
-60.7854 73.9733 22.8795 0.545646 -0.790597 -0.27788
-60.5715 73.7343 24.0426 0.528978 -0.811633 -0.247463
-60.4436 73.4274 25.2563 0.522433 -0.809562 -0.267607
-60.3701 73.0878 26.393 0.508348 -0.818823 -0.265957
-60.3313 72.6844 27.7506 0.498091 -0.827186 -0.260132
-60.2087 72.4719 28.6051 0.482049 -0.829016 -0.283481
-60.2829 72.0447 29.8215 0.453777 -0.851963 -0.261127
-60.4633 71.6232 30.9107 0.436519 -0.86501 -0.247403
-60.5452 71.2517 32.0769 0.443898 -0.864061 -0.23739
-60.5019 71.0166 33.0095 0.423332 -0.8722 -0.245052
-60.3153 70.7104 34.4726 0.409488 -0.881285 -0.235915
-59.8381 70.615 35.5884 0.393966 -0.887883 -0.237233
-59.296 70.6099 36.4827 0.383809 -0.891229 -0.241665
-58.6714 70.6288 37.3745 0.367452 -0.895272 -0.251924
-57.9471 70.7063 38.1878 0.356815 -0.902647 -0.240297
-57.2243 70.7796 38.9419 0.337094 -0.909052 -0.244679
-56.4054 70.8187 39.8711 0.328353 -0.91061 -0.250945
-55.5647 70.8744 40.7096 0.303229 -0.921408 -0.243023
-54.8561 70.9094 41.2962 0.258206 -0.930875 -0.258309
-53.6477 70.9845 42.1342 0.212863 -0.945276 -0.247269
-52.9058 70.9791 42.6496 0.174515 -0.944062 -0.279494
-52.1044 70.994 43.0635 0.150618 -0.944591 -0.29118
-50.5997 71.0689 43.4966 0.129118 -0.944493 -0.302096
-49.6189 71.1475 43.6133 0.0988698 -0.943827 -0.315301
-48.6457 71.2357 43.6546 0.0973234 -0.943399 -0.31705
-47.6184 71.3111 43.6546 0.073392 -0.929294 -0.361977
-46.1897 71.5223 43.373 0.0567796 -0.928259 -0.367569
-45.2714 71.6991 43.0728 0.046737 -0.92757 -0.370546
-44.161 71.9775 42.5184 0.0450195 -0.920749 -0.38755
-43.3729 72.2532 41.9564 0.0476349 -0.933763 -0.354708
-42.7396 72.53 41.3127 0.0353497 -0.926691 -0.373419
-42.2201 72.8842 40.5068 0.0102036 -0.918245 -0.395881
-41.6808 73.2171 39.7648 -0.000924596 -0.8977 -0.440607
-41.1518 73.7105 38.7345 -0.0173481 -0.896914 -0.441536
-40.8067 74.1106 37.9478 -0.0104376 -0.881478 -0.472053
-40.2956 74.7011 36.8336 -0.0290487 -0.872397 -0.48745
-39.9737 75.1424 36.051 -0.0406263 -0.866508 -0.497507
-39.6828 75.628 35.1459 -0.105227 -0.832593 -0.543798
-39.163 76.2253 34.151 -0.110355 -0.807387 -0.579347
-38.5773 76.7197 33.339 -0.0985846 -0.805768 -0.583684
-38.1197 77.3581 32.4324 -0.0875377 -0.790178 -0.606594
-37.7514 77.8706 31.7058 -0.114775 -0.779169 -0.61619
-37.3222 78.3416 31.0252 -0.112389 -0.782565 -0.612341
-36.3891 78.8805 30.131 -0.127245 -0.787002 -0.603686
-35.81 79.245 29.5339 -0.134187 -0.76941 -0.623888
-35.2268 79.7294 28.8383 -0.14564 -0.755762 -0.638446
-34.5436 80.0486 28.2777 -0.150855 -0.767048 -0.623598
-33.413 80.6314 27.2429 -0.161912 -0.788036 -0.593956
-32.6075 81.0546 26.4331 -0.179814 -0.809428 -0.558976
-32.0009 81.4358 25.694 -0.18759 -0.807313 -0.559451
-31.4258 81.8095 24.9139 -0.203744 -0.821737 -0.532199
-31.0057 82.24 24.0814 -0.206539 -0.827057 -0.522708
-30.5451 82.6725 23.2234 -0.215261 -0.833587 -0.508177
-30.4328 83.153 22.3408 -0.203074 -0.844367 -0.495506
-30.3008 83.6413 21.4321 -0.178777 -0.86284 -0.472807
-30.1861 84.2506 20.2515 -0.175953 -0.879135 -0.442567
-30.0912 84.629 19.4336 -0.15543 -0.879945 -0.448324
-29.9492 85.0358 18.5281 -0.138458 -0.90207 -0.408778
-29.8102 85.4962 17.5172 -0.09022 -0.905702 -0.414204
-29.6059 86.134 16.1773 -0.0194401 -0.875421 -0.482391
-29.2296 86.8243 14.9789 -0.0392175 -0.86624 -0.497547
-28.9616 87.3651 14.1534 0.122704 -0.850556 -0.51137
-28.7092 87.9818 13.2547 0.143852 -0.787498 -0.599295
-28.6306 88.789 12.259 0.264602 -0.751267 -0.604199
-28.327 89.4981 11.3762 0.30429 -0.793897 -0.526436
-27.8643 90.112 10.7593 0.332224 -0.797408 -0.501951
-27.238 90.7409 10.1088 0.337362 -0.820815 -0.460922
-26.4737 91.4917 9.36818 0.355345 -0.830982 -0.426402
-25.831 92.0125 8.81079 0.376068 -0.837173 -0.395722
-24.9359 92.6894 8.04483 0.35354 -0.89703 -0.265229
-24.2862 93.0842 7.5155 0.318848 -0.924974 -0.206783
-23.2116 93.5784 6.85544 0.275005 -0.944176 -0.179177
-22.2966 93.9249 6.30643 0.232382 -0.963675 -0.118064
-20.9883 94.2049 5.81472 0.164642 -0.982313 -0.0891118
-19.9537 94.3963 5.28587 0.105313 -0.990226 -0.0868812
-19.3345 94.4957 5.0926 0.124914 -0.986356 -0.107232
-21.2868 94.3935 3.22026 0.107093 -0.992449 -0.0598011
-22.5504 94.235 3.20273 0.112794 -0.988754 -0.0982026
-23.7167 94.0699 3.17523 0.127507 -0.976727 -0.172474
-25.0106 93.8943 3.13612 0.151596 -0.970083 -0.189626
-26.0275 93.7433 3.09679 0.174031 -0.962335 -0.208865
-26.914 93.5677 3.04473 0.205879 -0.952195 -0.225697
-27.936 93.3725 2.97975 0.205725 -0.940628 -0.269992
-28.8281 93.1879 2.91362 0.215501 -0.93542 -0.280265
-29.9587 92.9524 2.82565 0.217129 -0.935433 -0.278963
-30.1169 92.9189 2.81326 0.238007 -0.926711 -0.290791
-28.7078 93.5226 1.85805 0.199273 -0.943414 -0.265066
-27.5317 93.7441 1.93268 0.194655 -0.94584 -0.259801
-26.1617 93.9651 2.00096 0.151694 -0.962572 -0.224597
-24.5632 94.1674 2.05607 0.119312 -0.974279 -0.191169
-23.5721 94.2879 2.08209 0.0896792 -0.982426 -0.163695
-22.2793 94.4154 2.10371 0.0863188 -0.988081 -0.127456
-20.9006 94.468 2.11026 0.0387298 -0.996649 -0.0720491
-19.8641 94.5357 2.1148 0.012426 -0.99968 -0.0220178
-18.7807 94.5111 2.11515 0.0596813 -0.996736 0.05436
-18.4036 94.5336 2.11394 0.0596854 -0.996736 0.0543573
-16.6824 94.277 1.02896 -0.106202 -0.979078 0.173573
-18.0856 94.4122 1.00984 -0.0540224 -0.993626 0.0989342
-19.0397 94.4954 1.00426 -0.0406828 -0.999117 0.0104803
-20.2814 94.5564 1.00314 -0.0363116 -0.999175 -0.0181756
-21.6474 94.5662 1.00261 0.0024926 -0.998218 -0.0596142
-22.8605 94.5135 0.993666 0.0439288 -0.990778 -0.128179
-23.9051 94.4307 0.977216 0.0666531 -0.986035 -0.152618
-25.0667 94.3375 0.95184 0.10887 -0.970929 -0.213177
-26.3396 94.1881 0.90874 0.148987 -0.965648 -0.212899
-27.2506 94.0529 0.86874 0.144461 -0.964648 -0.220421
-25.7638 94.502 -0.153563 0.0900365 -0.977041 -0.193092
-24.4242 94.5941 -0.125749 0.061857 -0.983201 -0.171723
-23.0268 94.6606 -0.107549 0.0293386 -0.987201 -0.156762
-21.7332 94.6927 -0.0999953 -0.0216927 -0.993433 -0.11234
-20.6315 94.6031 -0.105739 -0.0893693 -0.99258 -0.0824479
-19.5323 94.5113 -0.106902 -0.0746959 -0.996828 0.027479
-18.5969 94.3896 -0.102289 -0.119854 -0.987541 0.101971
-17.389 94.2069 -0.0837263 -0.171561 -0.972533 0.157308
-16.3982 94.0601 -0.0604595 -0.262557 -0.942396 0.207252
-16.1078 93.9473 -0.0307306 -0.372798 -0.897313 0.236329
-16.431 93.78 -1.13032 -0.403321 -0.88319 0.23939
-17.4006 94.0796 -1.18761 -0.213556 -0.97519 0.0582947
-18.6942 94.3432 -1.21153 -0.183728 -0.981049 0.0615325
-19.941 94.5722 -1.21513 -0.14387 -0.988913 -0.036764
-20.901 94.6934 -1.21101 -0.104795 -0.992306 -0.0659293
-21.7956 94.7941 -1.20465 -0.0697204 -0.994615 -0.076684
-23.0531 94.8284 -1.20412 -0.0380206 -0.994431 -0.0982962
-24.3092 94.7922 -1.21625 0.0353182 -0.983098 -0.17964
-22.6538 94.9395 -2.30514 -0.0511479 -0.992248 -0.113259
-21.4458 94.8471 -2.31259 -0.113098 -0.988855 -0.0968265
-20.0337 94.6333 -2.32466 -0.198627 -0.976688 -0.081406
-18.9747 94.4118 -2.32438 -0.26261 -0.963973 0.0423309
-18.1038 94.1537 -2.30884 -0.333009 -0.937066 0.104937
-17.212 93.8138 -2.25999 -0.314438 -0.923753 0.218652
-23.6805 93.8925 4.27879 0.194949 -0.971954 -0.13153
-24.7125 93.7281 4.24516 0.150119 -0.972922 -0.175744
-25.7079 93.5509 4.20022 0.201059 -0.957201 -0.208188
-26.6487 93.3613 4.14667 0.225738 -0.941744 -0.24932
-27.643 93.1423 4.07397 0.225664 -0.941723 -0.249466
-28.7874 92.8845 3.98298 0.260709 -0.923032 -0.282918
-29.8073 92.643 3.88674 0.240621 -0.92084 -0.306847
-30.7432 92.4209 3.79867 0.275574 -0.905438 -0.322863
-31.5662 92.1847 3.70151 0.279664 -0.895299 -0.34674
-27.6716 92.0072 7.21169 0.291786 -0.886418 -0.359338
-28.5687 91.755 7.10982 0.295626 -0.878819 -0.374542
-29.5919 91.4479 6.97351 0.293846 -0.861816 -0.413433
-30.5031 91.203 6.86409 0.279147 -0.872979 -0.39998
-31.5034 90.9376 6.74534 0.285514 -0.870729 -0.400391
-32.3836 90.6938 6.63748 0.289185 -0.872179 -0.394558
-33.2887 90.4301 6.52291 0.308204 -0.865944 -0.393893
-34.222 90.1487 6.4026 0.31175 -0.869945 -0.382109
-35.2276 89.8478 6.27705 0.318696 -0.87025 -0.37563
-36.6769 89.3797 6.08736 0.325001 -0.870792 -0.368911
-37.809 89.0029 5.94112 0.337108 -0.872815 -0.35292
-38.659 88.7144 5.83295 0.349226 -0.870017 -0.348011
-39.8706 88.3 5.68439 0.348799 -0.878037 -0.327704
-40.8825 87.9263 5.55767 0.35889 -0.878648 -0.314921
-41.7556 87.6111 5.44888 0.357288 -0.874648 -0.327622
-43.0892 87.1836 5.30628 0.310802 -0.91545 -0.255645
-44.243 86.8004 5.19087 0.270233 -0.944146 -0.188581
-45.3918 86.4857 5.10266 0.268378 -0.947827 -0.17204
-46.4086 86.2202 5.0309 0.27961 -0.951986 -0.124661
-47.3628 85.9336 4.9588 0.333794 -0.934159 -0.126208
-48.3052 85.6074 4.88142 0.336934 -0.933623 -0.121753
-49.2737 85.2253 4.80272 0.371317 -0.925432 -0.0754989
-50.395 84.7287 4.71996 0.450206 -0.891089 -0.0572331
-51.3538 84.2535 4.65833 0.46097 -0.882889 -0.0895199
-52.0326 83.8862 4.61518 0.472247 -0.87988 -0.0528688
-53.1823 83.1839 5.67408 0.498264 -0.866908 -0.0142375
-52.2217 83.7232 5.73017 0.476846 -0.878637 -0.0248009
-51.3546 84.1963 5.77992 0.460202 -0.886977 -0.0385644
-50.3927 84.6601 5.83391 0.415151 -0.908345 -0.0505886
-49.4776 85.0529 5.89597 0.396162 -0.916811 -0.0501401
-48.5852 85.3893 5.9658 0.356367 -0.929509 -0.0949459
-47.6784 85.7075 6.03758 0.31053 -0.945357 -0.0993539
-46.7713 85.9808 6.10668 0.26441 -0.958902 -0.102928
-45.8606 86.2207 6.16922 0.225101 -0.962067 -0.154129
-44.7014 86.4879 6.24369 0.243821 -0.957291 -0.155391
-43.4408 86.8035 6.33121 0.208201 -0.95325 -0.219011
-42.5047 87.0477 6.41487 0.295983 -0.909132 -0.293041
-41.3181 87.4186 6.53959 0.348137 -0.891146 -0.290961
-40.3057 87.7731 6.66008 0.329003 -0.896101 -0.297925
-38.9996 88.2004 6.81126 0.334296 -0.882408 -0.331062
-38.1507 88.4828 6.91527 0.329657 -0.881466 -0.338147
-37.2436 88.7749 7.02533 0.329967 -0.871397 -0.363027
-36.3588 89.0605 7.13719 0.320975 -0.874674 -0.363208
-35.343 89.3803 7.26472 0.314303 -0.872401 -0.374339
-34.1372 89.7326 7.41264 0.30138 -0.870772 -0.388493
-33.1819 90.013 7.53257 0.305448 -0.869403 -0.388381
-31.9695 90.3453 7.68144 0.27983 -0.865819 -0.414793
-30.9654 90.6134 7.80381 0.277603 -0.861853 -0.424437
-30.026 90.8566 7.91764 0.285869 -0.853043 -0.436575
-28.8501 91.186 8.0702 0.308944 -0.853347 -0.419944
-28.5586 91.2725 8.1089 0.308945 -0.853347 -0.419943
-29.5592 90.4775 8.96033 0.284204 -0.852589 -0.438544
-30.6675 90.1869 8.82103 0.268418 -0.853925 -0.445828
-31.7182 89.9234 8.69511 0.263049 -0.858557 -0.440097
-33.0398 89.5861 8.54055 0.284202 -0.870745 -0.401289
-33.922 89.3449 8.43572 0.288746 -0.869101 -0.401607
-34.9585 89.0525 8.31156 0.30364 -0.871478 -0.385136
-36.3534 88.6427 8.14808 0.303111 -0.883894 -0.356167
-37.2239 88.3747 8.04512 0.314732 -0.87972 -0.356422
-38.3373 88.0252 7.91393 0.320472 -0.886383 -0.3341
-39.5882 87.6512 7.77714 0.301829 -0.900174 -0.313984
-40.9255 87.2123 7.62299 0.345182 -0.890472 -0.296496
-41.9667 86.897 7.52227 0.319161 -0.920536 -0.225278
-42.8927 86.6258 7.44116 0.173707 -0.962853 -0.206737
-43.9918 86.4419 7.381 0.208207 -0.95325 -0.219007
-45.3317 86.1635 7.30117 0.220373 -0.961137 -0.166289
-46.7182 85.8702 7.2159 0.221793 -0.968299 -0.114912
-47.8732 85.5475 7.13548 0.28479 -0.956267 -0.0666992
-48.7683 85.2576 7.06307 0.325628 -0.943505 -0.0613631
-49.676 84.9063 6.99337 0.395506 -0.917045 -0.0510228
-50.7646 84.4425 6.93005 0.414315 -0.910062 -0.011409
-51.6017 84.039 6.88427 0.471056 -0.881977 -0.0149392
-52.3963 83.6151 6.8427 0.485547 -0.874111 -0.0131902
-53.5206 82.9725 6.7768 0.517073 -0.855824 -0.0141692
-54.0895 82.6131 6.73748 0.534212 -0.844991 -0.024631
-54.563 82.2822 7.81747 0.556029 -0.830527 -0.0325191
-53.2415 83.1224 7.90594 0.517074 -0.855823 -0.0141696
-52.19 83.7465 7.96787 0.486231 -0.873724 0.0135976
-51.3314 84.1728 8.01824 0.442506 -0.896739 -0.00686486
-50.2705 84.644 8.07925 0.37913 -0.924984 -0.0257838
-49.0286 85.1113 8.1659 0.318294 -0.947327 -0.0355156
-47.9349 85.4568 8.24909 0.282309 -0.958267 -0.04502
-46.983 85.6774 8.31011 0.217635 -0.975093 -0.0427558
-45.5381 85.964 8.39644 0.17304 -0.974625 -0.142
-44.0647 86.2227 8.47739 0.180799 -0.967104 -0.178948
-43.1382 86.3931 8.52784 0.220482 -0.960432 -0.170173
-42.0088 86.6369 8.59378 0.202713 -0.958438 -0.200759
-40.8525 86.9441 8.6966 0.285945 -0.918631 -0.272675
-39.9839 87.1712 8.77493 0.268441 -0.916184 -0.297567
-38.6922 87.5342 8.90345 0.273084 -0.908796 -0.315461
-37.8007 87.7921 8.9984 0.303532 -0.887907 -0.345672
-36.4548 88.1976 9.1512 0.309641 -0.873132 -0.376514
-35.2837 88.533 9.28336 0.274273 -0.883556 -0.37961
-34.1101 88.8468 9.4125 0.28037 -0.881497 -0.379941
-32.8563 89.1494 9.546 0.255652 -0.866027 -0.429697
-31.9257 89.3731 9.64918 0.259914 -0.860736 -0.437697
-31.0191 89.589 9.7543 0.255793 -0.858614 -0.444243
-30.2863 89.7649 9.84095 0.277775 -0.848866 -0.449742
-30.7704 89.1118 10.744 0.230855 -0.839411 -0.492032
-32.072 88.8288 10.6035 0.229422 -0.859886 -0.456028
-33.1088 88.6025 10.4979 0.249888 -0.868148 -0.428807
-34.182 88.3635 10.3969 0.231007 -0.888186 -0.397192
-35.1267 88.1339 10.3033 0.272121 -0.876422 -0.397284
-36.0148 87.8983 10.2072 0.29393 -0.87641 -0.381459
-37.1013 87.5899 10.092 0.283088 -0.889063 -0.359762
-38.5815 87.1903 9.9526 0.260493 -0.908977 -0.32543
-39.9038 86.8588 9.84091 0.248556 -0.915846 -0.31535
-40.907 86.6137 9.75269 0.268596 -0.9213 -0.28118
-41.7928 86.4384 9.70016 0.187539 -0.959798 -0.208846
-43.2188 86.191 9.62847 0.164512 -0.973593 -0.158279
-44.6145 85.9897 9.56564 0.118775 -0.987336 -0.10517
-45.719 85.8427 9.51149 0.171565 -0.982147 -0.0771516
-47.0805 85.6065 9.42956 0.196389 -0.97864 -0.0607868
-48.5494 85.2225 9.33628 0.256361 -0.966154 -0.0287264
-49.9298 84.7503 9.23148 0.356351 -0.933989 -0.0260586
-50.9319 84.3303 9.16836 0.389274 -0.92079 -0.0247148
-51.8819 83.8762 9.09934 0.444253 -0.895245 -0.0342892
-52.7547 83.4098 9.04293 0.510075 -0.86013 -0.000213576
-53.9522 82.7024 8.9596 0.521049 -0.853424 0.0132522
-54.9588 82.0046 8.89517 0.573951 -0.818889 -0.000160495
-55.4391 81.6664 8.85648 0.588198 -0.808293 -0.0261736
-55.8804 81.3115 9.89991 0.593709 -0.8045 -0.0170309
-54.8089 82.1123 10.0085 0.588167 -0.808733 -0.00330589
-53.765 82.821 10.0939 0.533589 -0.845735 -0.00384394
-52.8434 83.3903 10.1473 0.528337 -0.847367 0.0531925
-51.595 83.9997 10.2527 0.427429 -0.903796 0.0214045
-50.4771 84.4854 10.3274 0.371936 -0.928241 -0.00562219
-49.3886 84.914 10.4072 0.32705 -0.94475 -0.0220239
-48.2436 85.305 10.4965 0.288198 -0.957512 -0.0106417
-47.1497 85.5496 10.5591 0.205346 -0.978092 -0.0342033
-46.1182 85.7324 10.6172 0.163406 -0.986308 -0.022243
-44.9931 85.8949 10.6753 0.118687 -0.992753 -0.018821
-43.9874 86.0164 10.7184 0.120004 -0.992221 -0.0331281
-42.7918 86.1722 10.772 0.133185 -0.987589 -0.0832442
-41.5604 86.3361 10.8288 0.107078 -0.980087 -0.167223
-40.527 86.4252 10.8669 0.0728799 -0.982741 -0.170023
-39.6055 86.5693 10.9154 0.280345 -0.932713 -0.226833
-38.5276 86.8797 11.0112 0.251132 -0.924818 -0.285735
-37.3994 87.1526 11.1017 0.262385 -0.91886 -0.294703
-35.9986 87.4886 11.2235 0.22501 -0.907601 -0.354445
-34.6705 87.8113 11.3509 0.233775 -0.89267 -0.385344
-33.5093 88.0349 11.4474 0.207641 -0.874685 -0.437964
-32.1377 88.3021 11.5679 0.200755 -0.86849 -0.453236
-31.1233 88.4847 11.6578 0.213055 -0.848207 -0.484925
-31.0487 87.9367 12.6145 0.148192 -0.846981 -0.510551
-32.1161 87.7798 12.5373 0.192313 -0.862156 -0.468724
-33.4486 87.5672 12.4434 0.173636 -0.891144 -0.419181
-34.4731 87.387 12.3652 0.200742 -0.888453 -0.412739
-35.6421 87.1702 12.2778 0.173013 -0.929249 -0.32644
-36.9944 86.922 12.1874 0.201379 -0.939807 -0.276061
-37.9058 86.696 12.1127 0.253993 -0.923268 -0.288208
-38.8431 86.5419 12.0657 0.18055 -0.958314 -0.221442
-39.8735 86.3252 12.0097 0.23443 -0.954749 -0.183024
-40.844 86.2493 11.9724 0.0555222 -0.994163 -0.0925026
-41.9361 86.1563 11.9333 0.0721392 -0.991542 -0.107887
-42.985 86.0779 11.8935 0.116181 -0.991881 -0.0517036
-44.065 85.9694 11.8409 0.11103 -0.993016 -0.0399054
-45.3888 85.8264 11.7842 0.111388 -0.993598 -0.018871
-46.5809 85.656 11.7204 0.148251 -0.9888 0.0171896
-47.6838 85.442 11.6667 0.223552 -0.974678 0.00525577
-49.1088 85.0212 11.571 0.33287 -0.942821 0.0169381
-50.3346 84.5637 11.472 0.357899 -0.933642 0.0148602
-51.3298 84.1433 11.4045 0.414542 -0.909656 0.0260898
-52.2171 83.699 11.3388 0.476607 -0.878682 -0.0276291
-53.0415 83.2777 11.2662 0.503603 -0.861841 -0.0601185
-53.9807 82.6586 11.1827 0.564846 -0.825133 -0.0102082
-54.8782 82.0358 11.0905 0.57405 -0.818386 -0.0266718
-55.6844 81.4325 10.9913 0.63068 -0.775182 -0.0365409
-56.3037 80.933 10.9014 0.621807 -0.782062 -0.0416568
-56.6679 80.5587 11.8876 0.652197 -0.753165 -0.0859181
-55.5696 81.4535 12.0696 0.630623 -0.772819 -0.0711741
-54.7875 82.066 12.1949 0.598272 -0.799653 -0.0512485
-53.8106 82.7231 12.3055 0.534205 -0.844674 -0.0339156
-52.8802 83.3052 12.4071 0.517271 -0.855079 -0.0356521
-51.6617 84.0093 12.5154 0.507376 -0.861376 -0.0245026
-50.8239 84.3744 12.5735 0.381394 -0.924125 0.0230689
-49.5527 84.8695 12.6798 0.34222 -0.9396 0.00614001
-48.446 85.2332 12.7602 0.27011 -0.962568 -0.0224448
-47.1772 85.5377 12.826 0.196186 -0.980434 -0.0161075
-46.086 85.7214 12.883 0.11862 -0.992736 -0.0201372
-45.1412 85.8316 12.926 0.100651 -0.994677 -0.0220732
-44.1138 85.9303 12.9767 0.0969162 -0.994953 -0.0260145
-42.6986 86.0486 13.0387 0.0686039 -0.996622 -0.0451422
-41.6615 86.1136 13.0712 0.0588036 -0.997244 -0.0452467
-40.6536 86.1758 13.107 0.0757699 -0.995802 -0.0513516
-39.7438 86.2505 13.1343 0.0830707 -0.993137 -0.0823306
-38.5368 86.3746 13.1716 0.101702 -0.990376 -0.0938696
-37.6342 86.5259 13.2199 0.183073 -0.970757 -0.15529
-36.2361 86.7156 13.2886 0.143491 -0.951577 -0.271867
-35.3411 86.8526 13.3414 0.17301 -0.929247 -0.326447
-34.3576 86.984 13.3949 0.125588 -0.921794 -0.366774
-32.9637 87.1666 13.4713 0.158817 -0.891853 -0.423528
-31.7781 87.3029 13.5312 0.0773315 -0.892769 -0.443828
-31.5601 87.3183 13.5382 0.111957 -0.878696 -0.464068
-31.8033 86.8297 14.5309 0.0928066 -0.907897 -0.408791
-33.0405 86.7566 14.4977 0.0734378 -0.93494 -0.347122
-34.4669 86.6116 14.439 0.118383 -0.94756 -0.296843
-35.4553 86.5197 14.4009 0.0944662 -0.955082 -0.280882
-36.5668 86.4273 14.3617 0.0537299 -0.966312 -0.251701
-37.7896 86.3157 14.3208 0.0635539 -0.985187 -0.159269
-39.2448 86.1954 14.2734 0.0539425 -0.994717 -0.0873421
-40.1475 86.1448 14.2507 0.0632772 -0.996925 -0.0462155
-41.0548 86.0892 14.2284 0.0461641 -0.998201 -0.0382509
-42.1606 86.0501 14.1988 0.0360039 -0.999014 -0.0259743
-43.0907 85.9884 14.1654 0.0744761 -0.99706 -0.0180268
-44.4309 85.8834 14.1072 0.0880311 -0.996065 -0.0102582
-45.5632 85.7698 14.0541 0.1266 -0.991919 -0.00829147
-46.5209 85.6472 14.0077 0.15374 -0.988014 -0.0138651
-47.6627 85.435 13.95 0.18389 -0.982945 0.00168887
-48.5629 85.187 13.8999 0.282463 -0.959236 0.00895716
-49.6231 84.8469 13.8271 0.353882 -0.935159 0.0156457
-51.0626 84.304 13.697 0.367284 -0.930046 0.0108545
-51.9523 83.8154 13.6189 0.512427 -0.858583 -0.0159457
-52.914 83.2365 13.5311 0.541263 -0.84082 -0.00753104
-53.8237 82.6721 13.4183 0.529277 -0.848072 -0.025273
-54.5971 82.1077 13.3039 0.626879 -0.776159 -0.06783
-55.5644 81.3538 13.1378 0.623466 -0.778045 -0.0770418
-56.5075 80.5779 12.9672 0.649671 -0.757944 -0.0587201
-57.1789 79.9962 12.824 0.676222 -0.726359 -0.122994
-57.7 79.3481 13.7244 0.683249 -0.71248 -0.159824
-56.8952 80.0835 13.9243 0.697421 -0.704836 -0.129656
-56.1635 80.765 14.1089 0.658261 -0.742568 -0.123635
-55.2884 81.453 14.2718 0.637695 -0.765266 -0.0878299
-54.4375 82.1487 14.4218 0.634247 -0.77001 -0.0693908
-53.2665 83.0118 14.6162 0.55411 -0.832313 -0.014746
-52.3512 83.5978 14.7199 0.496376 -0.867535 -0.0315385
-51.5176 84.0611 14.7994 0.4635 -0.885609 -0.0294042
-50.5232 84.5432 14.9107 0.397739 -0.917492 -0.00350461
-49.4868 84.8986 14.9942 0.304491 -0.952476 -0.00859959
-48.4324 85.2159 15.0571 0.259497 -0.964027 -0.0575564
-47.5024 85.44 15.1091 0.210171 -0.975551 -0.0642564
-46.5696 85.6234 15.1615 0.153739 -0.988014 -0.0138544
-45.6535 85.7463 15.2065 0.13578 -0.990724 -0.00544162
-44.6106 85.8538 15.2553 0.0845886 -0.996366 -0.00998285
-43.5381 85.9396 15.3007 0.0699605 -0.997396 -0.0174866
-42.524 86.0087 15.337 0.0485775 -0.99857 -0.022331
-41.3506 86.0443 15.3656 0.0353693 -0.998906 -0.0305868
-40.3144 86.0814 15.3905 0.0498816 -0.998024 -0.0382048
-39.2925 86.1135 15.4146 0.0190898 -0.997308 -0.0708019
-37.9522 86.1508 15.4386 0.0286193 -0.989476 -0.141841
-36.5074 86.1862 15.4596 0.0242762 -0.98787 -0.153372
-35.5856 86.1998 15.4714 0.0486886 -0.976498 -0.209954
-34.5711 86.3032 15.509 0.107283 -0.963192 -0.24648
-33.627 86.3503 15.5284 0.0316096 -0.955782 -0.292373
-32.3076 86.3867 15.5444 0.0327373 -0.937249 -0.34712
-32.1127 86.3977 15.5491 0.061015 -0.92657 -0.371141
-32.0834 86.0298 16.5936 -0.0453214 -0.935534 -0.350318
-33.3363 86.0444 16.5983 -0.00217068 -0.962014 -0.272991
-34.4654 86.0144 16.5886 0.0244331 -0.960847 -0.276001
-35.5725 86.0056 16.5803 -0.0101365 -0.984979 -0.172376
-36.5747 86.0114 16.5748 0.00231889 -0.989964 -0.141301
-37.8859 86.0378 16.5713 0.00597009 -0.993433 -0.11426
-38.864 86.0402 16.5633 -0.0123175 -0.996921 -0.0774362
-39.9269 86.0329 16.5477 0.0123653 -0.99838 -0.0555382
-41.2882 86.0031 16.5168 0.028354 -0.998839 -0.0389525
-42.4863 85.9797 16.4858 0.0344212 -0.997473 -0.0621456
-43.8694 85.863 16.4445 0.0917342 -0.994314 -0.0540725
-45.2037 85.7822 16.3932 0.0718878 -0.994713 -0.0733397
-46.676 85.5534 16.3187 0.168429 -0.984287 -0.0530141
-47.8635 85.293 16.2443 0.209496 -0.977182 -0.0350348
-48.7665 85.0734 16.1934 0.243953 -0.968969 -0.0398343
-50.0081 84.6766 16.1085 0.39593 -0.913963 -0.0889397
-51.091 84.1947 15.9945 0.436057 -0.897327 -0.068261
-51.8999 83.8075 15.9108 0.472243 -0.87996 -0.0515379
-52.7484 83.3117 15.8211 0.546355 -0.832537 -0.0915348
-53.4931 82.7744 15.691 0.613658 -0.785052 -0.0843701
-54.3981 82.0717 15.5215 0.63631 -0.765889 -0.092318
-55.3503 81.2821 15.3441 0.648907 -0.754207 -0.100457
-56.1774 80.5305 15.1403 0.684834 -0.706183 -0.179747
-57.2958 79.5034 14.8443 0.696712 -0.703372 -0.140928
-57.9599 78.8885 14.6623 0.673889 -0.721226 -0.160332
-58.2465 78.387 15.5679 0.657597 -0.724819 -0.205436
-57.5797 78.9695 15.7458 0.678692 -0.70871 -0.192633
-56.8239 79.6625 15.9637 0.701415 -0.685401 -0.195556
-56.1176 80.3256 16.1727 0.693203 -0.695879 -0.187676
-55.1517 81.2631 16.4314 0.68499 -0.703144 -0.190728
-54.0755 82.1288 16.6654 0.631082 -0.7572 -0.168473
-52.9924 82.9363 16.8834 0.622145 -0.769491 -0.144291
-52.0778 83.5989 17.0333 0.594946 -0.795282 -0.11647
-50.9307 84.1967 17.1658 0.417724 -0.907456 -0.0450601
-49.749 84.6741 17.2808 0.376845 -0.921095 -0.0978383
-48.5981 85.1063 17.3818 0.305281 -0.950546 -0.0571418
-47.6702 85.2994 17.4377 0.197343 -0.979032 -0.0505103
-46.4705 85.5065 17.5032 0.140887 -0.986488 -0.0836192
-45.3864 85.6598 17.5586 0.11421 -0.989336 -0.0903928
-44.0846 85.7606 17.6038 0.0838038 -0.990837 -0.105919
-43.1035 85.84 17.6324 0.0739524 -0.99367 -0.0845582
-41.9521 85.9029 17.6613 0.0484109 -0.995032 -0.0869935
-40.6892 85.9447 17.6875 0.0203393 -0.994935 -0.0984399
-39.7181 85.9504 17.7015 -0.0107146 -0.995655 -0.0925031
-38.5694 85.9214 17.7012 -0.0389648 -0.991731 -0.122278
-37.5665 85.8596 17.6934 -0.0414168 -0.988415 -0.146012
-36.4474 85.8147 17.6878 -0.049912 -0.983084 -0.176221
-35.3077 85.7761 17.6805 -0.0442085 -0.974093 -0.221785
-34.2328 85.7496 17.6726 0.00150564 -0.973916 -0.226903
-33.1315 85.713 17.6581 -0.0514871 -0.951187 -0.30429
-32.4885 85.6846 17.6472 -0.0517389 -0.94816 -0.313553
-32.4279 85.3182 18.6936 -0.0916444 -0.940405 -0.327474
-33.598 85.4081 18.7312 -0.0693593 -0.947543 -0.312013
-34.7977 85.4987 18.7642 -0.0883892 -0.966546 -0.240784
-35.7427 85.5541 18.784 -0.0671933 -0.97627 -0.205867
-37.0651 85.6309 18.8051 -0.0715741 -0.980265 -0.184278
-38.2766 85.7418 18.8293 -0.0774305 -0.98426 -0.158858
-39.2634 85.7911 18.8406 -0.0477881 -0.989399 -0.137133
-40.3432 85.8235 18.8464 0.0275197 -0.992188 -0.121679
-41.8477 85.7794 18.8242 0.0336312 -0.992526 -0.117305
-43.0188 85.7268 18.7968 0.0833494 -0.987964 -0.130306
-44.2167 85.6249 18.7616 0.0766717 -0.989363 -0.123619
-45.3279 85.5437 18.7291 0.0913724 -0.989542 -0.111611
-46.6207 85.3935 18.6756 0.145534 -0.986201 -0.0789092
-47.7495 85.2223 18.6218 0.175339 -0.982332 -0.0654277
-48.6266 84.9704 18.5493 0.294377 -0.949528 -0.108348
-49.5992 84.6221 18.4555 0.391567 -0.915752 -0.0898461
-50.634 84.218 18.357 0.3418 -0.932666 -0.115359
-51.7178 83.6169 18.1942 0.524594 -0.828315 -0.19671
-52.5131 83.1284 18.0625 0.56611 -0.809556 -0.155365
-53.4585 82.4017 17.8806 0.649273 -0.743572 -0.159827
-54.2224 81.7458 17.6875 0.665978 -0.713703 -0.217028
-55.311 80.8431 17.4052 0.665719 -0.707623 -0.236828
-56.136 80.0151 17.1488 0.72476 -0.660754 -0.195262
-56.8562 79.3394 16.932 0.697962 -0.684368 -0.210925
-57.5706 78.6963 16.7244 0.670297 -0.705427 -0.230378
-58.2772 78.0885 16.53 0.674626 -0.707199 -0.211542
-58.3325 78.0405 16.5152 0.656323 -0.726448 -0.20375
-58.5374 77.5621 17.4325 0.655102 -0.719795 -0.229644
-57.5635 78.3861 17.6952 0.667162 -0.709423 -0.227185
-56.8961 78.9954 17.8944 0.692539 -0.67643 -0.250663
-55.9752 79.8564 18.1826 0.714175 -0.657204 -0.24091
-55.0789 80.6905 18.468 0.675311 -0.694858 -0.24724
-54.1752 81.4861 18.7257 0.677252 -0.703999 -0.213811
-53.1746 82.3389 18.995 0.654786 -0.723025 -0.220204
-52.2717 83.0091 19.1923 0.538166 -0.818068 -0.202836
-51.4096 83.4952 19.3298 0.501148 -0.825263 -0.260369
-50.0843 84.2278 19.555 0.432929 -0.867243 -0.245891
-48.9449 84.6393 19.6679 0.315069 -0.919644 -0.234493
-48.0278 84.9366 19.7513 0.32979 -0.928539 -0.170453
-46.987 85.1826 19.8207 0.127788 -0.97652 -0.173432
-45.8455 85.3334 19.8703 0.143415 -0.974158 -0.174493
-44.4818 85.468 19.9186 0.0655405 -0.990688 -0.119343
-43.0817 85.5659 19.9574 0.0789205 -0.988005 -0.132735
-42.0808 85.6278 19.979 0.00197047 -0.987806 -0.155677
-41.0585 85.5952 19.9743 -0.0321633 -0.981626 -0.188084
-39.953 85.6229 19.9809 -0.0171267 -0.965612 -0.259423
-38.9063 85.5606 19.9653 -0.0866032 -0.971388 -0.221144
-37.5689 85.4453 19.9344 -0.0909896 -0.971563 -0.218602
-36.5387 85.3491 19.9033 -0.099078 -0.969492 -0.224207
-35.0549 85.2068 19.8499 -0.133799 -0.949115 -0.285093
-34.0218 85.0915 19.8026 -0.132253 -0.937356 -0.322294
-32.9719 84.977 19.7541 -0.115235 -0.923751 -0.365247
-32.57 84.9219 19.7291 -0.148929 -0.911379 -0.383679
-32.6955 84.5037 20.7555 -0.146915 -0.908385 -0.391476
-33.759 84.6436 20.8214 -0.140121 -0.909679 -0.390961
-34.7664 84.7769 20.8819 -0.146428 -0.912925 -0.380954
-36.0043 84.9558 20.9605 -0.176655 -0.919546 -0.351039
-37.1892 85.0986 21.0203 -0.109572 -0.937787 -0.329469
-38.5073 85.2489 21.0728 -0.109689 -0.947272 -0.301072
-39.9766 85.3276 21.0991 -0.0219304 -0.970159 -0.241475
-41.2039 85.3635 21.1194 -0.0309939 -0.974283 -0.223184
-42.1689 85.3865 21.1248 0.0311235 -0.973084 -0.22834
-43.4559 85.2781 21.0846 0.055964 -0.972531 -0.225947
-44.4244 85.263 21.071 0.0452074 -0.978918 -0.19919
-45.612 85.0767 21.0074 0.140637 -0.958935 -0.246304
-46.7301 84.966 20.9677 0.103188 -0.960917 -0.256887
-47.8331 84.7267 20.8971 0.29428 -0.91938 -0.261036
-48.9462 84.3579 20.7954 0.358379 -0.888135 -0.287718
-49.8649 83.9956 20.6783 0.453445 -0.848495 -0.272846
-50.8893 83.4448 20.5071 0.505579 -0.825367 -0.251313
-52.0352 82.8062 20.3135 0.493707 -0.822271 -0.283061
-52.8576 82.2409 20.1176 0.64838 -0.704708 -0.28808
-53.6019 81.6176 19.9053 0.651932 -0.710905 -0.263815
-54.3975 80.9705 19.6828 0.665463 -0.706127 -0.241957
-55.1252 80.2982 19.4457 0.704796 -0.661438 -0.256443
-56.0877 79.3801 19.1091 0.706558 -0.662919 -0.247619
-56.8077 78.7203 18.8811 0.694299 -0.675259 -0.248946
-57.6947 77.9409 18.6274 0.670959 -0.701297 -0.240826
-58.8282 77.0099 18.3325 0.63263 -0.733555 -0.248347
-58.6883 76.7933 19.3395 0.637963 -0.725407 -0.258433
-57.7782 77.5061 19.5642 0.64787 -0.709955 -0.276095
-56.6781 78.4561 19.8854 0.689934 -0.67004 -0.273931
-55.8535 79.2162 20.1583 0.709996 -0.65016 -0.270551
-55.2105 79.8342 20.3923 0.70524 -0.647307 -0.289189
-54.4994 80.4493 20.6317 0.677019 -0.670453 -0.303544
-53.8119 81.0305 20.8467 0.664275 -0.682961 -0.303816
-52.8371 81.8018 21.1363 0.636467 -0.694805 -0.334896
-52.0662 82.3978 21.3648 0.634143 -0.702424 -0.323207
-51.169 82.9347 21.5371 0.515397 -0.801839 -0.302356
-50.1863 83.4671 21.7077 0.408818 -0.842937 -0.349749
-49.2558 83.86 21.8467 0.404447 -0.844715 -0.350542
-48.2147 84.2747 21.9835 0.331126 -0.900796 -0.280932
-47.0129 84.555 22.0733 0.214054 -0.900342 -0.378899
-46.0185 84.6776 22.1116 0.193776 -0.936466 -0.292374
-45.0707 84.856 22.1682 0.180319 -0.942509 -0.281356
-44.1065 84.9505 22.2026 0.0420545 -0.959564 -0.278331
-43.1513 84.9909 22.2251 0.047036 -0.960746 -0.273412
-41.9164 85.103 22.2672 0.0326542 -0.959038 -0.281389
-40.7158 85.0751 22.2486 -0.0690214 -0.944807 -0.320274
-39.4949 84.9962 22.2111 -0.0716668 -0.950806 -0.301384
-38.1684 84.865 22.1597 -0.139193 -0.927502 -0.346938
-37.0113 84.701 22.0853 -0.154046 -0.916827 -0.368373
-36.0244 84.5429 22.0121 -0.178918 -0.909009 -0.376418
-34.5017 84.2822 21.8854 -0.176343 -0.899905 -0.39884
-33.1736 84.1027 21.7947 -0.163983 -0.884475 -0.436822
-33.134 84.0961 21.7911 -0.187246 -0.871284 -0.453655
-33.2004 83.591 22.7764 -0.188232 -0.86546 -0.464271
-34.4568 83.8042 22.8922 -0.202751 -0.853131 -0.480687
-35.3856 83.9743 22.9821 -0.195241 -0.852056 -0.485676
-36.336 84.1383 23.07 -0.19393 -0.848529 -0.492331
-37.4911 84.3229 23.1645 -0.138758 -0.887327 -0.439769
-38.6699 84.4652 23.2328 -0.123719 -0.874809 -0.468405
-39.8398 84.5953 23.3048 -0.127851 -0.874626 -0.467636
-41.104 84.6797 23.3528 -0.111192 -0.922567 -0.369467
-42.1098 84.7126 23.3713 0.0963103 -0.924429 -0.368992
-43.206 84.6145 23.3404 0.0765891 -0.924528 -0.373339
-44.1207 84.5594 23.3212 0.0635935 -0.922353 -0.38108
-45.128 84.4656 23.2931 0.187388 -0.924083 -0.333101
-46.2441 84.2627 23.2281 0.205447 -0.914828 -0.347681
-47.2345 84.0604 23.1522 0.207381 -0.908005 -0.364032
-48.1988 83.866 23.0853 0.309827 -0.884185 -0.349605
-49.4337 83.3427 22.8847 0.414459 -0.84019 -0.349721
-50.4255 82.9254 22.731 0.409049 -0.842296 -0.351023
-51.2954 82.4279 22.5482 0.560596 -0.746428 -0.358577
-52.4908 81.5918 22.2269 0.635132 -0.694879 -0.337271
-53.5922 80.7422 21.8925 0.63827 -0.703317 -0.31298
-54.3594 80.1225 21.6557 0.683705 -0.66449 -0.301664
-55.2568 79.3367 21.3426 0.69403 -0.650753 -0.307964
-56.0384 78.6282 21.0591 0.701976 -0.643385 -0.305426
-56.7344 78.0094 20.8377 0.682443 -0.671795 -0.288034
-57.4842 77.3685 20.6173 0.635184 -0.719871 -0.27987
-58.5345 76.5658 20.3512 0.61864 -0.733065 -0.282665
-59.0211 76.2134 20.241 0.604934 -0.751678 -0.262747
-58.9997 75.8589 21.2153 0.606856 -0.743437 -0.281118
-57.9345 76.64 21.4718 0.618642 -0.733065 -0.282662
-56.7711 77.5652 21.787 0.663395 -0.693798 -0.28027
-55.6836 78.5009 22.1405 0.680384 -0.66136 -0.315723
-54.906 79.1888 22.4212 0.691626 -0.648939 -0.317067
-54.1195 79.887 22.7102 0.682079 -0.647152 -0.340533
-53.2765 80.5216 22.9732 0.624416 -0.704089 -0.338176
-52.4538 81.1447 23.2226 0.634185 -0.696687 -0.335316
-51.5148 81.787 23.4913 0.548581 -0.731502 -0.404923
-50.5839 82.3487 23.7182 0.495783 -0.768874 -0.403773
-49.4059 82.888 23.9392 0.42101 -0.803407 -0.421055
-48.5625 83.2356 24.0844 0.400498 -0.813803 -0.421101
-47.4622 83.5634 24.2287 0.235916 -0.879323 -0.413684
-46.1663 83.8402 24.3323 0.204735 -0.88247 -0.423474
-45.207 84.0089 24.3957 0.12399 -0.882028 -0.454591
-43.8746 84.1088 24.4136 0.053914 -0.901604 -0.429188
-42.7391 84.1852 24.4298 0.0802258 -0.881798 -0.464754
-41.8125 84.2311 24.4432 -0.0519747 -0.91362 -0.403233
-40.4821 84.1248 24.378 -0.13491 -0.880893 -0.453682
-39.2905 83.9923 24.2914 -0.147194 -0.870786 -0.469111
-38.3775 83.8933 24.2291 -0.10426 -0.854765 -0.508435
-37.4648 83.8039 24.1776 -0.204911 -0.81828 -0.537057
-36.1485 83.5396 24.0262 -0.207907 -0.829753 -0.517962
-34.6869 83.2979 23.8879 -0.195242 -0.85206 -0.485668
-33.5835 83.0909 23.7689 -0.184609 -0.851729 -0.490384
-33.5032 83.0798 23.7626 -0.175659 -0.836537 -0.51899
-34.1094 82.5998 24.7651 -0.21016 -0.826987 -0.521465
-35.2192 82.8005 24.8927 -0.197979 -0.832179 -0.51796
-36.1303 82.9496 24.9857 -0.190456 -0.83788 -0.51155
-37.5453 83.1759 25.1356 -0.18442 -0.814781 -0.549656
-38.4658 83.3115 25.2253 -0.13384 -0.857972 -0.495954
-39.4309 83.4343 25.3054 -0.137683 -0.79891 -0.58548
-40.5092 83.5522 25.388 -0.114231 -0.803774 -0.583866
-41.4815 83.6274 25.4444 -0.00735021 -0.802391 -0.596753
-42.6157 83.6245 25.4622 -0.0304371 -0.828653 -0.558935
-43.6117 83.5996 25.4726 0.0331209 -0.875612 -0.481879
-44.7353 83.5077 25.4471 0.172747 -0.853287 -0.491996
-45.7091 83.3452 25.3848 0.179594 -0.8561 -0.484601
-46.6822 83.1749 25.3166 0.183268 -0.857054 -0.481531
-47.9959 82.9096 25.1987 0.317481 -0.816109 -0.482878
-49.2065 82.448 24.9863 0.404549 -0.809397 -0.425696
-50.2471 81.9848 24.7917 0.467155 -0.779978 -0.416413
-51.1296 81.4726 24.5613 0.562884 -0.727201 -0.392861
-51.9346 80.9745 24.3455 0.580976 -0.706418 -0.404278
-52.687 80.4552 24.1201 0.591499 -0.71728 -0.368292
-53.4829 79.8615 23.8701 0.653093 -0.675811 -0.341685
-54.2003 79.2919 23.6166 0.666678 -0.65634 -0.353212
-55.069 78.5783 23.3079 0.677873 -0.65319 -0.337389
-55.807 77.9432 23.0493 0.667223 -0.677003 -0.310612
-56.6155 77.2713 22.8058 0.661462 -0.686159 -0.302743
-57.3618 76.6909 22.6009 0.63911 -0.707224 -0.302279
-58.3016 75.9763 22.3597 0.615205 -0.731694 -0.293507
-58.8576 75.5872 22.2332 0.584178 -0.761137 -0.281789
-58.5916 75.4091 23.2873 0.590373 -0.76002 -0.271716
-57.7489 76.0092 23.484 0.620536 -0.73082 -0.284318
-56.6271 76.8384 23.7697 0.623392 -0.717182 -0.3115
