-29.017 90.5499 12.3311 0.170157 -0.813028 -0.556805
-28.8725 91.146 11.6262 0.2875 -0.770226 -0.56624
-28.6263 91.7169 10.8819 0.302221 -0.809329 -0.503636
-28.3015 92.3549 10.1884 0.415125 -0.811313 -0.411634
-27.7746 92.951 9.54486 0.420165 -0.809353 -0.410338
-26.9397 93.6034 8.87683 0.390638 -0.866164 -0.311708
-26.1192 94.1035 8.42118 0.346573 -0.885772 -0.308644
-25.4367 94.5363 7.93169 0.339014 -0.890975 -0.301961
-24.5271 95.08 7.20607 0.317281 -0.916569 -0.24338
-23.7675 95.4268 6.54014 0.231459 -0.941704 -0.244173
-22.772 95.8576 5.79117 0.251179 -0.948171 -0.189872
-21.7365 96.2497 4.82699 0.200194 -0.96746 -0.154416
-20.8226 96.5397 3.9896 0.169562 -0.977043 -0.128979
-19.9444 96.8628 3.24083 0.247214 -0.964173 -0.0175301
-18.9701 97.0193 2.88674 0.191068 -0.980217 0.0455478
-18.1285 97.1889 2.51705 0.217271 -0.975137 0.0436094
-17.2058 97.3152 2.34483 0.108086 -0.993714 0.0282183
-16.2885 97.4063 2.18594 0.0911103 -0.99503 0.0376684
-15.2717 97.3976 2.06238 -0.0252874 -0.991939 0.124168
-13.9105 97.3571 2.10033 -0.102329 -0.968162 0.228454
-12.8884 97.2098 2.09294 -0.20212 -0.949226 0.241078
-11.8808 96.953 1.90676 -0.213568 -0.928872 0.29669
-10.7693 96.3909 1.33781 -0.335103 -0.884973 0.322206
-10.1653 95.8486 0.553846 -0.38315 -0.845494 0.371936
-9.81338 95.2478 -0.27652 -0.463857 -0.804042 0.371958
-9.54436 94.5741 -1.32482 -0.551895 -0.755096 0.353894
-9.77952 94.2955 -2.29119 -0.554549 -0.763622 0.330205
-10.0507 94.1304 -3.14776 -0.531809 -0.779306 0.331454
-10.5348 94.1357 -4.08652 -0.549626 -0.807828 0.212897
-11.2967 94.3712 -5.08067 -0.529526 -0.817341 0.227061
-12.1108 94.7072 -5.81097 -0.519222 -0.829181 0.207042
-13.1416 95.1958 -6.64903 -0.50908 -0.848614 0.137493
-14.5452 95.9045 -7.29974 -0.481794 -0.872207 0.0787649
-15.8883 96.5695 -7.63064 -0.475633 -0.875631 0.0800836
-16.7043 97.0269 -7.73287 -0.571194 -0.812343 0.018575
-17.6271 97.5098 -7.68879 -0.429699 -0.888488 -0.161086
-18.543 97.7604 -7.49769 -0.274488 -0.950041 -0.14859
-19.4925 97.9121 -7.13092 -0.11269 -0.9756 -0.188427
-20.4436 97.9052 -6.55516 -0.0736373 -0.983595 -0.164656
-21.5603 97.9146 -6.07066 -0.0728328 -0.986907 -0.143911
-22.3828 97.8322 -5.56384 0.0109582 -0.983544 -0.180334
-23.4452 97.6643 -4.87373 0.0599719 -0.971715 -0.221317
-24.4561 97.4954 -4.29148 0.0781446 -0.980336 -0.180389
-25.183 97.2888 -3.60397 0.110693 -0.973333 -0.200722
-26.1069 97.033 -2.95376 0.141802 -0.968902 -0.202784
-26.7626 96.8128 -2.36099 0.142048 -0.968774 -0.203223
-27.5692 96.5368 -1.7361 0.183692 -0.953178 -0.23834
-28.4716 96.1638 -1.03879 0.208329 -0.95045 -0.230745
-29.5642 95.7073 -0.218785 0.215713 -0.940929 -0.260998
-30.2184 95.3809 0.319779 0.256818 -0.93006 -0.262739
-30.9034 95.0102 0.972241 0.255204 -0.927727 -0.271753
-31.8762 94.5105 1.65826 0.279542 -0.915088 -0.29063
-32.6014 94.1348 2.13823 0.262789 -0.919673 -0.291227
-33.3887 93.7833 2.57634 0.256217 -0.904056 -0.342104
-34.553 93.2149 3.2799 0.236324 -0.89599 -0.372637
-35.4753 92.8285 3.52455 0.272254 -0.870219 -0.410287
-36.4066 92.5598 3.3701 0.32219 -0.858718 -0.398377
-37.5742 92.2543 3.04006 0.345844 -0.849746 -0.3979
-38.4091 92.0849 2.56439 0.39212 -0.857372 -0.331847
-39.1196 91.9598 1.99889 0.387819 -0.870224 -0.303821
-39.7349 91.9936 1.01895 0.42617 -0.873777 -0.234291
-39.9566 92.101 -0.109315 0.346297 -0.925403 -0.139352
-40.0154 92.3223 -1.55751 0.25641 -0.955005 -0.142568
-39.8985 92.5191 -2.53764 0.229689 -0.962864 -0.1419
-39.7216 92.6719 -3.63381 0.163068 -0.980276 -0.109081
-39.519 92.8215 -4.50484 0.145155 -0.981989 -0.119789
-39.1813 92.9891 -5.61635 0.134052 -0.985091 -0.107823
-38.9096 93.089 -6.62417 0.0867176 -0.994894 -0.051642
-38.6283 93.1521 -7.96833 0.0627285 -0.997999 -0.00791045
-38.2343 93.1657 -9.20083 0.0341425 -0.999321 0.0134835
-38.0307 93.1618 -10.1702 0.0227907 -0.999092 0.0293283
-37.9 93.1032 -11.2642 0.0184736 -0.997927 0.0616493
-37.6865 92.999 -12.3123 0.0246999 -0.991032 0.131318
-37.6046 92.8336 -13.2616 -0.0206002 -0.985205 0.170139
-37.5246 92.6393 -14.5263 0.0293713 -0.980179 0.18567
-37.5333 92.2334 -15.9868 0.0165577 -0.948511 0.315707
-37.6207 91.8976 -16.9391 0.0379529 -0.948275 0.31463
-37.7173 91.5272 -17.8432 0.0190209 -0.924865 0.379818
-37.8537 91.1103 -18.758 0.0593426 -0.919696 0.384353
-38.2105 90.5397 -19.8848 0.209663 -0.863607 0.458502
-38.7597 89.8652 -20.6684 0.0932736 -0.777869 0.620119
-39.1992 89.3285 -21.3003 0.0546557 -0.778068 0.625794
-40.0864 88.8596 -21.7402 0.0824513 -0.728534 0.68003
-41.2025 88.419 -22.0809 0.0606976 -0.704101 0.707501
-42.1101 88.266 -22.1671 0.0156949 -0.700643 0.71334
-43.6151 88.2852 -22.0935 0.0211985 -0.684741 0.728298
-44.5024 88.4642 -21.9202 -0.0135936 -0.679986 0.73302
-45.5768 88.8221 -21.59 -0.0238099 -0.714951 0.69869
-46.073 89.3665 -21.0625 -0.0651349 -0.711337 0.699047
-46.5602 90.225 -20.2477 -0.116755 -0.731522 0.670875
-46.5186 91.0388 -19.3028 -0.136718 -0.749322 0.647931
-46.4592 91.7114 -18.3156 -0.184909 -0.821508 0.539382
-46.3277 92.1949 -17.4622 -0.154507 -0.860392 0.485647
-46.2372 92.6781 -16.4634 -0.223984 -0.907005 0.356613
-46.4913 92.9907 -15.5389 -0.168904 -0.964266 0.204114
-46.9174 93.2454 -14.5047 -0.220442 -0.974277 0.0467924
-47.3566 93.4159 -13.2833 -0.294313 -0.950471 -0.0250994
-47.6495 93.4001 -12.2889 -0.238499 -0.940447 -0.203848
-47.8204 93.2833 -11.3919 -0.0264076 -0.995834 -0.0872718
-48.0616 93.2698 -10.3421 -0.129528 -0.987333 -0.0916291
-48.1273 93.1765 -9.40474 -0.125687 -0.984913 -0.118954
-47.9893 92.9788 -8.35919 -0.0983424 -0.970037 -0.222165
-48.0065 92.657 -7.23869 -0.0427061 -0.950367 -0.307762
-47.9331 92.375 -6.34184 -0.0308246 -0.954219 -0.297517
-47.9966 91.9549 -5.33042 -0.0368389 -0.913336 -0.405537
-48.0435 91.434 -4.46898 0.149748 -0.881845 -0.44713
-48.1719 90.9786 -3.61383 0.133168 -0.889567 -0.436451
-48.5519 90.1436 -2.29496 0.255138 -0.853628 -0.454119
-48.9261 89.4801 -1.62708 0.3581 -0.749912 -0.556235
-49.4203 88.8713 -0.95143 0.427848 -0.793076 -0.433563
-49.8305 88.2815 -0.324598 0.522511 -0.771076 -0.356025
-50.3031 87.7407 0.298208 0.522431 -0.804845 -0.281159
-51.1023 87.0543 0.975639 0.51144 -0.831822 -0.215642
-51.7022 86.5817 1.51716 0.48132 -0.858639 -0.174152
-52.2865 86.1387 2.23703 0.46213 -0.879902 -0.110495
-53.0361 85.5801 3.22151 0.504467 -0.858524 -0.0804845
-53.6508 85.1861 4.18007 0.497163 -0.86687 -0.0366532
-54.2717 84.7993 5.04876 0.527124 -0.84841 -0.0305008
-54.9265 84.3774 5.95375 0.541682 -0.839684 0.0388708
-55.377 84.1218 6.71034 0.550841 -0.833903 0.0318277
-56.0367 83.7324 7.88667 0.561704 -0.825343 0.0574263
-56.529 83.4369 8.62814 0.566797 -0.823107 0.0351623
-57.2656 82.8722 9.71785 0.622066 -0.782937 -0.00657488
-57.7097 82.4788 10.4771 0.657344 -0.752447 -0.0349254
-58.1375 82.0443 11.2405 0.677894 -0.731952 -0.0633718
-58.5051 81.6051 12.0173 0.694387 -0.713063 -0.0967872
-58.8703 81.1472 12.7411 0.709031 -0.694162 -0.122327
-59.2234 80.5917 13.6517 0.711669 -0.688458 -0.139711
-59.5026 80.044 14.7625 0.715847 -0.67954 -0.160587
-59.6659 79.5868 15.6752 0.713879 -0.671773 -0.195924
-59.7298 79.2296 16.5749 0.709865 -0.662613 -0.237849
-59.7564 78.8859 17.495 0.720337 -0.651324 -0.238037
-59.5721 78.7432 18.4591 0.693779 -0.674643 -0.24822
-59.3807 78.4815 19.5856 0.662981 -0.707907 -0.243562
-59.1654 78.2561 20.7824 0.664532 -0.693216 -0.278885
-59.0944 77.8628 21.969 0.639726 -0.718054 -0.272657
-59.0997 77.8046 22.0971 0.630885 -0.715715 -0.299561
-58.0134 81.1582 16.7675 0.753804 -0.623869 -0.20632
-57.9017 80.9426 17.8027 0.755614 -0.612089 -0.233227
-57.7671 80.6984 18.8152 0.759039 -0.593643 -0.267295
-57.5949 80.3883 19.8975 0.74867 -0.599231 -0.283577
-57.4148 80.0593 21.0805 0.722704 -0.622956 -0.299373
-57.2174 79.6482 22.4167 0.714516 -0.626119 -0.312158
-57.0609 79.3258 23.3734 0.703336 -0.635655 -0.318215
-56.892 78.9449 24.5469 0.699526 -0.643903 -0.309923
-56.7169 78.559 25.7174 0.679691 -0.653143 -0.333804
-56.5789 78.2492 26.625 0.650395 -0.69297 -0.311093
-56.4223 77.749 27.9801 0.653337 -0.66926 -0.353897
-56.3137 77.4104 28.8303 0.622926 -0.702085 -0.345021
-56.2083 77.0838 29.6933 0.587942 -0.739914 -0.326881
-56.0474 76.6329 30.9003 0.558538 -0.749383 -0.355612
-55.8834 76.1663 32.1353 0.519169 -0.779242 -0.351062
-55.8056 75.7719 33.2053 0.499109 -0.800547 -0.331685
-55.7228 75.2847 34.4135 0.445343 -0.826068 -0.345372
-55.6635 74.9667 35.2581 0.398938 -0.856623 -0.327179
-55.5913 74.5001 36.4915 0.370297 -0.872893 -0.317709
-54.5614 74.3417 37.9507 0.293606 -0.904814 -0.308394
-54.5975 74.787 36.7691 0.338757 -0.876102 -0.343059
-54.665 75.3245 35.4599 0.380098 -0.843824 -0.378796
-54.7559 75.8278 34.3611 0.414176 -0.827781 -0.378466
-54.8275 76.2502 33.3788 0.460989 -0.800068 -0.383902
-54.9183 76.6613 32.49 0.492741 -0.771832 -0.401848
-55.0092 77.003 31.6568 0.516352 -0.771072 -0.372597
-55.2059 77.5444 30.3414 0.579533 -0.71821 -0.385118
-55.3769 77.9931 29.3359 0.605675 -0.700062 -0.378247
-55.5291 78.4745 28.2117 0.639951 -0.665129 -0.384794
-55.6359 78.8183 27.3743 0.673579 -0.655187 -0.342083
-55.8328 79.2445 26.2515 0.689398 -0.636893 -0.345107
-56.0123 79.6162 25.1721 0.701019 -0.628834 -0.336363
-56.1627 79.9236 24.2341 0.732181 -0.593483 -0.334199
-56.3997 80.4117 22.8178 0.737708 -0.593502 -0.321781
-56.5446 80.7331 21.892 0.744706 -0.591472 -0.309151
-56.761 81.1281 20.583 0.755489 -0.579583 -0.305484
-56.9178 81.3961 19.6282 0.761773 -0.582306 -0.28394
-57.1204 81.8026 18.0377 0.777968 -0.590703 -0.214094
-57.2157 82.0123 17.1127 0.774532 -0.599879 -0.200614
-57.2969 82.1728 16.2278 0.773993 -0.606959 -0.180377
-57.3801 82.3973 14.6853 0.723398 -0.682312 -0.105572
-57.3853 82.4227 14.4849 0.7234 -0.682309 -0.105576
-56.5589 83.4349 12.6857 0.690336 -0.723451 0.00744592
-56.5652 83.3507 14.0548 0.71227 -0.694804 -0.0995887
-56.537 83.1929 15.553 0.724373 -0.685413 -0.0741153
-56.467 82.9615 17.1086 0.77089 -0.608877 -0.187075
-56.3863 82.7642 18.052 0.769444 -0.595902 -0.229907
-56.235 82.401 19.4089 0.762084 -0.590679 -0.265191
-56.046 82.0812 20.5534 0.759296 -0.582682 -0.289745
-55.8872 81.8287 21.4329 0.756935 -0.57416 -0.312074
-55.7288 81.5101 22.3931 0.758594 -0.567238 -0.320587
-55.5463 81.074 23.5415 0.731805 -0.586754 -0.346671
-55.3459 80.6797 24.6713 0.723848 -0.59511 -0.349125
-55.1292 80.2793 25.7902 0.703183 -0.624302 -0.340266
-54.9695 79.954 26.7022 0.702032 -0.619177 -0.351811
-54.7787 79.545 27.6989 0.669148 -0.62952 -0.3949
-54.6302 79.1626 28.5122 0.65142 -0.644581 -0.400209
-54.417 78.5663 29.7586 0.607369 -0.652428 -0.453255
-54.1936 77.9698 30.9899 0.561102 -0.687095 -0.46159
-54.0063 77.4127 32.1661 0.49949 -0.743109 -0.445308
-53.8773 76.8667 33.2546 0.483406 -0.760843 -0.432938
-53.781 76.3343 34.3185 0.403282 -0.801666 -0.441242
-53.7178 75.9406 35.1366 0.400745 -0.817127 -0.414375
-53.6413 75.394 36.2608 0.348085 -0.850872 -0.393513
-53.5811 74.9226 37.3381 0.282897 -0.878376 -0.385258
-53.5435 74.5258 38.3301 0.289266 -0.895495 -0.338251
-53.5239 74.2385 39.0678 0.246836 -0.902246 -0.353587
-52.4765 74.1018 40.1595 0.200086 -0.914338 -0.352069
-52.511 74.559 38.9571 0.246834 -0.902246 -0.353589
-52.5451 75.0344 37.8279 0.266935 -0.874492 -0.40498
-52.5969 75.4528 36.93 0.307502 -0.85578 -0.416033
-52.6634 75.8995 36.0102 0.299294 -0.833919 -0.463683
-52.7285 76.3563 35.1528 0.33857 -0.822114 -0.45771
-52.8066 76.8289 34.3243 0.380024 -0.794092 -0.474341
-52.8994 77.2945 33.4556 0.417934 -0.750702 -0.511641
-53.0149 77.807 32.6092 0.419782 -0.749339 -0.512127
-53.1891 78.371 31.5577 0.526731 -0.711544 -0.465037
-53.4683 79.145 30.164 0.570932 -0.662558 -0.484823
-53.6362 79.5831 29.3117 0.59316 -0.653387 -0.470368
-53.8153 79.9942 28.4888 0.612176 -0.657533 -0.439195
-54.0593 80.5433 27.3053 0.661085 -0.640693 -0.390485
-54.2115 80.8848 26.4795 0.685933 -0.631466 -0.361588
-54.435 81.3308 25.32 0.691714 -0.619949 -0.370399
-54.6785 81.7593 24.1846 0.689856 -0.615396 -0.381295
-54.8242 82.1129 23.294 0.707963 -0.613892 -0.349177
-55.0004 82.516 22.2613 0.705656 -0.601277 -0.374854
-55.202 82.8671 21.1657 0.75643 -0.59326 -0.275419
-55.3743 83.1659 20.0759 0.74004 -0.62281 -0.253868
-55.4606 83.4199 19.0279 0.72241 -0.650946 -0.233224
-55.5882 83.7453 17.6657 0.706936 -0.676285 -0.207073
-55.6634 83.9667 16.3796 0.698736 -0.708488 -0.0990593
-55.6929 84.1287 14.8786 0.713108 -0.696527 -0.0795356
-55.706 84.2185 13.5773 0.646493 -0.762667 -0.0196606
-55.6794 84.255 12.5877 0.607305 -0.7937 0.0349537
-55.6088 84.2522 11.6541 0.613811 -0.787946 0.0487568
-55.5436 84.2329 10.8556 0.581594 -0.811576 0.0556229
-54.5025 84.8794 9.38107 0.541141 -0.837091 0.0802795
-54.5532 84.9067 10.391 0.538416 -0.841536 0.0438751
-54.664 84.989 11.7344 0.559953 -0.822451 0.100135
-54.7132 84.9841 12.703 0.60064 -0.79924 0.0211481
-54.7623 84.9426 14.1496 0.615008 -0.788179 -0.0232381
-54.7935 84.8983 15.4447 0.652319 -0.757853 -0.0117984
-54.7897 84.7943 16.6706 0.703275 -0.704495 -0.0953439
-54.7125 84.5551 18.0731 0.716887 -0.66452 -0.210918
-54.6227 84.3069 19.2609 0.721376 -0.670691 -0.1726
-54.5378 84.0705 20.2104 0.700242 -0.636764 -0.322788
-54.3338 83.702 21.4194 0.679436 -0.661869 -0.316696
-54.0938 83.2237 22.8328 0.688893 -0.631213 -0.356364
-53.9232 82.8492 23.7623 0.684392 -0.621943 -0.380518
-53.7746 82.5024 24.5962 0.684434 -0.6217 -0.380839
-53.6032 82.1587 25.4694 0.686074 -0.621149 -0.378783
-53.3586 81.6351 26.738 0.668755 -0.625528 -0.401849
-53.2001 81.2644 27.5748 0.591717 -0.661546 -0.460681
-52.9515 80.7028 28.6477 0.60559 -0.638014 -0.475605
-52.7569 80.2842 29.4649 0.605962 -0.641065 -0.471004
-52.4855 79.6268 30.5637 0.499257 -0.692643 -0.520565
-52.3259 79.1685 31.3267 0.475194 -0.686384 -0.550516
-52.1581 78.6255 32.1588 0.421044 -0.733163 -0.534036
-51.9908 77.9766 33.2041 0.421629 -0.747971 -0.512609
-51.8615 77.4335 34.0415 0.36425 -0.7635 -0.533282
-51.7344 76.7645 35.1651 0.354111 -0.786612 -0.505813
-51.6684 76.2975 35.9759 0.308328 -0.813384 -0.493295
-51.5853 75.7275 37.0554 0.283486 -0.849373 -0.445197
-51.5424 75.3161 37.8633 0.224461 -0.878453 -0.421827
-51.5184 74.8902 38.7783 0.215889 -0.883065 -0.41664
-51.4843 74.4643 39.7885 0.210461 -0.904245 -0.371546
-51.4543 74.126 40.6967 0.202129 -0.917238 -0.343246
-51.4535 74.1172 40.7208 0.202135 -0.917238 -0.343244
-50.4268 74.1682 41.0141 0.146702 -0.922776 -0.35632
-50.4693 74.5773 40.0048 0.173032 -0.904942 -0.388768
-50.5263 75.0959 38.8265 0.175655 -0.88272 -0.435833
-50.5787 75.7011 37.6013 0.228418 -0.865585 -0.445633
-50.6531 76.389 36.4057 0.26859 -0.81516 -0.513199
-50.7234 76.8998 35.5391 0.303344 -0.771578 -0.559151
-50.8358 77.6046 34.5055 0.331913 -0.777965 -0.533483
-50.9732 78.2096 33.5905 0.355643 -0.750469 -0.557058
-51.1829 78.9724 32.5017 0.413214 -0.709722 -0.570569
-51.369 79.6493 31.5069 0.450407 -0.679085 -0.579635
-51.6195 80.3805 30.4228 0.477479 -0.686697 -0.548143
-51.8534 80.9245 29.5485 0.525865 -0.653686 -0.544206
-52.0889 81.4728 28.5752 0.533926 -0.693484 -0.483738
-52.3148 82.0245 27.5483 0.554524 -0.663436 -0.502351
-52.5239 82.4982 26.6485 0.58027 -0.684571 -0.441191
-52.7022 82.9118 25.7318 0.638703 -0.65718 -0.400216
-52.8826 83.3309 24.724 0.652149 -0.649235 -0.391402
-53.0737 83.7654 23.6 0.622155 -0.706248 -0.337842
-53.2438 84.1378 22.5908 0.612795 -0.68892 -0.387132
-53.4345 84.4998 21.6083 0.659715 -0.65733 -0.364272
-53.6396 84.8598 20.5307 0.633927 -0.726403 -0.26547
-53.6895 85.0553 19.6264 0.570759 -0.786488 -0.235946
-53.7957 85.3353 18.4368 0.592117 -0.778483 -0.208232
-53.852 85.554 17.0064 0.603739 -0.790575 -0.102421
-53.8507 85.662 15.7754 0.621645 -0.781989 -0.0452919
-53.8113 85.6846 14.6681 0.521351 -0.851256 0.0596374
-53.7409 85.6501 13.6869 0.53641 -0.842567 0.0484267
-53.6867 85.6427 12.4624 0.539355 -0.841619 0.0278054
-53.6262 85.595 11.4617 0.517955 -0.851281 0.083924
-53.5638 85.5428 10.4561 0.517008 -0.854094 0.056795
-53.5005 85.4925 9.38179 0.495246 -0.866033 0.0686883
-53.4348 85.4338 8.26727 0.524941 -0.847854 0.0746966
-53.3993 85.4077 7.65678 0.486167 -0.869957 0.0825564
-52.3122 85.9157 6.38976 0.467911 -0.882437 0.0486263
-52.3706 85.9545 7.68867 0.444963 -0.894151 0.0500157
-52.4254 86.0001 8.6899 0.438856 -0.893513 0.095081
-52.4835 86.07 9.61091 0.453134 -0.888205 0.0759013
-52.5346 86.1177 10.5216 0.486066 -0.867516 0.105624
-52.6156 86.2052 11.6735 0.500369 -0.861697 0.0843215
-52.6829 86.2826 12.8499 0.513673 -0.855964 0.0588757
-52.6971 86.269 13.7552 0.484027 -0.875032 -0.00605123
-52.7579 86.3116 14.8921 0.443643 -0.895065 0.045154
-52.7697 86.2673 15.8918 0.440091 -0.895684 -0.063798
-52.7834 86.173 17.177 0.439214 -0.896509 -0.0579836
-52.7993 86.1059 18.1077 0.473537 -0.868601 -0.14593
-52.7046 85.8609 19.1851 0.49459 -0.83466 -0.242329
-52.6438 85.6636 20.1822 0.557542 -0.803386 -0.20909
-52.5753 85.4496 21.0683 0.527977 -0.778522 -0.339328
-52.4502 85.159 21.9299 0.556701 -0.744832 -0.367844
-52.2538 84.7847 22.9499 0.593848 -0.713485 -0.371864
-52.0378 84.3046 24.2735 0.596941 -0.719369 -0.355204
-51.8233 83.8209 25.3793 0.531571 -0.73169 -0.426686
-51.6435 83.3837 26.2875 0.520953 -0.721224 -0.456557
-51.4724 82.9528 27.1455 0.530843 -0.691737 -0.489597
-51.2759 82.4472 28.0882 0.539655 -0.689893 -0.482514
-51.1033 82.014 28.8974 0.493294 -0.691527 -0.527685
-50.9142 81.5251 29.6386 0.444876 -0.68954 -0.571507
-50.6993 80.9895 30.4385 0.406091 -0.679689 -0.61083
-50.5019 80.4466 31.1687 0.4141 -0.690635 -0.592912
-50.3136 79.7994 32.0719 0.38573 -0.702577 -0.597995
-50.1498 79.2386 32.8359 0.374152 -0.710859 -0.595558
-49.9862 78.5994 33.696 0.337094 -0.722933 -0.603105
-49.8557 77.8913 34.6119 0.288266 -0.737241 -0.611047
-49.7415 77.1007 35.7832 0.238988 -0.774634 -0.585515
-49.6653 76.496 36.6863 0.162046 -0.830079 -0.533583
-49.6142 76.0159 37.4489 0.169662 -0.840482 -0.514591
-49.5605 75.5654 38.3005 0.15997 -0.875871 -0.455257
-49.4931 75.0277 39.4 0.158053 -0.891074 -0.425448
-49.4365 74.5496 40.4765 0.13848 -0.907742 -0.396015
-49.4052 74.2119 41.2477 0.120633 -0.917507 -0.378984
-48.4153 74.4499 41.0119 0.094345 -0.913722 -0.395235
-48.4671 74.9477 39.8928 0.104009 -0.895659 -0.432409
-48.5237 75.4691 38.8174 0.141091 -0.870951 -0.470678
-48.5971 76.0484 37.7569 0.141512 -0.852908 -0.502517
-48.6938 76.7259 36.6537 0.192822 -0.806938 -0.558275
-48.7789 77.2707 35.8753 0.19388 -0.764141 -0.615223
-48.8831 78.0233 34.9078 0.183251 -0.769547 -0.611732
-48.9709 78.6066 34.1762 0.296112 -0.73064 -0.61521
-49.1031 79.3249 33.2546 0.308764 -0.712483 -0.630105
-49.3096 80.1745 32.2434 0.265077 -0.697079 -0.666194
-49.4922 80.787 31.4422 0.387533 -0.701736 -0.597817
-49.7076 81.4278 30.5937 0.398316 -0.684344 -0.610752
-49.9302 82.062 29.7304 0.357125 -0.706092 -0.61147
-50.1624 82.7118 28.7676 0.431898 -0.702795 -0.565281
-50.4041 83.4082 27.5634 0.492387 -0.720198 -0.488743
-50.5929 83.925 26.6429 0.510801 -0.714816 -0.477619
-50.801 84.4336 25.507 0.478092 -0.777367 -0.408814
-51.005 84.898 24.3418 0.468982 -0.775941 -0.421867
-51.2388 85.4349 23.1272 0.430536 -0.818766 -0.379818
-51.3872 85.7734 22.033 0.494948 -0.805647 -0.325513
-51.5139 86.1383 20.793 0.398746 -0.875801 -0.271982
-51.5741 86.3478 19.6877 0.424019 -0.878069 -0.221817
-51.6555 86.5768 18.7082 0.395683 -0.898443 -0.190356
-51.6469 86.7333 17.1316 0.439242 -0.896571 -0.0568118
-51.6506 86.796 16.1963 0.466081 -0.884369 -0.0257014
-51.6387 86.8238 15.2048 0.395729 -0.918257 0.0142436
-51.6151 86.8064 14.036 0.412607 -0.910613 0.0232259
-51.5701 86.7378 12.7978 0.395857 -0.915146 0.0761962
-51.511 86.6691 11.6042 0.365122 -0.928298 0.0703443
-51.4599 86.6095 10.6336 0.368739 -0.926491 0.0751376
-51.4116 86.5553 9.70029 0.376074 -0.922332 0.0887295
-51.3405 86.476 8.27725 0.408018 -0.912147 0.0388441
-51.3024 86.4553 7.19784 0.424635 -0.90441 0.0415758
-51.2612 86.4132 6.04087 0.412822 -0.909417 0.0503922
-51.2502 86.4373 5.0776 0.422464 -0.905705 -0.0349637
-50.2054 87.0107 3.72658 0.398227 -0.909268 -0.121026
-50.1843 86.9156 4.67089 0.408538 -0.908266 -0.090276
-50.198 86.8845 5.69914 0.377586 -0.925652 -0.0244455
-50.2183 86.8821 6.79988 0.36265 -0.93173 0.0190855
-50.2535 86.926 7.97805 0.325404 -0.944937 0.0347219
-50.2857 86.948 9.07119 0.313312 -0.949142 0.0310496
-50.3208 86.9954 10.0162 0.327882 -0.942223 0.0686197
-50.3772 87.0653 11.443 0.299212 -0.950626 0.0823547
-50.4346 87.1825 12.5098 0.334352 -0.937173 0.0995774
-50.4643 87.2315 13.4374 0.306577 -0.951351 0.0306745
-50.4964 87.2741 14.6499 0.303646 -0.951325 0.0527184
-50.5145 87.2753 15.8365 0.319172 -0.946735 -0.0426921
-50.5084 87.2196 16.9803 0.301754 -0.950606 -0.0727493
-50.4911 87.1251 17.9317 0.288611 -0.949545 -0.122751
-50.4715 86.9882 19.037 0.30617 -0.94571 -0.109054
-50.383 86.6996 20.4414 0.326779 -0.916012 -0.232676
-50.2958 86.4349 21.5048 0.360379 -0.888034 -0.285522
-50.1962 86.1478 22.5417 0.362042 -0.889845 -0.277671
-50.0939 85.8672 23.4651 0.407097 -0.820531 -0.401249
-49.9109 85.4124 24.5258 0.436852 -0.807341 -0.396687
-49.7473 85.0034 25.5597 0.415471 -0.815167 -0.403592
-49.5981 84.6204 26.3621 0.347779 -0.778329 -0.522737
-49.4256 84.1415 27.2151 0.343415 -0.795175 -0.499763
-49.186 83.4443 28.4586 0.342581 -0.782862 -0.51939
-49.0096 82.8494 29.3391 0.25954 -0.766096 -0.587993
-48.8419 82.3172 30.0741 0.328771 -0.707148 -0.62598
-48.5887 81.5164 31.1061 0.306537 -0.746923 -0.590035
-48.4005 80.7965 31.9823 0.249643 -0.683897 -0.685538
-48.2374 80.1091 32.7638 0.239993 -0.715723 -0.655853
-48.0525 79.0831 33.9479 0.216311 -0.736298 -0.641151
-47.9626 78.4249 34.7353 0.194351 -0.721975 -0.664063
-47.8437 77.7083 35.6041 0.172594 -0.774833 -0.608149
-47.7402 77.0576 36.4413 0.118149 -0.788855 -0.603116
-47.6531 76.5209 37.1796 0.110969 -0.823853 -0.555835
-47.5652 75.9994 38.0533 0.110841 -0.850981 -0.513366
-47.5155 75.5607 38.8687 0.090033 -0.88174 -0.463064
-47.4686 75.1446 39.6949 0.0793061 -0.901517 -0.425415
-47.4319 74.7797 40.4679 0.067075 -0.902425 -0.425594
-46.4368 75.1007 39.9376 0.0402607 -0.907815 -0.417433
-46.4902 75.5236 39.0551 0.0251062 -0.889392 -0.456455
-46.574 76.0561 38.094 0.0303803 -0.842256 -0.538221
-46.6542 76.5659 37.2916 0.045375 -0.8321 -0.552767
-46.7826 77.4062 36.2022 0.129275 -0.771774 -0.622618
-46.9107 78.151 35.2861 0.129829 -0.743843 -0.655624
-47.0411 78.9637 34.3599 0.0918764 -0.74117 -0.665
-47.146 79.77 33.4807 0.15249 -0.732253 -0.663741
-47.3036 80.6488 32.514 0.235953 -0.692406 -0.681836
-47.4339 81.281 31.8243 0.236428 -0.693796 -0.680257
-47.5661 81.8908 31.0962 0.268584 -0.724981 -0.634244
-47.767 82.633 30.1693 0.260743 -0.743986 -0.615222
-47.9485 83.3346 29.1752 0.254861 -0.768828 -0.586472
-48.1304 83.9656 28.2782 0.280641 -0.757805 -0.589043
-48.3657 84.6898 27.0878 0.352848 -0.801059 -0.483531
-48.5256 85.1411 26.1766 0.319847 -0.811277 -0.489416
-48.7015 85.6598 25.1042 0.309609 -0.839545 -0.446437
-48.841 86.07 24.1327 0.25853 -0.867767 -0.424431
-48.9708 86.4727 23.2303 0.236743 -0.88912 -0.391687
-49.0452 86.6707 22.3456 0.313896 -0.921836 -0.227347
-49.121 86.8869 21.4732 0.33506 -0.907544 -0.253178
-49.1886 87.096 20.5937 0.340658 -0.911396 -0.23089
-49.2493 87.3005 19.6485 0.330541 -0.916645 -0.224734
-49.2773 87.4317 18.6522 0.271816 -0.959653 -0.0719901
-49.3005 87.5026 17.3686 0.246574 -0.967326 -0.0590029
-49.3177 87.5644 16.3911 0.2188 -0.974937 -0.040308
-49.3249 87.6019 15.4442 0.213224 -0.976866 -0.0163955
-49.3125 87.5838 14.3388 0.229409 -0.973141 0.0191686
-49.2981 87.559 13.3651 0.242468 -0.969326 0.0402067
-49.259 87.4616 11.9115 0.268215 -0.958443 0.0971963
-49.2195 87.378 10.8035 0.214306 -0.973128 0.0842265
-49.1886 87.3178 9.75863 0.216103 -0.97517 0.0484004
-49.1618 87.2973 8.54552 0.24619 -0.969208 0.00519976
-49.1396 87.2881 7.14931 0.274467 -0.961421 0.0183597
-49.1225 87.3044 5.85262 0.34266 -0.939145 -0.0242974
-49.1281 87.3796 4.66806 0.378322 -0.92063 -0.0965037
-49.1641 87.5092 3.51883 0.395091 -0.904576 -0.160144
-49.1885 87.5778 3.07116 0.39171 -0.903005 -0.176481
-48.2716 88.3871 1.6033 0.429556 -0.855405 -0.28942
-48.1535 88.0979 2.72525 0.412302 -0.881432 -0.230401
-48.0847 87.9 3.84049 0.344065 -0.918829 -0.193317
-48.0476 87.7777 4.88351 0.3351 -0.93765 -0.0923111
-48.023 87.6619 6.3753 0.317903 -0.945778 -0.0666416
-48.0188 87.6106 7.28514 0.26809 -0.963393 0.00147602
-48.027 87.5862 8.67295 0.25393 -0.967209 -0.00510499
-48.0377 87.5959 9.57327 0.248205 -0.968597 0.0146222
-48.0495 87.6136 10.5835 0.167593 -0.982144 0.0854726
-48.0758 87.6832 11.6046 0.198425 -0.977481 0.0718261
-48.0973 87.7321 12.5599 0.201162 -0.978532 0.0448208
-48.118 87.7869 13.7614 0.146221 -0.98782 0.0532153
-48.1273 87.8399 14.9782 0.146733 -0.98853 0.0357414
-48.119 87.8466 16.2196 0.237135 -0.971178 -0.0240761
-48.1025 87.8246 17.1844 0.237743 -0.970862 -0.0300998
-48.0803 87.7714 18.1183 0.138305 -0.986591 -0.0866558
-48.0405 87.6555 19.3595 0.205926 -0.969009 -0.136443
-47.9683 87.4154 20.7937 0.156029 -0.970336 -0.184667
-47.8737 87.1512 21.9688 0.203682 -0.946238 -0.251291
-47.7735 86.7863 23.1252 0.16996 -0.918776 -0.356321
-47.6669 86.4375 24.0887 0.19364 -0.913611 -0.357517
-47.5443 86.0678 25.0491 0.196155 -0.896965 -0.396203
-47.3737 85.5402 26.1508 0.27008 -0.846861 -0.458131
-47.2184 85.0232 27.1368 0.192708 -0.839682 -0.507738
-47.0561 84.4326 28.1294 0.188875 -0.810438 -0.554542
-46.8607 83.7398 29.1062 0.247899 -0.763005 -0.596966
-46.716 83.1002 29.9158 0.0732232 -0.752296 -0.654744
-46.5902 82.4964 30.6531 0.102463 -0.751693 -0.651506
-46.3869 81.521 31.7878 0.0900583 -0.739965 -0.666589
-46.2618 80.7113 32.6778 0.0468699 -0.710014 -0.702626
-46.1541 79.9671 33.4156 0.102388 -0.713718 -0.692909
-46.0769 79.3361 34.0753 0.0275518 -0.744477 -0.66708
-45.9652 78.5136 35.0153 0.0214811 -0.753487 -0.657112
-45.8548 77.7835 35.858 0.0256001 -0.753116 -0.657389
-45.7583 77.1886 36.5803 0.0396492 -0.773089 -0.633057
-45.6762 76.6229 37.3131 0.0603444 -0.821488 -0.567023
-45.5874 76.1069 38.0701 0.0453732 -0.832094 -0.552775
-45.4733 75.4625 39.203 -0.00764267 -0.881677 -0.471792
-44.6049 76.1007 38.1036 0.0125186 -0.857804 -0.513825
-44.7021 76.6393 37.331 -0.00529812 -0.816691 -0.577051
-44.8052 77.2825 36.5 -0.02898 -0.764356 -0.644142
-44.9028 77.9474 35.7073 0.0326308 -0.763215 -0.645321
-45.0167 78.8914 34.6018 -0.0179668 -0.7449 -0.666934
-45.0921 79.64 33.7955 0.0266605 -0.721083 -0.692336
-45.1833 80.4725 32.9532 0.00474674 -0.713354 -0.700787
-45.2989 81.464 31.9148 -0.0321626 -0.746866 -0.664197
-45.3926 82.1087 31.1897 -0.0187974 -0.736468 -0.676211
-45.5068 82.712 30.5175 0.0459422 -0.77324 -0.632447
-45.6597 83.4855 29.5859 0.0598011 -0.753956 -0.654197
-45.7929 84.1625 28.7734 0.0710441 -0.771751 -0.631943
-45.9138 84.7247 28.0696 0.0709392 -0.820406 -0.567364
-46.0567 85.2851 27.0656 0.143468 -0.854065 -0.49999
-46.2205 85.9251 25.961 0.14667 -0.844724 -0.514713
-46.3386 86.3245 25.0537 0.201929 -0.886336 -0.416694
-46.4325 86.6496 24.2152 0.241838 -0.910936 -0.334229
-46.5368 86.9654 23.279 0.209391 -0.928723 -0.305988
-46.6603 87.3848 21.9652 0.168392 -0.933128 -0.317672
-46.7484 87.6303 20.7136 0.145667 -0.976271 -0.16024
-46.8257 87.8685 19.3056 0.153139 -0.980695 -0.121596
-46.8555 87.9311 18.2176 0.119379 -0.990818 -0.0634668
-46.8881 88.0163 17.1148 0.110858 -0.990438 -0.0821122
-46.9076 88.0142 15.895 0.109654 -0.993822 0.0171368
-46.9181 87.9837 14.7768 0.0935547 -0.995146 0.030515
-46.9215 87.9644 13.8028 0.0924706 -0.99566 0.0104988
-46.9132 87.9215 12.707 0.0633278 -0.995639 0.0685031
-46.8973 87.8685 11.7347 0.0717377 -0.996697 0.0380725
-46.8779 87.8061 10.5733 0.170847 -0.985164 0.0162461
-46.8697 87.7954 9.51147 0.18511 -0.982461 -0.0224421
-46.8755 87.8401 8.60248 0.203529 -0.977828 -0.0492812
-46.8825 87.8831 7.55457 0.255518 -0.962438 -0.0917767
-46.9018 87.9704 6.5388 0.284314 -0.954906 -0.0855639
-46.93 88.0707 5.55255 0.299238 -0.947973 -0.108641
-46.9796 88.2268 4.27116 0.353597 -0.914965 -0.194446
-47.0727 88.4742 3.09736 0.385516 -0.89163 -0.237431
-47.165 88.6999 2.21518 0.394971 -0.870477 -0.293714
-47.2859 88.9791 1.30121 0.404851 -0.852715 -0.330109
-47.389 89.2173 0.54476 0.372402 -0.864745 -0.336947
-46.5379 90.1795 -0.918686 0.31497 -0.876349 -0.364425
-46.4223 89.876 -0.0581376 0.319961 -0.883872 -0.341168
-46.3048 89.5864 0.801138 0.364219 -0.877304 -0.312541
-46.155 89.2302 1.95244 0.360297 -0.875169 -0.3229
-46.0311 88.94 3.00147 0.34702 -0.893396 -0.285343
-45.9064 88.6336 4.30997 0.343262 -0.909346 -0.235077
-45.8402 88.4493 5.38892 0.306031 -0.935299 -0.177657
-45.7815 88.2678 6.4806 0.273773 -0.95019 -0.148952
-45.7548 88.1787 7.39406 0.218143 -0.971058 -0.0972653
-45.7153 88.0462 8.63192 0.183523 -0.978916 -0.0896774
-45.7019 87.9972 9.55719 0.153481 -0.986729 -0.0529972
-45.6981 87.9629 10.9331 0.111131 -0.993732 0.0121169
-45.7102 87.9825 12.4542 0.0873572 -0.996171 0.00334802
-45.7104 88.0304 13.4321 0.0336692 -0.998144 0.050739
-45.7001 88.0771 14.3318 0.0396072 -0.998171 0.0456794
-45.6827 88.1187 15.7767 0.0835086 -0.996284 0.0210959
-45.6647 88.1232 16.9624 0.0519385 -0.99864 -0.00453485
-45.6371 88.0674 18.1897 0.0652517 -0.996722 -0.0478192
-45.5965 87.9583 19.2466 0.0885547 -0.988213 -0.124871
-45.5477 87.8429 20.1688 0.104927 -0.981185 -0.162068
-45.4612 87.679 21.3831 0.101947 -0.984737 -0.141068
-45.3832 87.4597 22.3684 0.0870162 -0.960412 -0.264645
-45.271 87.1446 23.4743 0.148997 -0.946846 -0.285102
-45.1796 86.7587 24.5829 0.0576991 -0.901248 -0.429444
-45.0906 86.338 25.4749 0.0622778 -0.90323 -0.424615
-44.9736 85.8584 26.4259 0.146818 -0.844712 -0.51469
-44.8413 85.3261 27.2934 0.133414 -0.82936 -0.542552
-44.7027 84.5622 28.3785 0.060172 -0.781531 -0.620958
-44.5395 83.5857 29.559 0.0486844 -0.753852 -0.655238
-44.4386 82.9856 30.2606 0.0195106 -0.749232 -0.66202
-44.3482 82.3073 30.9705 -0.010927 -0.723374 -0.69037
-44.2499 81.5677 31.7206 -0.0675296 -0.712983 -0.697922
-44.1767 80.7675 32.6007 -0.10636 -0.729365 -0.675806
-44.1158 80.0557 33.3166 -0.0719017 -0.698893 -0.711603
-44.0574 79.3735 34.0367 -0.0586464 -0.74457 -0.664964
-43.9869 78.4727 35.0385 -0.0662676 -0.7443 -0.664549
-43.8811 77.5201 36.1576 -0.0615234 -0.780998 -0.621496
-43.7528 76.7319 37.1829 -0.044638 -0.81451 -0.57843
-42.9511 77.7817 35.6981 -0.14483 -0.773207 -0.617394
-42.9996 78.4145 34.9538 -0.146808 -0.752011 -0.642593
-43.0572 79.2548 34.0052 -0.132631 -0.728023 -0.6726
-43.1038 80.0367 33.1742 -0.145062 -0.708366 -0.690779
-43.1598 80.7997 32.4035 -0.12779 -0.713451 -0.688954
-43.2074 81.4646 31.7638 -0.17593 -0.687661 -0.704394
-43.2693 82.392 30.8072 -0.0938062 -0.757956 -0.645525
-43.4021 83.3329 29.7486 -0.0883462 -0.743664 -0.662691
-43.5032 84.0697 28.9602 -0.100901 -0.732886 -0.672827
-43.5507 84.6789 28.2759 -0.0815236 -0.762541 -0.641783
-43.6685 85.4966 27.195 0.00913203 -0.845493 -0.533908
-43.7749 86.0309 26.2812 -0.00992119 -0.887505 -0.460691
-43.8865 86.478 25.3076 0.0308499 -0.893975 -0.447055
-44.0087 87.05 24.1676 0.0962245 -0.897053 -0.43132
-44.0747 87.3531 23.2404 0.0860969 -0.952376 -0.292519
-44.1445 87.603 22.2926 0.0600127 -0.969733 -0.236678
-44.2201 87.8259 21.0776 0.0607189 -0.991065 -0.118756
-44.3037 87.9876 19.7646 0.0644373 -0.987797 -0.141793
-44.3601 88.1169 18.8378 0.0447037 -0.989973 -0.133995
-44.4134 88.1662 17.6257 0.0350542 -0.998919 -0.0305227
-44.4415 88.1879 16.6959 0.0339314 -0.99921 -0.0206738
-44.4663 88.1797 15.5945 0.0487328 -0.997988 0.0405686
-44.4825 88.1132 14.1885 0.0360967 -0.997788 0.0558213
-44.494 88.0642 12.8898 0.0656832 -0.997831 0.00433206
-44.5002 88.0657 11.5412 0.0632808 -0.997971 -0.00699242
-44.5122 88.0963 10.4536 0.0890937 -0.995392 -0.0354467
-44.5438 88.2207 9.19939 0.1798 -0.971217 -0.156233
-44.5975 88.3845 7.90551 0.202382 -0.967717 -0.150215
-44.6418 88.5138 6.99786 0.2717 -0.951438 -0.144722
-44.6965 88.6696 6.05846 0.264576 -0.94536 -0.190512
-44.7695 88.8706 5.09671 0.298139 -0.928393 -0.221808
-44.8448 89.0625 4.19058 0.337526 -0.911285 -0.235871
-44.9497 89.3159 3.12504 0.338862 -0.89818 -0.280082
-45.05 89.5525 2.24763 0.33803 -0.89369 -0.295048
-45.2029 89.9159 1.04179 0.334182 -0.886343 -0.320499
-45.3438 90.2644 -0.0558978 0.311654 -0.896545 -0.314768
-45.4662 90.5989 -1.05454 0.284236 -0.896382 -0.340161
-45.5808 90.9527 -2.08285 0.249307 -0.903798 -0.347842
-45.6988 91.4049 -3.34296 0.230359 -0.902626 -0.363594
-45.7105 91.4561 -3.47733 0.213803 -0.916897 -0.337027
-42.3268 92.0625 -3.07262 0.205826 -0.951606 -0.228214
-42.373 92.2572 -4.05681 0.174627 -0.957613 -0.22909
-42.4198 92.5382 -5.25796 0.146123 -0.967533 -0.206223
-42.4471 92.7801 -6.58817 0.0465275 -0.986932 -0.154272
-42.4568 92.9677 -7.97955 0.0474951 -0.992627 -0.111518
-42.4593 93.0821 -9.11802 0.0425006 -0.996267 -0.0751378
-42.4595 93.1459 -10.5069 -0.00620776 -0.999967 0.00521851
-42.4588 93.1399 -11.4235 -0.0116711 -0.99944 0.0313559
-42.4591 93.0659 -12.9811 0.0101688 -0.995843 0.0905151
-42.4668 92.8685 -14.1944 -0.0370209 -0.98492 0.169003
-42.4822 92.6075 -15.1792 -0.0627827 -0.965037 0.254482
-42.5049 92.3325 -16.1209 -0.0476116 -0.95705 0.285988
-42.534 91.9881 -17.108 -0.0551662 -0.900421 0.431508
-42.5616 91.5386 -17.9761 -0.0339221 -0.876552 0.480109
-42.5946 90.8531 -19.1709 -0.0336506 -0.840655 0.540525
-42.608 90.1303 -20.1384 -0.0395491 -0.794061 0.60655
-41.4625 90.2914 -19.9649 0.0210685 -0.813542 0.581124
-41.4546 90.9735 -18.9425 0.00848635 -0.858657 0.51248
-41.4395 91.5452 -17.9166 -0.0010035 -0.89097 0.454061
-41.4145 91.9359 -17.0162 -0.00947192 -0.922273 0.386423
-41.3823 92.3752 -15.7858 -0.0504894 -0.95762 0.283576
-41.3614 92.692 -14.6847 -0.0455571 -0.962298 0.268155
-41.3432 92.9516 -13.3124 -0.0718746 -0.986885 0.144542
-41.336 93.0989 -12.183 -0.0408694 -0.995258 0.0882633
-41.3352 93.1233 -11.1597 -0.0185551 -0.999702 0.0158781
-41.3338 93.1236 -9.74471 -0.0243945 -0.999576 -0.0159182
-41.3335 93.1092 -8.84035 0.0090663 -0.99892 -0.0455639
-41.326 92.9699 -7.26826 0.0886581 -0.992312 -0.0863471
-41.326 92.9696 -7.26517 0.0918961 -0.98715 -0.130731
-40.2132 93.0862 -11.6691 -0.0436608 -0.997226 0.0602881
-40.2215 92.9655 -12.9196 -0.0196149 -0.988626 0.149113
-40.2391 92.6929 -14.4144 -0.011219 -0.979384 0.201698
-40.2557 92.4657 -15.3182 -0.0386909 -0.96177 0.27111
-40.2789 92.0847 -16.5411 -0.050167 -0.940724 0.335442
-40.3087 91.5766 -17.7767 -0.0248888 -0.906909 0.420592
-40.3246 91.2723 -18.434 -0.0329411 -0.897385 0.440017
-43.7471 90.3917 -19.8535 -0.0258469 -0.812294 0.582676
-43.7256 91.0428 -18.9462 -0.0336501 -0.840654 0.540527
-43.6833 91.6157 -17.9889 -0.0736132 -0.851942 0.518436
-43.6337 92.2708 -16.689 -0.0735078 -0.901623 0.426231
-43.6032 92.6028 -15.6087 -0.118526 -0.956683 0.265911
-43.5827 92.8451 -14.6551 -0.105432 -0.970829 0.215348
-43.5775 92.9928 -13.5172 -0.109947 -0.988887 0.100073
-43.5797 93.1118 -12.0396 -0.00353731 -0.998648 0.0518671
-43.5843 93.1516 -10.7931 0.0233878 -0.99955 -0.0187598
-43.5859 93.0645 -9.45944 0.0441114 -0.995488 -0.0840142
-43.5865 92.9812 -8.54619 0.0378728 -0.992706 -0.114453
-43.5857 92.8541 -7.45438 0.0603898 -0.988445 -0.139034
-43.5744 92.6702 -6.55556 0.118277 -0.972269 -0.201754
-43.5523 92.4374 -5.48724 0.12006 -0.966666 -0.226147
-43.5081 92.1378 -4.3009 0.152771 -0.953739 -0.258925
-43.4209 91.7384 -2.81639 0.205444 -0.943664 -0.259405
-43.3265 91.4215 -1.58422 0.2789 -0.919761 -0.276144
-43.2432 91.184 -0.712947 0.285213 -0.913641 -0.289677
-43.1504 90.9411 0.167247 0.310181 -0.909544 -0.276617
-43.0112 90.6042 1.38089 0.330745 -0.898747 -0.287857
-42.8655 90.2808 2.52206 0.3337 -0.897866 -0.287193
-42.7388 89.986 3.6186 0.328109 -0.901851 -0.281087
-42.6036 89.6559 4.86296 0.318079 -0.910431 -0.264464
-42.5106 89.4082 5.87442 0.301602 -0.919168 -0.253313
-42.413 89.1435 6.96888 0.288503 -0.928371 -0.234294
-42.3283 88.9083 8.1904 0.248113 -0.948117 -0.198781
-42.2476 88.6434 9.35686 0.225575 -0.947325 -0.227358
-42.1892 88.4401 10.6471 0.236004 -0.959455 -0.154105
-42.148 88.2969 11.5805 0.204896 -0.96616 -0.156694
-42.1279 88.295 12.6193 0.142568 -0.989668 -0.0152006
-42.083 88.2313 13.6193 0.0511877 -0.998634 -0.0105299
-42.0432 88.2288 14.7763 0.0568239 -0.998382 0.00202137
-42.0128 88.2511 15.6874 0.0281373 -0.99949 0.0150738
-41.9771 88.2529 16.7712 0.0109064 -0.999939 0.00194101
-41.9172 88.2348 17.9469 0.047102 -0.997507 -0.0525428
-41.8608 88.1825 19.1603 0.0592012 -0.995326 -0.0762991
-41.8109 88.026 20.1893 -0.0427908 -0.985029 -0.166994
-41.7187 87.7942 21.7006 -0.0304063 -0.987846 -0.152434
-41.6343 87.4949 22.8327 0.00216931 -0.966009 -0.258498
-41.5642 87.176 23.717 0.0125553 -0.926615 -0.375803
-41.496 86.8063 24.5711 -0.0220045 -0.917946 -0.396094
-41.4198 86.3075 25.6157 -0.0399796 -0.877738 -0.47747
-41.3572 85.6761 26.6096 -0.103811 -0.799601 -0.591492
-41.3065 84.8561 27.691 -0.104553 -0.790784 -0.6031
-41.2647 83.8763 28.8082 -0.169174 -0.710782 -0.682765
-41.2196 83.1237 29.5746 -0.190899 -0.704447 -0.683602
-41.137 82.2606 30.4679 -0.180421 -0.714277 -0.676208
-41.1116 81.5719 31.1376 -0.176074 -0.682567 -0.709296
-41.1066 80.7867 31.9057 -0.210801 -0.683607 -0.698745
-41.1053 80.2396 32.4499 -0.211338 -0.701633 -0.680476
-42.0564 79.2716 33.738 -0.193263 -0.712688 -0.674333
-42.0939 79.9442 33.0451 -0.184236 -0.706931 -0.682866
-42.1392 80.6317 32.3317 -0.165451 -0.706484 -0.688118
-42.1671 81.5112 31.4585 -0.16956 -0.692704 -0.701007
-42.1862 82.1677 30.8048 -0.157797 -0.698903 -0.697592
-42.2687 83.0151 29.9295 -0.132803 -0.743352 -0.655585
-42.3679 83.9047 28.9748 -0.102231 -0.724947 -0.681176
-42.4162 84.5694 28.255 -0.0959886 -0.763273 -0.638906
-42.4548 85.3295 27.2845 -0.11698 -0.816039 -0.566036
-42.5322 85.8031 26.5185 -0.102835 -0.850695 -0.515502
-42.6093 86.3035 25.7226 -0.0216892 -0.896582 -0.442346
-42.7495 86.9484 24.405 -0.074142 -0.895926 -0.437973
-42.8221 87.3195 23.4411 -0.0391171 -0.95072 -0.307573
-42.8909 87.5897 22.4954 0.00407622 -0.962375 -0.271693
-42.9569 87.8524 21.4734 0.0201951 -0.990046 -0.139288
-43.0181 87.9741 20.4342 0.0576093 -0.991163 -0.11949
-43.0783 88.096 19.256 0.0406362 -0.992514 -0.11517
-43.1399 88.1681 18.2512 0.0247083 -0.998197 -0.0547063
-43.195 88.2171 17.1235 0.0258762 -0.999599 -0.0115425
-43.225 88.2311 16.1578 0.021477 -0.999655 -0.0151341
-43.2596 88.1851 14.9486 0.0191902 -0.998826 0.0444773
-43.2804 88.1558 13.9355 0.0776684 -0.996962 -0.00583155
-43.3031 88.1532 12.5426 0.0702283 -0.997219 0.0249524
-43.3174 88.1536 11.4654 0.0384943 -0.997992 -0.0502968
-43.3414 88.222 10.509 0.144404 -0.987061 -0.0696927
-43.3803 88.3685 9.45544 0.139691 -0.96983 -0.19979
-43.4485 88.5858 8.23736 0.21732 -0.961297 -0.169353
-43.5208 88.801 7.03719 0.279782 -0.934887 -0.21842
-43.6077 89.0472 5.89273 0.27849 -0.933616 -0.225397
-43.7297 89.3646 4.55267 0.315517 -0.914737 -0.252397
-43.8613 89.6859 3.25935 0.336622 -0.899666 -0.278005
-43.9617 89.9191 2.37889 0.333693 -0.897869 -0.287195
-44.093 90.228 1.32194 0.326803 -0.894701 -0.304482
-44.1999 90.4874 0.438913 0.319305 -0.895544 -0.309912
-44.3071 90.7643 -0.458676 0.299019 -0.903475 -0.307116
-44.4135 91.0614 -1.46827 0.255368 -0.917014 -0.306387
-44.5117 91.3851 -2.47246 0.251169 -0.909779 -0.330479
-44.5876 91.7052 -3.51916 0.181682 -0.931552 -0.314963
-44.655 92.0785 -4.72221 0.134048 -0.952459 -0.273592
-44.6886 92.3513 -5.69329 0.0922657 -0.959837 -0.264953
-44.7059 92.5921 -6.65865 0.0890406 -0.970439 -0.224322
-44.7131 92.8044 -7.70595 0.0621474 -0.982856 -0.173587
-44.7145 92.955 -8.72224 0.0504523 -0.99174 -0.117926
-44.7113 93.0577 -9.77658 0.0204441 -0.99677 -0.0776667
-44.7065 93.1311 -10.9722 0.00697559 -0.998876 -0.046883
-44.6986 93.1594 -12.0614 -0.0187451 -0.999798 0.00722506
-44.6935 93.1162 -13.0184 -0.050694 -0.997457 0.0500902
-44.6894 93.0797 -13.7412 -0.0559867 -0.997251 0.0485309
-41.8894 90.9007 1.73422 0.332838 -0.896373 -0.292803
-41.7671 90.6365 2.69277 0.335463 -0.897133 -0.287431
-41.6459 90.3597 3.70338 0.330541 -0.895815 -0.297083
-41.5148 90.0426 4.80887 0.307848 -0.911031 -0.27432
-41.3881 89.7201 6.08 0.303145 -0.915373 -0.264944
-41.2924 89.4683 7.11468 0.287571 -0.924216 -0.251252
-41.1741 89.1325 8.46721 0.255187 -0.938607 -0.232157
-41.1071 88.9301 9.38429 0.249184 -0.944498 -0.214081
-41.05 88.7408 10.3417 0.230309 -0.949145 -0.214664
-41.0057 88.5925 11.2473 0.197341 -0.967658 -0.157143
-40.9558 88.4477 12.1701 0.115857 -0.986331 -0.117164
-40.8966 88.3488 13.3558 0.0790826 -0.993084 -0.0867766
-40.8575 88.2871 14.3203 0.0877055 -0.994702 -0.0536206
-40.8242 88.2774 15.3336 0.0309001 -0.999459 -0.0112872
-40.7776 88.2601 16.4833 -0.00075841 -0.999924 -0.0123376
-40.7273 88.2519 17.5335 -0.0134707 -0.999075 -0.0408281
-40.6687 88.1529 18.849 -0.035667 -0.997582 -0.0596408
-40.6163 88.0079 19.919 -0.0407774 -0.989003 -0.142163
-40.546 87.8449 20.9465 -0.04161 -0.985586 -0.163976
-40.4727 87.6911 21.8724 -0.0556436 -0.97907 -0.195771
-40.4012 87.3315 23.0828 -0.140928 -0.947286 -0.287731
-40.3431 86.9714 24.0362 -0.141958 -0.926985 -0.347199
-40.2667 86.5382 25.0095 -0.104766 -0.90125 -0.420444
-40.2304 85.8874 26.1474 -0.0970305 -0.826089 -0.555123
-40.2269 85.2425 26.9538 -0.167979 -0.765246 -0.621435
-40.1841 84.4761 27.888 -0.171375 -0.742838 -0.647165
-40.1801 83.6754 28.7419 -0.198052 -0.704519 -0.68149
-40.1714 82.7435 29.6737 -0.190892 -0.704446 -0.683605
-40.0981 81.7574 30.6394 -0.224599 -0.682173 -0.695841
-40.0791 81.4467 30.9378 -0.223328 -0.680987 -0.69741
-39.1218 82.6129 29.4937 -0.218469 -0.677578 -0.702253
-39.089 83.5498 28.5541 -0.216439 -0.688219 -0.692465
-39.1063 84.3841 27.663 -0.208017 -0.716335 -0.666028
-39.1246 85.026 26.9057 -0.20983 -0.757113 -0.618669
-39.0938 85.6984 25.9391 -0.223565 -0.802804 -0.552742
-39.1147 86.3566 24.9077 -0.2156 -0.829981 -0.51444
-39.1825 86.8964 23.7557 -0.144126 -0.926133 -0.348577
-39.2286 87.2917 22.7759 -0.0622428 -0.95112 -0.302485
-39.3056 87.6925 21.2956 -0.101658 -0.975776 -0.193721
-39.3686 87.8787 20.4132 -0.0725919 -0.980272 -0.183839
-39.429 87.9944 19.494 -0.0756891 -0.990416 -0.115531
-39.4896 88.1322 18.2553 -0.0613498 -0.993723 -0.0935506
-39.5317 88.2278 17.3138 -0.0490477 -0.996423 -0.0688176
-39.5815 88.2709 16.2696 -0.0188351 -0.999425 -0.0281826
-39.6456 88.3084 14.8102 0.0125986 -0.999513 -0.0285468
-39.6884 88.4021 13.6941 0.0427972 -0.991972 -0.118998
-39.7393 88.5479 12.7636 0.152363 -0.977289 -0.147279
-39.8165 88.7392 11.5722 0.1529 -0.968645 -0.195828
-39.8876 88.9501 10.5675 0.239104 -0.939341 -0.245901
-39.9536 89.1593 9.6749 0.247916 -0.938999 -0.238365
-40.0369 89.41 8.64158 0.27455 -0.932938 -0.232914
-40.137 89.6876 7.54406 0.267402 -0.920669 -0.284368
-40.2601 90.0109 6.33276 0.296078 -0.917458 -0.265724
-40.3535 90.2509 5.40196 0.314515 -0.903842 -0.290087
-40.4736 90.542 4.44009 0.335578 -0.891631 -0.303942
-40.6016 90.8398 3.43402 0.350645 -0.884315 -0.308277
-39.3635 90.8726 4.68664 0.333605 -0.884491 -0.326165
-39.2193 90.5184 5.83575 0.32877 -0.890464 -0.314618
-39.1177 90.2564 6.76672 0.291525 -0.910007 -0.294789
-39.0243 90.0041 7.6445 0.292121 -0.915569 -0.276402
-38.9151 89.7086 8.77221 0.268805 -0.921092 -0.281663
-38.8222 89.4349 9.78441 0.25024 -0.929994 -0.269243
-38.7431 89.1982 10.6875 0.24063 -0.935242 -0.259655
-38.6426 88.9028 11.8831 0.193033 -0.947915 -0.25337
-38.5462 88.6061 13.0476 0.136607 -0.966399 -0.217743
-38.4908 88.4451 14.1177 0.11512 -0.983249 -0.141314
-38.438 88.3068 15.17 0.0606082 -0.994773 -0.082174
-38.3788 88.2459 16.4547 -0.0406207 -0.995548 -0.0850538
-38.3405 88.1501 17.3722 -0.0768749 -0.994017 -0.0775945
-38.2813 88.0128 18.8107 -0.0499606 -0.992717 -0.109619
-38.1933 87.8084 20.2344 -0.0834595 -0.983266 -0.161933
-38.097 87.5106 21.6053 -0.127301 -0.956405 -0.262838
-38.0626 87.196 22.6458 -0.250601 -0.906336 -0.340225
-38.0549 86.7319 23.7065 -0.238353 -0.876799 -0.417626
-37.9957 86.238 24.6715 -0.204128 -0.846248 -0.492134
-37.9665 85.7322 25.5112 -0.181796 -0.825235 -0.534732
-38.0039 85.1222 26.3843 -0.223006 -0.774541 -0.591907
-38.031 84.4391 27.2478 -0.235888 -0.745193 -0.623735
-38.0314 83.8147 27.9261 -0.220978 -0.708389 -0.670339
-38.0219 83.3005 28.4663 -0.2194 -0.698534 -0.681112
-36.9759 83.8979 27.4465 -0.249771 -0.719606 -0.647906
-36.942 84.6182 26.6103 -0.248849 -0.727756 -0.639097
-36.8885 85.4671 25.4614 -0.233581 -0.787387 -0.570492
-36.8703 86.1353 24.3814 -0.221333 -0.836659 -0.501013
-36.9061 86.6329 23.3397 -0.184885 -0.89195 -0.412605
-36.9314 87.0267 22.411 -0.183919 -0.913058 -0.364003
-36.9773 87.4851 21.0162 -0.160196 -0.955512 -0.247656
-37.0452 87.741 19.9607 -0.0993916 -0.983209 -0.15304
-37.1158 87.9525 18.6161 -0.0764506 -0.986333 -0.145957
-37.1642 88.0656 17.5157 -0.0237143 -0.995643 -0.0901798
-37.2239 88.2655 16.0392 0.0251277 -0.989833 -0.139995
-37.2859 88.459 14.788 0.0197784 -0.986578 -0.162089
-37.3516 88.6955 13.6754 0.189634 -0.959877 -0.206579
-37.4307 88.9305 12.6489 0.178098 -0.947954 -0.26394
-37.5393 89.2622 11.4628 0.20528 -0.93582 -0.286532
-37.6363 89.5516 10.4108 0.221792 -0.932812 -0.284026
-37.76 89.912 9.18074 0.251593 -0.921162 -0.296921
-37.8791 90.2429 7.99969 0.282203 -0.912516 -0.296102
-38.0025 90.5646 6.97993 0.301529 -0.902966 -0.306158
-38.1208 90.8742 5.956 0.319267 -0.892847 -0.317635
-38.2118 91.1045 5.21989 0.329406 -0.880894 -0.339879
-37.083 91.3783 5.59734 0.32575 -0.879699 -0.346435
-36.9373 90.9996 6.73762 0.294732 -0.893213 -0.339563
-36.8196 90.7039 7.67172 0.278878 -0.899971 -0.335082
-36.7 90.3858 8.60758 0.262846 -0.910169 -0.320164
-36.5889 90.0815 9.58598 0.238669 -0.923413 -0.300574
-36.4745 89.731 10.6988 0.206012 -0.926037 -0.316252
-36.359 89.376 11.8463 0.188519 -0.939581 -0.285741
-36.2754 89.1093 12.7562 0.145774 -0.94189 -0.302643
-36.1876 88.7797 13.8644 0.139705 -0.944912 -0.296012
-36.1189 88.5152 14.8905 0.116935 -0.965048 -0.23454
-36.0599 88.3203 15.9838 0.0415864 -0.986016 -0.161379
-35.9999 88.0742 17.2773 -0.00499573 -0.980634 -0.195785
-35.958 87.9179 18.2566 -0.0466997 -0.98917 -0.139144
-35.9199 87.7182 19.2797 -0.152717 -0.96946 -0.191897
-35.8476 87.3435 20.6917 -0.172655 -0.944762 -0.278595
-35.797 86.9351 21.9858 -0.216129 -0.915113 -0.340376
-35.7715 86.5541 22.968 -0.248206 -0.878007 -0.409265
-35.7714 85.872 24.2455 -0.264715 -0.83994 -0.473737
-35.81 85.2556 25.3241 -0.220114 -0.810064 -0.543458
-35.8927 84.4664 26.3826 -0.250378 -0.750966 -0.611033
-34.7127 85.1045 25.0638 -0.267642 -0.811243 -0.519858
-34.6842 85.6501 24.067 -0.239331 -0.853556 -0.462776
-34.6753 86.2432 22.97 -0.248207 -0.878007 -0.409264
-34.6825 86.6701 21.9231 -0.208753 -0.899649 -0.383475
-34.6768 87.0432 21.0303 -0.181773 -0.927676 -0.326153
-34.7403 87.4039 19.8317 -0.148306 -0.947634 -0.282834
-34.7821 87.7137 18.7248 -0.118803 -0.96176 -0.246788
-34.8187 87.9748 17.6915 -0.0496115 -0.979293 -0.196276
-34.856 88.1878 16.7342 0.000952814 -0.971808 -0.235773
-34.9 88.3913 15.8276 0.0331662 -0.964342 -0.262571
-34.9865 88.736 14.5509 0.0783106 -0.967419 -0.240765
-35.0558 89.0002 13.6714 0.127068 -0.944966 -0.301485
-35.1278 89.2801 12.8116 0.156206 -0.928196 -0.337717
-35.2143 89.5722 11.9141 0.176371 -0.930875 -0.319945
-35.3287 89.945 10.8066 0.191932 -0.918314 -0.346211
-35.4461 90.3005 9.76063 0.224016 -0.915995 -0.332821
-35.5926 90.7174 8.55282 0.240097 -0.904116 -0.353452
-35.7297 91.0719 7.55525 0.27723 -0.893925 -0.352196
-35.9052 91.5152 6.30531 0.298055 -0.887713 -0.350898
-35.9282 91.5731 6.13731 0.307491 -0.885848 -0.347453
-34.8858 92.0505 5.79591 0.291524 -0.887102 -0.357861
-34.7273 91.6493 6.90803 0.28218 -0.886906 -0.36575
-34.5523 91.193 8.13194 0.257448 -0.891078 -0.373766
-34.4179 90.8306 9.1014 0.246451 -0.896151 -0.369019
-34.2893 90.465 10.0733 0.235225 -0.903764 -0.357603
-34.149 90.0327 11.2649 0.20787 -0.90902 -0.361211
-34.0136 89.5724 12.4768 0.145462 -0.92239 -0.357824
-33.9149 89.2063 13.5062 0.101565 -0.939805 -0.326269
-33.8252 88.8276 14.5339 0.0759215 -0.933432 -0.35063
-33.7506 88.5303 15.5435 0.0368266 -0.952883 -0.301095
-33.6935 88.1498 16.7857 -0.0075719 -0.965389 -0.260705
