-19.7072 97.9485 0.528846 0.0951768 -0.99042 -0.0998818
-18.9026 98.0655 0.140039 0.0906314 -0.989471 -0.11284
-17.5387 98.1017 -0.24701 0.00547649 -0.999261 -0.0380488
-16.5591 98.0678 -0.536563 0.011536 -0.997875 0.0641331
-15.3085 97.9859 -0.869193 -0.107013 -0.986887 0.114705
-14.4026 97.8508 -1.0035 -0.169667 -0.973969 0.143065
-13.0752 97.5573 -0.99206 -0.235538 -0.958519 0.157754
-12.1714 97.304 -0.942957 -0.270193 -0.928265 0.255578
-11.3075 97.0379 -0.986325 -0.314601 -0.905262 0.285507
-10.4133 96.6591 -1.19542 -0.315447 -0.903945 0.288751
-10.0538 96.1525 -2.27512 -0.473918 -0.825759 0.305817
-10.7045 96.0126 -3.79137 -0.417073 -0.885976 0.202722
-11.4821 96.1965 -4.6273 -0.435453 -0.880734 0.18621
-12.1812 96.4098 -5.25608 -0.421457 -0.887763 0.185071
-13.1115 96.7516 -5.86016 -0.440858 -0.888313 0.128208
-14.0889 97.1546 -6.25919 -0.390131 -0.915527 0.0976832
-15.2948 97.6438 -6.38514 -0.341945 -0.935581 0.0693107
-16.5305 98.0838 -6.26851 -0.288119 -0.956112 0.00161213
-17.6587 98.3797 -5.99101 -0.227797 -0.968133 -0.084478
-18.7574 98.5052 -5.49974 -0.154489 -0.981795 -0.110503
-19.5913 98.5208 -5.03999 -0.0553898 -0.990471 -0.126089
-20.8615 98.4704 -4.21209 -0.0140379 -0.992699 -0.119795
-21.8229 98.3769 -3.61159 0.0688363 -0.987524 -0.141625
-22.9914 98.1347 -2.79362 0.128592 -0.974939 -0.181544
-23.7518 97.9119 -2.16275 0.138821 -0.972438 -0.187332
-24.4647 97.7033 -1.61068 0.164732 -0.966832 -0.194564
-25.5615 97.3251 -0.756484 0.182225 -0.962387 -0.201416
-26.6336 96.9463 0.00121946 0.197338 -0.958719 -0.204735
-27.3454 96.6465 0.560697 0.21715 -0.946125 -0.240193
-28.3306 96.162 1.42462 0.258172 -0.93408 -0.246593
-29.1914 95.7457 2.09637 0.269264 -0.930228 -0.249344
-30.0728 95.2817 2.78207 0.301498 -0.911544 -0.27962
-30.8323 94.8323 3.41243 0.292661 -0.909703 -0.2946
-31.7961 94.261 4.13765 0.311074 -0.896386 -0.315794
-32.6507 93.769 4.71989 0.293191 -0.897909 -0.328
-33.3941 93.3494 5.18179 0.29239 -0.89301 -0.342112
-34.3661 92.8554 5.66029 0.275106 -0.892621 -0.357052
-35.3295 92.4896 5.81112 0.28494 -0.888749 -0.359053
-36.384 92.2001 5.66956 0.300609 -0.884006 -0.3579
-37.3571 91.9433 5.46637 0.306256 -0.886675 -0.346406
-38.4276 91.7 5.12366 0.311531 -0.886412 -0.342376
-39.3731 91.547 4.56954 0.331162 -0.886022 -0.324335
-40.0827 91.4775 3.99264 0.349775 -0.885694 -0.305028
-40.8566 91.459 3.16504 0.360475 -0.879668 -0.310229
-41.3758 91.5162 2.39485 0.357798 -0.888345 -0.287786
-41.7355 91.6526 1.55106 0.3274 -0.900112 -0.287415
-42.0293 91.832 0.630225 0.332056 -0.901745 -0.276759
-42.1983 92.0624 -0.422829 0.30493 -0.921399 -0.240919
-42.2045 92.3583 -1.63796 0.240067 -0.947763 -0.210032
-42.149 92.6414 -2.8232 0.200278 -0.956564 -0.211834
-42.0385 92.939 -4.08228 0.175361 -0.965194 -0.194035
-42.008 92.9805 -4.26132 0.175354 -0.965195 -0.194035
-41.049 93.0749 -3.98409 0.157436 -0.971917 -0.174902
-41.1931 92.8048 -2.75475 0.192945 -0.962973 -0.184285
-41.2815 92.6443 -1.85526 0.228871 -0.956013 -0.180234
-41.3215 92.3962 -0.672696 0.25694 -0.949877 -0.17809
-41.1998 92.1791 0.374589 0.322945 -0.915237 -0.239746
-40.9795 92.0458 1.23873 0.343358 -0.91108 -0.228118
-40.6076 91.9321 2.06445 0.356684 -0.888415 -0.288957
-40.0618 91.8937 2.85617 0.358579 -0.884041 -0.299594
-39.2879 91.9372 3.61312 0.360444 -0.876823 -0.318216
-38.2657 92.0799 4.28467 0.355286 -0.868708 -0.344491
-37.3843 92.2996 4.57289 0.333803 -0.870675 -0.361248
-36.4042 92.5553 4.7817 0.30965 -0.870383 -0.382512
-35.5124 92.798 4.89849 0.288573 -0.888039 -0.357928
-34.3928 93.2574 4.62226 0.26856 -0.900108 -0.34284
-33.6278 93.6475 4.17254 0.26433 -0.906274 -0.329843
-32.624 94.2062 3.50093 0.298895 -0.899674 -0.318196
-31.8888 94.6236 3.00741 0.293337 -0.911522 -0.28816
-31.0632 95.0769 2.39946 0.294004 -0.913341 -0.281728
-30.2273 95.5401 1.71202 0.274399 -0.925197 -0.261518
-29.2338 96.0579 0.894147 0.250231 -0.934142 -0.254485
-28.521 96.4064 0.326448 0.248964 -0.937204 -0.243962
-27.5604 96.8743 -0.553392 0.226301 -0.946498 -0.229325
-26.4238 97.2789 -1.29049 0.187633 -0.95615 -0.224879
-25.2492 97.6945 -2.23086 0.164725 -0.966832 -0.19457
-24.046 98.0573 -3.13525 0.147103 -0.971624 -0.185022
-23.3224 98.2559 -3.72733 0.126092 -0.978399 -0.16382
-22.2544 98.4833 -4.46427 0.0519165 -0.98726 -0.15033
-20.9311 98.6151 -5.26931 -0.0373288 -0.988321 -0.147745
-20.1172 98.6595 -5.81696 -0.0869025 -0.984421 -0.152851
-19.1495 98.6612 -6.33744 -0.104938 -0.986135 -0.118288
-18.0993 98.5316 -6.8692 -0.16865 -0.981984 -0.0852289
-17.2256 98.3485 -7.11928 -0.316374 -0.946179 -0.0522655
-16.3198 98.0184 -7.29234 -0.340265 -0.940124 -0.0186038
-15.0973 97.5082 -7.31403 -0.424327 -0.904819 0.0353511
-14.2419 97.1237 -7.27256 -0.458545 -0.88268 0.103022
-13.3211 96.6934 -6.99564 -0.433417 -0.893366 0.118521
-12.4195 96.2998 -6.49277 -0.461964 -0.872526 0.159018
-11.375 95.8648 -5.72388 -0.511678 -0.825482 0.238256
-10.6365 95.6367 -4.9513 -0.497525 -0.831295 0.247826
-9.90605 95.44 -4.14731 -0.497737 -0.830854 0.248875
-9.46196 95.4135 -3.34647 -0.498077 -0.830706 0.24869
-9.16381 95.6591 -2.22824 -0.478163 -0.820685 0.312642
-9.15767 96.0344 -1.23848 -0.468079 -0.822644 0.32273
-9.57608 96.5607 -0.446009 -0.385704 -0.865538 0.319493
-10.4089 97.0056 -0.0910556 -0.313765 -0.906576 0.282262
-11.5207 97.386 0.0248368 -0.262804 -0.928811 0.261236
-12.666 97.6722 -0.0177234 -0.213856 -0.954844 0.206248
-13.5509 97.8453 -0.0825924 -0.185656 -0.959324 0.212672
-14.483 98.011 -0.050625 -0.0881597 -0.980154 0.167549
-15.8539 98.1249 0.226004 -0.039069 -0.995258 0.0727556
-16.9429 98.1118 0.602856 0.0278627 -0.999379 0.0215866
-18.3055 98.0714 0.948429 0.102421 -0.992561 -0.000639067
-19.2561 97.9059 1.36451 0.128416 -0.988463 -0.0544456
-20.0227 97.7459 1.91919 0.154851 -0.982928 -0.0993659
-20.9813 97.4842 2.66587 0.160473 -0.972179 -0.170634
-21.7076 97.2513 3.3121 0.172229 -0.970293 -0.169448
-22.3387 97.0184 3.95099 0.191868 -0.964227 -0.182902
-22.9575 96.7508 4.68381 0.236496 -0.950927 -0.199118
-23.6693 96.424 5.34661 0.24356 -0.945918 -0.214194
-24.639 95.9864 6.11591 0.273543 -0.926887 -0.2544
-25.6143 95.4576 6.81843 0.30328 -0.908583 -0.286849
-26.3333 95.0302 7.36119 0.315744 -0.904112 -0.287767
-27.0947 94.6139 7.76904 0.330483 -0.890069 -0.313941
-28.0558 94.0785 8.23945 0.343473 -0.8807 -0.326182
-28.7907 93.5751 8.77289 0.362976 -0.846901 -0.388598
-29.322 93.0647 9.39545 0.358845 -0.830151 -0.424425
-29.7732 92.4615 10.1097 0.338234 -0.821587 -0.458725
-30.121 91.8099 11.0328 0.282701 -0.824675 -0.487069
-30.3299 91.1483 11.918 0.233444 -0.835289 -0.493145
-30.4828 90.5941 12.8755 0.186349 -0.85893 -0.476983
-30.5493 90.167 13.6939 0.0806962 -0.895589 -0.435332
-30.555 89.7278 14.5304 0.0499203 -0.884426 -0.464002
-30.6731 89.1453 15.7451 -0.030621 -0.904729 -0.423548
-30.7184 88.6759 16.8121 -0.0528764 -0.91069 -0.409693
-30.8464 88.3066 17.6888 -0.110446 -0.909692 -0.400328
-31.0577 87.9218 18.6864 -0.170409 -0.90229 -0.396023
-31.3347 87.5836 19.6296 -0.206725 -0.905311 -0.370611
-31.631 87.3021 20.4441 -0.223248 -0.900198 -0.373426
-31.8066 86.9182 21.4581 -0.236291 -0.88665 -0.397514
-31.951 86.5377 22.3557 -0.274484 -0.861417 -0.426491
-32.1801 86.1977 23.1933 -0.29396 -0.840753 -0.45441
-32.5117 85.7564 24.1941 -0.288155 -0.826033 -0.483903
-32.9942 85.3093 25.1337 -0.294582 -0.786369 -0.542996
-33.599 84.9316 25.9335 -0.266083 -0.769519 -0.580474
-34.2034 84.6554 26.5439 -0.248468 -0.746858 -0.61682
-35.0385 84.2492 27.3779 -0.250905 -0.714774 -0.650902
-35.8615 83.7223 28.1902 -0.245255 -0.683534 -0.687473
-36.609 83.204 28.9535 -0.242201 -0.669784 -0.701946
-37.5034 82.615 29.8294 -0.256467 -0.655412 -0.710394
-38.1842 82.1293 30.522 -0.249831 -0.655402 -0.712761
-38.8049 81.6862 31.1458 -0.251106 -0.659383 -0.708605
-39.4535 81.137 31.8966 -0.247359 -0.663348 -0.70621
-39.8855 80.6063 32.5564 -0.237511 -0.682058 -0.691654
-40.2268 80.0009 33.2733 -0.23554 -0.701067 -0.672715
-40.7004 79.2402 34.2619 -0.226572 -0.71336 -0.663161
-41.1821 78.6375 35.1376 -0.20742 -0.757674 -0.617726
-41.7882 77.9761 36.116 -0.172847 -0.776704 -0.605349
-42.0996 77.503 36.8383 -0.166551 -0.788465 -0.592091
-42.5346 76.9749 37.6827 -0.137984 -0.831979 -0.537374
-43.0255 76.5745 38.4425 -0.148776 -0.837519 -0.525764
-43.5798 76.1478 39.191 -0.0498775 -0.860365 -0.505729
-44.5041 75.6752 40.1948 -0.0335957 -0.878443 -0.475428
-45.5215 75.2748 41.0692 -0.00930315 -0.8954 -0.444824
-46.5614 75.034 41.5958 0.0157585 -0.921022 -0.389097
-47.4001 74.8129 42.0353 0.0726051 -0.921301 -0.382013
-48.4487 74.5854 42.4155 0.0570367 -0.932408 -0.356877
-49.853 74.4422 42.446 0.103944 -0.934968 -0.339162
-51.0223 74.3573 42.2865 0.124905 -0.936191 -0.328551
-52.0381 74.373 41.8017 0.152855 -0.936206 -0.316472
-53.1715 74.3921 41.12 0.186638 -0.933425 -0.306405
-54.04 74.43 40.4183 0.234581 -0.927799 -0.290104
-55.0254 74.4605 39.4633 0.279841 -0.918102 -0.279336
-55.6766 74.5049 38.6502 0.294601 -0.921209 -0.253597
-56.186 74.5971 37.7722 0.308108 -0.915916 -0.256731
-56.7299 74.6843 36.8529 0.345455 -0.890225 -0.296919
-57.2132 74.7334 35.9614 0.390678 -0.875708 -0.280823
-57.6524 74.8158 35.0895 0.449687 -0.853296 -0.263944
-58.1123 74.8874 34.0925 0.470317 -0.84199 -0.262926
-58.3571 75.0525 33.0485 0.491749 -0.832361 -0.255501
-58.3939 75.3091 32.1288 0.527323 -0.806639 -0.264546
-58.4261 75.6935 30.9986 0.548243 -0.790117 -0.274125
-58.4057 76.1375 29.8998 0.575609 -0.764895 -0.289154
-58.3566 76.5148 29.0232 0.587842 -0.756137 -0.287575
-58.3034 76.8873 28.1815 0.623658 -0.72304 -0.296085
-58.1736 77.3336 27.3066 0.636331 -0.718512 -0.280654
-58.0951 77.8828 26.1132 0.639398 -0.714032 -0.285171
-58.0611 78.282 25.2804 0.697888 -0.651913 -0.296584
-58.0524 78.7886 24.1984 0.704948 -0.64515 -0.294507
-58.0611 79.1705 23.3173 0.709708 -0.643791 -0.286091
-58.1312 79.569 22.3607 0.737879 -0.605891 -0.295759
-58.3102 80.0129 20.9399 0.757804 -0.584457 -0.290076
-58.5922 80.2845 19.6498 0.758609 -0.584183 -0.288517
-58.8415 80.5234 18.4027 0.772313 -0.582025 -0.254474
-59.0575 80.7306 17.2525 0.770222 -0.593542 -0.232347
-59.0307 81.22 15.9765 0.764461 -0.606881 -0.217474
-58.8895 81.6153 15.1721 0.758791 -0.630634 -0.162804
-58.6374 82.1467 14.0601 0.755341 -0.647096 -0.103571
-58.3437 82.5872 13.2315 0.735911 -0.672838 -0.07566
-57.8306 83.2158 12.3237 0.718353 -0.694119 -0.0455653
-57.1261 83.9308 11.4151 0.677093 -0.735591 0.0211865
-56.5565 84.3801 10.4212 0.643549 -0.762724 0.0625611
-56.0023 84.6956 9.2446 0.580365 -0.806917 0.109826
-55.3694 85.0564 8.37305 0.544766 -0.835379 0.0729123
-54.6444 85.4406 7.49312 0.531902 -0.842773 0.082546
-54.1101 85.6967 6.66595 0.513948 -0.853415 0.084279
-53.6325 85.9231 5.89041 0.491561 -0.869892 0.0406982
-53.1769 86.1403 5.11694 0.487827 -0.871721 0.0461187
-52.6642 86.4213 4.32439 0.472007 -0.881333 -0.0214947
-52.0894 86.7855 3.50737 0.488055 -0.86855 -0.086155
-51.1377 87.3879 2.54302 0.454891 -0.878945 -0.143282
-50.104 88.1531 1.59251 0.458661 -0.847943 -0.265749
-49.3101 88.8515 0.843101 0.469728 -0.817559 -0.333095
-48.789 89.4011 0.213457 0.43483 -0.818349 -0.375803
-48.1594 90.0794 -0.582321 0.386615 -0.822313 -0.417529
-47.7541 90.6057 -1.32652 0.315245 -0.853804 -0.411422
-47.5252 91.1199 -2.1106 0.270913 -0.864793 -0.417915
-47.2753 91.5878 -2.9711 0.22319 -0.875058 -0.429487
-47.211 92.0014 -3.90253 0.137794 -0.914102 -0.379969
-47.1719 92.4176 -4.89376 0.104588 -0.925962 -0.362843
-47.036 92.8132 -5.86513 0.0501334 -0.926537 -0.372848
-47.085 93.1434 -6.8399 0.0038631 -0.956875 -0.288896
-47.2259 93.5179 -8.20177 -0.0537462 -0.977007 -0.205913
-47.282 93.7953 -9.64937 -0.0835941 -0.986438 -0.141253
-47.3113 93.9455 -10.544 -0.139682 -0.971893 -0.188824
-47.3232 94.0931 -11.4785 -0.178678 -0.976584 -0.119827
-47.2804 94.1945 -12.6208 -0.162489 -0.985852 -0.0411497
-46.9566 94.1676 -13.7919 -0.146865 -0.988922 0.0215442
-46.3698 93.9996 -14.8294 -0.181838 -0.978508 0.0972456
-45.9257 93.8145 -15.7602 -0.132674 -0.96797 0.211314
-45.5602 93.5614 -16.621 -0.116939 -0.965137 0.234171
-45.2501 93.212 -17.542 -0.174864 -0.939969 0.291062
-45.1608 92.7689 -18.5725 -0.199448 -0.849241 0.473225
-45.196 92.2294 -19.3901 -0.0952315 -0.844365 0.527237
-45.2553 91.697 -20.1191 -0.0455874 -0.789081 0.612596
-45.2836 91.0718 -20.885 -0.0202431 -0.744197 0.667653
-45.2355 90.3652 -21.664 -0.0225364 -0.720158 0.693109
-44.8836 89.7595 -22.261 -0.0165327 -0.70464 0.709367
-43.816 89.3109 -22.71 0.0282363 -0.703589 0.710036
-42.6399 89.2847 -22.7967 0.0612073 -0.699545 0.711962
-41.3985 89.549 -22.6111 0.051654 -0.725609 0.686166
-40.6358 89.9041 -22.2929 0.0492044 -0.735685 0.675369
-39.7634 90.589 -21.5518 0.091989 -0.77637 0.623528
-39.2917 91.1261 -20.9151 0.0918912 -0.815473 0.569702
-38.8802 91.6836 -20.0244 0.0507302 -0.876307 0.479074
-38.6578 92.0789 -19.2169 0.0196782 -0.923347 0.383463
-38.4938 92.4635 -18.2318 0.0112372 -0.940058 0.340831
-38.4208 92.8768 -17.0371 -0.0109916 -0.951555 0.307282
-38.4239 93.1509 -16.096 -0.0108927 -0.970651 0.240247
-38.5096 93.3827 -15.1598 -0.0256834 -0.979307 0.19525
-38.4497 93.5244 -14.2243 -0.0357439 -0.989298 0.140859
-38.5324 93.6394 -13.2267 -0.0410359 -0.993701 0.104277
-38.7777 93.7334 -12.1102 -0.0234139 -0.998368 0.0520888
-39.0385 93.7834 -11.0767 -0.0136882 -0.999574 0.0251677
-39.2915 93.7942 -9.8937 0.00181937 -0.999765 -0.0213298
-39.5916 93.7571 -8.87864 0.0197386 -0.998355 -0.0536912
-39.9134 93.7016 -8.01903 0.0332906 -0.995763 -0.0811
-40.1658 93.5909 -6.93855 0.0605198 -0.99525 -0.07626
-40.5354 93.4223 -5.7209 0.0921928 -0.988068 -0.122621
-40.9088 93.2166 -4.60641 0.140579 -0.975286 -0.168915
-41.0244 93.0998 -4.10035 0.151593 -0.971341 -0.182808
-39.9879 93.2559 -4.11861 0.130223 -0.975279 -0.178532
-39.6154 93.4601 -5.27036 0.125764 -0.986727 -0.102358
-39.396 93.581 -6.15963 0.113825 -0.987478 -0.109227
-39.1382 93.6574 -7.05963 0.0499225 -0.995677 -0.0783319
-38.9159 93.7446 -7.96538 0.0707956 -0.99667 -0.0404531
-38.4364 93.7842 -9.2835 0.0151716 -0.99973 -0.00767518
-38.2387 93.7946 -10.2543 -0.00134605 -0.999808 0.0192438
-37.9591 93.7732 -11.4579 0.0129276 -0.999011 0.0348351
-37.6392 93.6602 -12.9053 -0.00797685 -0.994402 0.105285
-37.4843 93.4784 -14.5242 0.00514217 -0.990578 0.134406
-37.4935 93.3104 -15.4207 -0.0064001 -0.970693 0.240239
-37.4536 92.9699 -16.7407 -0.00901885 -0.95891 0.282097
-37.5425 92.5679 -17.9739 0.00445484 -0.944915 0.326907
-37.6413 92.1611 -19.1285 0.057279 -0.941047 0.331503
-37.8548 91.8006 -20.0571 0.121625 -0.915085 0.377045
-38.2846 91.0602 -21.1646 0.115242 -0.792401 0.599014
-38.7242 90.5123 -21.8072 0.107195 -0.774764 0.622318
-39.6767 89.6539 -22.6919 0.0778571 -0.759321 0.646042
-40.8844 88.9757 -23.2701 0.0591812 -0.732103 0.678618
-41.7887 88.6864 -23.4535 0.0586797 -0.696219 0.715427
-42.7103 88.5444 -23.516 0.0742498 -0.675888 0.732606
-43.6337 88.5215 -23.4716 0.0432734 -0.676856 0.734842
-44.9493 88.8726 -23.0983 0.0090423 -0.674641 0.738072
-45.9804 89.5485 -22.508 -0.0302449 -0.683996 0.728139
-46.1937 90.6613 -21.4385 -0.0752577 -0.714205 0.694113
-46.1503 91.7045 -20.2252 -0.0930095 -0.775029 0.624473
-46.0929 92.6915 -18.934 -0.133545 -0.794519 0.591691
-46.1501 93.2733 -17.9915 -0.219011 -0.92084 0.316847
-46.4361 93.6455 -16.8614 -0.193504 -0.951358 0.238566
-47.07 94.0558 -15.4365 -0.158663 -0.975936 0.145999
-47.7563 94.2848 -14.3807 -0.158991 -0.984458 0.0617463
-48.3028 94.4062 -13.3773 -0.17407 -0.984134 0.0343581
-48.3257 94.4213 -12.258 -0.257707 -0.966222 -0.00146993
-48.4085 94.2872 -11.3627 -0.229152 -0.953499 -0.194281
-48.3271 94.0315 -10.2797 -0.104158 -0.970095 -0.219194
-48.2419 93.8506 -9.39743 -0.0851152 -0.978785 -0.186375
-48.1448 93.5706 -8.07984 -0.110682 -0.971365 -0.210239
-48.0879 93.2391 -7.05196 -0.0354949 -0.950531 -0.308595
-48.0079 92.8817 -6.13166 -0.011301 -0.909055 -0.411535
-48.1138 92.5291 -5.28128 0.0352168 -0.909639 -0.413904
-48.1913 92.0646 -4.34443 0.115975 -0.894702 -0.43012
-48.2082 91.6782 -3.53154 0.155125 -0.880275 -0.448389
-48.4578 90.9083 -2.35891 0.299497 -0.810692 -0.500504
-48.7404 90.273 -1.50053 0.388221 -0.784706 -0.477996
-49.3361 89.4637 -0.631338 0.46933 -0.779144 -0.410036
-50.0387 88.7039 0.205366 0.461861 -0.815533 -0.348698
-50.6929 88.0305 0.839294 0.524762 -0.825165 -0.208222
-51.3145 87.5167 1.36118 0.526255 -0.828967 -0.189392
-52.1081 86.9379 2.16894 0.465735 -0.875361 -0.129748
-52.7444 86.4753 2.87537 0.494413 -0.865751 -0.0776597
-53.2933 86.0938 3.6734 0.487089 -0.871539 -0.0521016
-53.9103 85.7061 4.61659 0.51482 -0.856511 -0.00974725
-54.4968 85.3959 5.6254 0.523459 -0.85067 0.0465483
-55.1989 85.0319 6.77344 0.523567 -0.849151 0.0694322
-55.895 84.65 7.67916 0.546503 -0.834843 0.0661161
-56.4587 84.3276 8.4275 0.558691 -0.828549 0.0370099
-56.9774 83.9762 9.3894 0.618467 -0.785369 0.0232718
-57.3484 83.7195 10.2119 0.619175 -0.784372 0.0371016
-57.8769 83.2302 11.0157 0.666272 -0.745054 -0.00650006
-58.4473 82.6216 11.8953 0.689407 -0.722247 -0.0554727
-58.863 82.1221 12.584 0.716342 -0.692352 -0.0865666
-59.226 81.6394 13.295 0.729751 -0.669298 -0.139655
-59.3953 81.2544 14.2892 0.722687 -0.672496 -0.157125
-59.6129 80.7877 15.0869 0.729215 -0.658002 -0.187829
-59.7272 80.3769 15.9998 0.730137 -0.647167 -0.21926
-59.6353 79.9205 17.4967 0.739588 -0.622535 -0.255806
-59.3504 79.7056 18.7704 0.745484 -0.604599 -0.280325
-59.172 79.5311 19.6553 0.746176 -0.614059 -0.256568
-58.9429 79.3172 20.7572 0.709715 -0.640235 -0.293946
-58.7989 79.0759 21.677 0.700596 -0.657483 -0.277277
-58.7135 78.6072 22.9794 0.704732 -0.649214 -0.286134
-58.6779 78.2634 23.8433 0.70396 -0.649476 -0.28744
-58.7524 77.8658 24.7444 0.663678 -0.695743 -0.272282
-58.8564 77.3062 25.8432 0.640902 -0.713404 -0.283373
-58.8869 76.8897 26.8593 0.59334 -0.759935 -0.265329
-59.0864 76.3758 27.8975 0.583871 -0.765878 -0.269305
-59.1027 76.0365 28.7688 0.574169 -0.768373 -0.282309
-59.1976 75.4815 30.0951 0.557763 -0.775245 -0.296471
-59.2355 75.1414 31.0268 0.516971 -0.807816 -0.28315
-59.238 74.7976 32.0814 0.51028 -0.827121 -0.235553
-59.1364 74.5218 33.3732 0.479114 -0.848969 -0.221634
-58.667 74.3447 34.9691 0.442045 -0.864361 -0.238334
-58.1944 74.2953 35.9728 0.414577 -0.879948 -0.230521
-57.7805 74.2532 36.7759 0.389858 -0.894592 -0.214022
-57.2025 74.236 37.7901 0.328856 -0.911506 -0.247002
-56.5629 74.1336 39.0094 0.291504 -0.926422 -0.238259
-55.728 74.1034 40.0266 0.260198 -0.932292 -0.250666
-55.0763 74.1259 40.668 0.232695 -0.939411 -0.249422
-54.0304 74.0758 41.615 0.181817 -0.941362 -0.283722
-53.1394 74.0343 42.2623 0.169796 -0.947815 -0.269048
-52.1598 74.0084 42.8179 0.152539 -0.935777 -0.31789
-51.3028 74.0005 43.2218 0.115808 -0.939855 -0.321343
-50.3928 74.0522 43.3771 0.104128 -0.939017 -0.327712
-49.3618 74.1402 43.4244 0.0737227 -0.941568 -0.328657
-48.2448 74.2388 43.3635 0.0577878 -0.936444 -0.346
-46.9987 74.4826 42.8909 0.0315972 -0.933261 -0.357789
-45.877 74.7674 42.2594 0.0149473 -0.929696 -0.367463
-44.6851 75.0088 41.6178 -0.0262168 -0.917984 -0.39575
-43.5721 75.4215 40.5596 -0.0863076 -0.913409 -0.397787
-42.9729 75.704 39.9389 -0.115872 -0.883893 -0.449426
-42.3457 76.0365 39.139 -0.119555 -0.861408 -0.493643
-41.6737 76.5646 38.0946 -0.142432 -0.830915 -0.53786
-41.1919 77.1666 37.0186 -0.169191 -0.810109 -0.55965
-40.8397 77.731 36.1641 -0.178136 -0.783731 -0.594996
-40.3299 78.1327 35.4221 -0.24282 -0.75401 -0.610334
-39.8707 78.7239 34.5479 -0.221124 -0.721376 -0.656293
-39.5656 79.2926 33.8098 -0.234067 -0.715257 -0.658498
-39.1513 79.9848 32.8955 -0.2507 -0.697194 -0.670755
-38.6928 80.6456 32.0758 -0.26407 -0.668084 -0.69542
-37.7098 81.3693 31.053 -0.251533 -0.654997 -0.712538
-36.8791 82.0055 30.1702 -0.254827 -0.657601 -0.70896
-36.228 82.4662 29.5259 -0.239619 -0.66456 -0.707726
-35.6284 82.8669 28.9368 -0.235872 -0.669779 -0.704071
-35.0512 83.278 28.3549 -0.234734 -0.689264 -0.68543
-34.003 83.9136 27.365 -0.236537 -0.718932 -0.651797
-33.3465 84.1994 26.7542 -0.244945 -0.749065 -0.61555
-32.474 84.5865 25.8781 -0.258904 -0.782446 -0.566345
-31.9792 84.9797 25.093 -0.261531 -0.79991 -0.540135
-31.5398 85.4857 24.0951 -0.277443 -0.825342 -0.49082
-31.1584 86.0772 22.8228 -0.264054 -0.838492 -0.476661
-30.9045 86.444 21.9197 -0.257095 -0.87529 -0.409597
-30.8468 86.8982 20.9311 -0.23234 -0.879382 -0.415458
-30.519 87.2079 20.0348 -0.230072 -0.892099 -0.388878
-30.2413 87.5499 19.1591 -0.193045 -0.892442 -0.40755
-29.9533 88.0578 17.9514 -0.155344 -0.892835 -0.421744
-29.7123 88.5464 16.8408 -0.13098 -0.884616 -0.447548
-29.6949 89.1059 15.7946 -0.021173 -0.894162 -0.447243
-29.5832 89.7485 14.6099 0.0454709 -0.873105 -0.484642
-29.6027 90.175 13.7984 0.0845995 -0.854534 -0.509317
-29.493 90.8096 12.7824 0.119581 -0.860717 -0.49484
-29.334 91.6741 11.5865 0.222232 -0.806687 -0.547604
-29.1597 92.3018 10.9452 0.37645 -0.750534 -0.531425
-28.8122 92.8266 10.3075 0.409603 -0.811002 -0.417734
-28.3352 93.3844 9.67353 0.3945 -0.83329 -0.385898
-27.6715 93.905 9.11782 0.347829 -0.877979 -0.328804
-26.5502 94.5434 8.57723 0.346845 -0.883737 -0.314027
-25.436 95.1384 8.03272 0.33379 -0.901102 -0.276283
-24.6794 95.6328 7.31441 0.316459 -0.920425 -0.229503
-23.8956 96.023 6.77285 0.269513 -0.936564 -0.223973
-23.1854 96.3565 6.21745 0.270364 -0.937896 -0.217381
-22.2709 96.7287 5.45021 0.200112 -0.956089 -0.213085
-21.4567 97.1156 4.47349 0.226345 -0.962354 -0.130777
-20.4432 97.3995 3.65428 0.160193 -0.97231 -0.170149
-19.7905 97.6293 3.02812 0.18197 -0.967039 -0.178109
-19.0511 97.8796 2.40758 0.230447 -0.96737 -0.105306
-18.1495 98.0868 2.03735 0.10242 -0.99256 -0.000646408
-16.725 98.1568 1.51902 0.0611912 -0.996911 0.0462943
-15.2318 98.2199 1.00744 0.0231357 -0.989751 0.118354
-14.135 98.116 0.897857 -0.14649 -0.975886 0.161825
-12.8992 97.922 0.89202 -0.1861 -0.964759 0.181916
-11.7702 97.6757 0.985411 -0.244311 -0.947784 0.204981
-10.621 97.3862 0.89135 -0.207514 -0.92497 0.315871
-9.51642 96.9534 0.695071 -0.29894 -0.885446 0.355837
-8.78849 96.4324 0.147207 -0.375568 -0.848293 0.373294
-8.33574 95.8737 -0.542919 -0.481354 -0.777803 0.40391
-8.22362 95.3759 -1.48918 -0.497543 -0.80851 0.314265
-8.38956 95.0145 -2.60776 -0.534 -0.788237 0.305821
-8.70921 94.803 -3.63564 -0.581194 -0.745793 0.325489
-9.1567 94.7996 -4.45998 -0.587443 -0.742464 0.321959
-9.80522 95.017 -5.22991 -0.552285 -0.782498 0.287536
-10.429 95.2113 -5.91775 -0.57068 -0.792915 0.213019
-11.1558 95.5058 -6.71733 -0.511349 -0.84124 0.17561
-11.9578 95.8741 -7.28136 -0.509837 -0.841899 0.17684
-12.7083 96.2649 -7.70982 -0.502524 -0.860584 0.073238
-13.4725 96.6608 -8.08893 -0.478092 -0.876995 0.0480454
-14.8723 97.3803 -8.26137 -0.443179 -0.895753 0.0214381
-15.8535 97.8357 -8.28024 -0.489709 -0.864295 -0.0528748
-16.7622 98.2875 -8.2745 -0.37462 -0.910481 -0.17517
-17.6029 98.5843 -8.00463 -0.351098 -0.91593 -0.179325
-19.1391 98.8805 -7.38242 -0.257389 -0.939779 -0.224869
-20.2515 98.8421 -6.81196 -0.0916798 -0.97788 -0.188004
-21.1465 98.7904 -6.24812 -0.0402528 -0.982919 -0.179581
-22.0146 98.7144 -5.7078 -0.0045216 -0.976844 -0.213905
-23.2219 98.501 -4.94537 0.0890401 -0.976459 -0.196457
-24.0084 98.3143 -4.3932 0.121974 -0.973019 -0.195847
-24.6767 98.1156 -3.82252 0.130052 -0.969424 -0.207576
-25.6154 97.8257 -3.13698 0.194151 -0.957116 -0.20705
-26.3545 97.5964 -2.64495 0.15487 -0.966096 -0.204474
-27.1515 97.3096 -1.99781 0.179482 -0.952928 -0.242949
-27.992 96.9892 -1.44146 0.20369 -0.947609 -0.24595
-28.854 96.5848 -0.659666 0.21323 -0.942292 -0.258106
-29.5292 96.2404 -0.0698749 0.251322 -0.934379 -0.252533
-30.2359 95.9058 0.464652 0.258001 -0.932685 -0.251965
-31.0177 95.4707 1.17854 0.268124 -0.921692 -0.280345
-32.0731 94.8849 1.99903 0.285538 -0.913436 -0.290003
-32.8897 94.4813 2.51009 0.270224 -0.918733 -0.287939
-33.6223 94.1079 2.90431 0.264386 -0.907371 -0.326767
-34.399 93.6696 3.50435 0.221584 -0.91117 -0.347375
-35.1864 93.301 3.93441 0.213224 -0.907892 -0.36066
-36.091 93.0885 3.86393 0.292296 -0.868849 -0.398635
-37.3691 92.6659 3.72303 0.332503 -0.865727 -0.374104
-38.2088 92.4776 3.37978 0.371094 -0.858489 -0.353958
-38.9835 92.3635 2.83785 0.370974 -0.860258 -0.34976
-39.6871 92.3578 2.03625 0.412727 -0.85967 -0.301039
-40.1739 92.4135 1.13759 0.408764 -0.876836 -0.252969
-40.4253 92.5592 0.198134 0.381927 -0.904333 -0.167652
-40.4217 92.7501 -1.18218 0.288548 -0.94182 -0.172383
-40.3061 92.9124 -2.19297 0.212744 -0.965312 -0.15137
-40.1284 93.1015 -3.37721 0.160295 -0.976998 -0.127575
-40.0983 93.1436 -3.58557 0.13022 -0.975278 -0.178537
-42.5256 92.9114 -4.38551 0.160002 -0.96452 -0.21
-43.7458 92.7263 -4.42635 0.160013 -0.959868 -0.230325
-45.039 92.5729 -4.46203 0.130512 -0.944058 -0.302856
-45.0666 92.5688 -4.46317 0.152033 -0.928143 -0.339759
-45.3177 92.8534 -5.54145 0.0832448 -0.950439 -0.29956
-44.3753 92.9432 -5.51845 0.110467 -0.963 -0.245822
-43.374 93.0459 -5.49455 0.104671 -0.968801 -0.224653
-42.2322 93.1897 -5.46504 0.136981 -0.971682 -0.192538
-42.3627 93.368 -6.56437 0.0775509 -0.98695 -0.141124
-43.5882 93.2737 -6.58417 0.056283 -0.984509 -0.166055
-44.5034 93.201 -6.6025 0.0834339 -0.965205 -0.247826
-45.468 93.1346 -6.62044 0.0511651 -0.965079 -0.256913
-45.5566 93.1312 -6.62152 0.0403386 -0.962076 -0.269784
-45.1667 93.3969 -7.70181 0.0160574 -0.980704 -0.194838
-44.1582 93.4563 -7.68626 0.0654041 -0.977676 -0.199678
-43.2416 93.4979 -7.67496 0.0342879 -0.981034 -0.19078
-42.3128 93.5259 -7.66678 0.0578192 -0.991781 -0.114134
-41.6743 93.5667 -7.65874 0.0646822 -0.992439 -0.104311
-41.3359 93.7129 -8.76072 0.0382611 -0.99562 -0.0853048
-42.6369 93.6479 -8.77532 0.0344039 -0.992083 -0.120778
-43.8129 93.6256 -8.78475 0.0210427 -0.993165 -0.114803
-44.7198 93.5994 -8.79351 0.0102236 -0.98834 -0.15192
-45.6568 93.5996 -8.79927 -0.0121747 -0.988446 -0.151083
-45.5121 93.7666 -9.90093 -0.0309873 -0.991764 -0.124274
-44.3051 93.7489 -9.89441 -0.00933746 -0.993032 -0.11747
-43.2738 93.7561 -9.8868 -0.00765003 -0.996833 -0.0791532
-41.9569 93.7559 -9.8768 0.0076095 -0.996955 -0.0776091
-41.1921 93.7683 -9.87044 0.0250668 -0.998606 -0.046442
-40.608 93.8062 -10.9788 0.0120441 -0.999633 -0.0242826
-41.6063 93.8074 -10.9847 -0.0223413 -0.999446 -0.0246795
-42.5537 93.8299 -10.991 -0.023063 -0.99925 -0.0311206
-43.756 93.8344 -10.9999 0.000634083 -0.99831 -0.0581061
-44.7633 93.8549 -11.0058 -0.00993871 -0.99721 -0.0739867
-45.1276 93.8546 -11.0084 -0.0236176 -0.995433 -0.0924951
-45.6482 93.9591 -12.1222 -0.0716153 -0.996232 -0.0489279
-44.4943 93.9054 -12.1167 -0.0152954 -0.998913 -0.044043
-43.2212 93.8756 -12.1076 -0.00993451 -0.999942 -0.00405707
-42.1754 93.8549 -12.0996 -0.0445221 -0.999006 -0.00236943
-41.1827 93.7919 -12.0918 -0.0428986 -0.998694 0.0277524
-40.5087 93.777 -12.0878 -0.0222852 -0.999331 0.0289909
-40.2646 93.7074 -13.1916 -0.03557 -0.995403 0.0889232
-41.6213 93.7675 -13.2033 -0.0610289 -0.994245 0.0880487
-42.6719 93.8199 -13.2127 -0.0658356 -0.995553 0.0673849
-43.6591 93.8845 -13.2236 -0.0379224 -0.998778 0.031701
-44.6184 93.9219 -13.2314 -0.0551712 -0.998363 -0.0150635
-45.4333 93.9671 -13.2363 -0.0611088 -0.998069 -0.0111765
-44.9624 93.8686 -14.3454 -0.0789682 -0.990654 0.111216
-43.7915 93.7722 -14.3306 -0.0870091 -0.989551 0.114967
-42.7237 93.7067 -14.3173 -0.0626175 -0.987356 0.145626
-41.6657 93.6412 -14.304 -0.0631964 -0.987335 0.145519
-40.2715 93.5742 -14.2898 -0.0350194 -0.991022 0.129028
-40.185 93.3703 -15.3757 -0.0430842 -0.970924 0.235478
-41.4809 93.4381 -15.3916 -0.0912821 -0.978566 0.184597
-42.6656 93.5351 -15.4153 -0.0819336 -0.975507 0.204141
-44.0624 93.6365 -15.4374 -0.0988737 -0.981397 0.164571
-44.1357 93.6437 -15.4388 -0.0915936 -0.980607 0.173262
-43.8697 93.3493 -16.511 -0.140137 -0.937515 0.318477
-42.8474 93.2675 -16.4892 -0.0640886 -0.947677 0.312732
-41.7307 93.178 -16.466 -0.05948 -0.96669 0.248944
-40.823 93.1286 -16.4541 -0.0558961 -0.96789 0.24508
-40.059 93.0982 -16.4468 -0.0390296 -0.968048 0.247709
-39.9365 92.7613 -17.4992 -0.0438793 -0.929647 0.36583
-41.0455 92.8063 -17.5095 -0.0374225 -0.929504 0.366907
-42.2555 92.8778 -17.5308 -0.0993018 -0.94047 0.325047
-43.6901 92.9716 -17.5574 -0.0357056 -0.927012 0.373328
-43.776 92.9764 -17.5589 -0.136329 -0.905424 0.402022
-43.4952 92.4952 -18.5628 -0.0684721 -0.907828 0.413714
-42.1945 92.4598 -18.5572 -0.0782266 -0.895023 0.439106
-41.0242 92.3843 -18.5328 -0.0185396 -0.915842 0.401109
-40.3787 92.3668 -18.5301 -0.0209902 -0.898058 0.439377
-40.838 91.9045 -19.5302 -0.0139934 -0.869566 0.493619
-42.2117 91.92 -19.5244 -0.0338914 -0.845312 0.533197
-43.2305 91.9464 -19.5283 -0.0240498 -0.851721 0.523444
-43.2423 91.9471 -19.5285 -0.0755781 -0.85601 0.511404
-43.6669 91.3469 -20.4578 -0.0377964 -0.786907 0.615913
-42.4612 91.3138 -20.4485 -0.012571 -0.785391 0.618872
-41.3692 91.2934 -20.4453 0.015316 -0.836708 0.547435
-40.8329 91.2986 -20.4541 0.0169969 -0.838254 0.545016
-41.9631 90.6475 -21.3413 0.0366268 -0.81828 0.573652
-42.9457 90.6366 -21.3242 -0.0186816 -0.761565 0.647819
-43.4924 90.6399 -21.3211 -0.000525361 -0.733835 0.679328
-45.6575 92.1097 -3.43716 0.191862 -0.926883 -0.322609
-44.555 92.2914 -3.38972 0.167655 -0.940803 -0.294588
-43.4926 92.4973 -3.33811 0.179294 -0.947331 -0.265363
-43.0971 92.5598 -3.32426 0.175588 -0.955017 -0.238982
-42.6512 92.3826 -2.22743 0.225237 -0.941478 -0.250775
-43.7814 92.1353 -2.28593 0.211526 -0.943903 -0.253584
-45.2653 91.8011 -2.37295 0.224098 -0.924888 -0.307185
-45.4303 91.7642 -2.3823 0.224098 -0.924888 -0.307185
-45.8795 91.2641 -1.37614 0.272139 -0.891213 -0.362877
-44.8806 91.5374 -1.29836 0.248319 -0.908795 -0.335304
-43.5292 91.8851 -1.21215 0.259332 -0.929615 -0.261846
-42.7396 92.0988 -1.159 0.272124 -0.926 -0.261671
-42.9276 91.7478 -0.113397 0.30603 -0.910175 -0.279153
-44.2638 91.358 -0.213769 0.283705 -0.908044 -0.308169
-45.3483 91.0298 -0.300818 0.287002 -0.902408 -0.321386
-46.1893 90.7801 -0.36851 0.325147 -0.873006 -0.363512
-46.7706 90.1811 0.601754 0.378667 -0.8521 -0.3613
-45.3173 90.6712 0.735899 0.326815 -0.884987 -0.331646
-44.4172 90.9473 0.807511 0.303925 -0.899592 -0.31363
-43.3198 91.3011 0.900386 0.312616 -0.902732 -0.295545
-42.5144 91.5515 0.962353 0.318317 -0.90545 -0.280775
-42.0275 91.3868 2.04913 0.330625 -0.89757 -0.291643
-42.931 91.0813 1.9684 0.327368 -0.898536 -0.292339
-43.8735 90.7664 1.88527 0.315013 -0.898161 -0.306713
-44.8217 90.4707 1.80989 0.30501 -0.903995 -0.299604
-45.783 90.1531 1.72793 0.330046 -0.898149 -0.290515
-46.6629 89.8348 1.64178 0.368091 -0.88117 -0.296728
-47.5523 89.4819 1.54848 0.404639 -0.86262 -0.303569
-48.9029 88.5284 2.44256 0.427567 -0.866939 -0.256132
-47.6228 89.1202 2.58528 0.417916 -0.881581 -0.219458
-46.6797 89.4965 2.68426 0.344923 -0.908252 -0.236868
-45.5246 89.9073 2.79094 0.345487 -0.908311 -0.235819
-44.6265 90.2028 2.86736 0.320572 -0.907463 -0.271561
-43.4 90.6004 2.97087 0.312595 -0.909975 -0.272453
-42.1974 90.9948 3.07606 0.334355 -0.899193 -0.282238
-41.5968 91.2012 3.13009 0.325839 -0.901361 -0.285267
-40.4521 91.2377 4.28383 0.346841 -0.890752 -0.293706
-41.5985 90.8641 4.17606 0.301417 -0.909879 -0.285075
-42.4645 90.5857 4.10198 0.32753 -0.909132 -0.2573
-43.6334 90.2141 4.00292 0.295384 -0.917849 -0.265143
-44.5852 89.9209 3.92498 0.309471 -0.917448 -0.250036
-45.5458 89.6261 3.84788 0.324316 -0.914921 -0.24029
-46.5619 89.2634 3.7534 0.33059 -0.919795 -0.211394
-47.5501 88.8902 3.66516 0.385322 -0.904274 -0.183888
-48.4023 88.5323 3.58612 0.421277 -0.889312 -0.177904
-49.4168 88.0699 3.49531 0.42216 -0.889312 -0.175798
-49.7533 87.9112 3.47092 0.423936 -0.899556 -0.105248
-50.7599 87.3781 4.55088 0.432687 -0.901531 -0.00482888
-49.4946 87.9446 4.61295 0.401756 -0.913159 -0.0687962
-48.4321 88.3815 4.68804 0.379483 -0.920971 -0.0883418
-47.0654 88.8792 4.7927 0.365608 -0.921093 -0.133859
-46.0714 89.2083 4.87615 0.31979 -0.93183 -0.171545
-45.1338 89.4979 4.94988 0.311558 -0.929393 -0.197891
-43.9327 89.8562 5.04494 0.276748 -0.938048 -0.20851
-43.016 90.1283 5.11777 0.293921 -0.927428 -0.231272
-41.4573 90.5913 5.24413 0.290096 -0.921372 -0.258685
-39.9355 91.051 5.38019 0.320084 -0.896613 -0.305994
-38.9275 91.3789 5.48365 0.331183 -0.88607 -0.324342
-38.749 91.4401 5.504 0.325655 -0.884126 -0.335067
-33.6104 92.937 6.06342 0.289995 -0.885675 -0.362605
-32.4916 93.2642 6.19109 0.312628 -0.879209 -0.359521
-31.5158 93.561 6.31028 0.304887 -0.883309 -0.356102
-30.6391 93.8199 6.41413 0.31094 -0.883975 -0.349148
-29.7297 94.0967 6.52334 0.311468 -0.884288 -0.347884
-28.2815 94.5582 6.69347 0.321442 -0.891346 -0.319652
-29.7211 93.6919 7.56407 0.323032 -0.881641 -0.344034
-31.1518 93.2401 7.37528 0.319308 -0.870541 -0.374434
-32.0678 92.9698 7.26136 0.30327 -0.873729 -0.380295
-32.966 92.7088 7.15485 0.30231 -0.879271 -0.368091
-33.9469 92.43 7.04468 0.281596 -0.890145 -0.358253
-34.8655 92.1785 6.94754 0.279601 -0.89116 -0.357291
-35.7647 91.9353 6.85618 0.285841 -0.891293 -0.351983
-36.7829 91.6373 6.74515 0.300667 -0.887435 -0.349367
-38.0539 91.2718 6.61445 0.288424 -0.906264 -0.309025
-39.4063 90.8755 6.48272 0.300886 -0.901953 -0.309755
-40.6251 90.5208 6.3736 0.253125 -0.928685 -0.271057
-41.576 90.2737 6.30196 0.286203 -0.927343 -0.241085
-42.58 89.991 6.22524 0.287035 -0.928904 -0.233983
-43.454 89.7564 6.16173 0.259679 -0.944506 -0.201186
-44.3505 89.5068 6.09256 0.270167 -0.943841 -0.190195
-45.3584 89.2242 6.01931 0.290584 -0.941008 -0.173393
-46.4792 88.9132 5.94051 0.269153 -0.956514 -0.112414
-47.4586 88.6167 5.86919 0.332949 -0.936794 -0.107526
-48.6289 88.2302 5.7888 0.336132 -0.941505 -0.0241426
-49.4973 87.9119 5.73863 0.364766 -0.931048 -0.00978537
-50.4244 87.5259 5.69553 0.388074 -0.921615 -0.00485635
-51.2533 87.144 5.66575 0.414285 -0.908899 0.0476414
-51.7071 86.9364 5.65271 0.433819 -0.899756 0.0473349
-52.2702 86.7216 6.77605 0.43798 -0.895523 0.0788118
-51.1678 87.238 6.80119 0.409034 -0.911657 0.0396539
-50.0624 87.7039 6.84071 0.36448 -0.930338 0.0403167
-49.0989 88.0402 6.88725 0.290153 -0.956601 0.0269276
-47.9885 88.3905 6.95256 0.280728 -0.958308 -0.0532724
-47.0852 88.6439 7.01134 0.252077 -0.965355 -0.067424
-45.9048 88.9317 7.08786 0.253808 -0.959833 -0.119595
-44.9096 89.1648 7.14766 0.242161 -0.959838 -0.141663
-43.9104 89.4205 7.21685 0.245894 -0.957111 -0.153212
-43.0062 89.6389 7.27905 0.251081 -0.950137 -0.184926
-42.1173 89.8731 7.34308 0.265312 -0.938255 -0.222009
-41.0668 90.1349 7.41813 0.249201 -0.940101 -0.232611
-39.9661 90.4025 7.49691 0.244809 -0.940666 -0.234981
-38.8915 90.7015 7.58979 0.264202 -0.928573 -0.260673
-37.8702 90.9709 7.68008 0.285179 -0.912839 -0.29223
-36.707 91.2961 7.79363 0.281894 -0.907739 -0.310717
-35.5755 91.5905 7.89989 0.250322 -0.913099 -0.321853
-34.3549 91.9089 8.0196 0.257623 -0.900518 -0.350283
-33.1229 92.2358 8.1482 0.270385 -0.890645 -0.365572
-32.0224 92.5459 8.27547 0.301586 -0.874789 -0.379197
-31.1633 92.7934 8.38366 0.325428 -0.854798 -0.404249
-30.8325 92.8986 8.42954 0.327508 -0.853171 -0.406001
-31.0611 92.3508 9.39115 0.30034 -0.837798 -0.455949
-32.2049 92.0343 9.25186 0.258255 -0.88434 -0.388905
-33.4631 91.7171 9.12285 0.266378 -0.883216 -0.38597
-34.49 91.4869 9.0353 0.25766 -0.907558 -0.331588
-35.4361 91.2551 8.94892 0.245901 -0.910994 -0.331094
-36.4115 91.0218 8.8631 0.266148 -0.910547 -0.316336
-37.3458 90.7706 8.77858 0.267184 -0.923487 -0.275289
-38.7154 90.4334 8.67001 0.240258 -0.944446 -0.224271
-39.7321 90.1963 8.59837 0.22561 -0.950908 -0.211836
-40.7313 89.9719 8.53023 0.229368 -0.951515 -0.204961
-41.7247 89.737 8.46185 0.239684 -0.95228 -0.188981
-43.1083 89.4242 8.37088 0.236405 -0.95602 -0.173604
-44.0367 89.2068 8.31219 0.23005 -0.964183 -0.132018
-44.9668 89.0116 8.25611 0.189741 -0.976795 -0.0993437
-45.9153 88.8195 8.20313 0.219212 -0.97162 -0.0888893
-46.8617 88.6114 8.143 0.190723 -0.980382 -0.0497612
-48.082 88.3414 8.0754 0.229941 -0.973204 0.00123494
-49.4381 87.966 8.00166 0.256485 -0.965999 0.0325823
-50.5635 87.5741 7.95432 0.331891 -0.940678 0.0705271
-51.5826 87.1332 7.92065 0.398545 -0.914478 0.0699454
-52.5991 86.6589 7.90395 0.422989 -0.901943 0.0870639
-52.8316 86.5496 7.90165 0.457693 -0.885211 0.0831813
-53.7185 86.1577 9.00052 0.492852 -0.864979 0.0943863
-52.9342 86.6023 9.0207 0.473477 -0.876073 0.0911847
-51.9206 87.1145 9.03963 0.40795 -0.906302 0.110429
-50.7371 87.608 9.08488 0.345309 -0.933237 0.0991454
-49.5829 88.0046 9.13623 0.284427 -0.956468 0.0653516
-48.3654 88.2982 9.19785 0.20829 -0.977133 0.0427435
-47.1135 88.5583 9.26066 0.193085 -0.981133 -0.00980636
-45.7931 88.7701 9.33678 0.121452 -0.992244 -0.0264658
-44.7835 88.9171 9.38844 0.177854 -0.978283 -0.106445
-43.5109 89.1497 9.45308 0.197693 -0.965754 -0.168038
-42.3385 89.3945 9.52204 0.223165 -0.95784 -0.180943
-41.3894 89.6001 9.58351 0.215904 -0.958586 -0.185736
-40.1984 89.8491 9.65856 0.219678 -0.955159 -0.198528
-39.2592 90.0559 9.71898 0.219042 -0.949062 -0.226499
-38.3766 90.2478 9.77511 0.22225 -0.948337 -0.22641
-37.036 90.5489 9.8688 0.22427 -0.929578 -0.292552
-35.6722 90.8446 9.97097 0.222872 -0.929897 -0.292608
-34.0535 91.1779 10.0938 0.214588 -0.910387 -0.353762
-33.102 91.3737 10.1671 0.187711 -0.908342 -0.373737
-31.674 91.6756 10.295 0.226506 -0.869459 -0.439016
-31.5054 91.7117 10.3105 0.258903 -0.859952 -0.439833
-31.8 91.1733 11.2793 0.183893 -0.885104 -0.427521
-32.785 90.9813 11.1999 0.183515 -0.89927 -0.397034
-33.8642 90.8177 11.1358 0.187711 -0.908342 -0.373737
-34.8961 90.6308 11.0683 0.171996 -0.926663 -0.334236
-35.7808 90.4684 11.0111 0.191446 -0.935396 -0.297291
-36.9528 90.2644 10.9439 0.193613 -0.945828 -0.26062
-38.0465 90.0453 10.8766 0.209185 -0.945914 -0.247967
-39.319 89.8007 10.8054 0.197732 -0.958278 -0.20641
-40.6129 89.5411 10.7322 0.206201 -0.958164 -0.198502
-41.7594 89.3451 10.6696 0.168724 -0.976379 -0.134966
-42.7782 89.1544 10.6072 0.203932 -0.973868 -0.099968
-43.8435 88.9519 10.5531 0.125757 -0.992058 -0.00229314
-45.1644 88.795 10.5006 0.104113 -0.994552 0.00516707
-46.237 88.675 10.4461 0.127789 -0.991766 0.0084167
-47.1788 88.5798 10.3951 0.0983591 -0.994398 0.0387074
-48.2174 88.3815 10.3497 0.189268 -0.979201 0.0730993
-49.3845 88.1171 10.2982 0.221519 -0.973638 0.0543842
-50.7971 87.7044 10.2265 0.281773 -0.957539 0.0610099
-51.9729 87.2092 10.1759 0.386028 -0.918363 0.0871314
-52.9176 86.7226 10.1438 0.46603 -0.880584 0.0859577
-53.8139 86.2184 10.1 0.496628 -0.863342 0.0894441
-54.6575 85.7285 10.0555 0.496399 -0.863452 0.0896542
-54.6923 85.7053 10.0545 0.562208 -0.819506 0.111053
-55.3875 85.388 11.1409 0.58862 -0.802972 0.0936091
-54.607 85.8742 11.1766 0.496177 -0.863557 0.0898782
-53.8272 86.3262 11.2142 0.496403 -0.863449 0.0896608
-53.0118 86.7777 11.263 0.476032 -0.870225 0.126895
-52.0491 87.2839 11.3166 0.374874 -0.922972 0.0871363
-50.7478 87.8027 11.3767 0.325149 -0.943392 0.0654984
-49.5155 88.1864 11.4379 0.264519 -0.957703 0.113291
-48.6198 88.4025 11.4725 0.192203 -0.977268 0.0894732
-47.6296 88.5733 11.5177 0.149308 -0.987816 0.0438922
-46.5648 88.7033 11.5685 0.0772757 -0.996053 0.0436694
-45.1429 88.8062 11.6382 0.102613 -0.994674 0.0097216
-43.9791 88.9107 11.6879 0.127175 -0.990663 -0.0491153
-42.5832 89.0669 11.7512 0.111659 -0.990233 -0.0834924
-41.4155 89.2143 11.8056 0.10601 -0.987981 -0.112497
-40.3519 89.3964 11.8546 0.191723 -0.967061 -0.167437
-39.4087 89.5588 11.8981 0.165934 -0.971506 -0.169239
-38.1774 89.7648 11.9573 0.179854 -0.956055 -0.23154
-36.944 89.9721 12.0195 0.165555 -0.958598 -0.231693
-35.7126 90.1592 12.0809 0.15869 -0.942603 -0.293797
-34.6973 90.3186 12.1344 0.137578 -0.936688 -0.322006
-33.6598 90.4285 12.1748 0.15273 -0.919745 -0.361584
-32.4233 90.5833 12.2343 0.127169 -0.90504 -0.405871
-31.858 90.6605 12.2673 0.146752 -0.898842 -0.412972
-32.0807 90.1782 13.2713 0.0754594 -0.926677 -0.368206
-32.9933 90.0946 13.2389 0.097746 -0.931995 -0.349043
-33.9105 90.0265 13.2132 0.0818337 -0.942624 -0.323671
-34.8085 89.9429 13.1843 0.116516 -0.941909 -0.31501
-35.8754 89.8245 13.1438 0.133562 -0.946351 -0.294245
-36.8373 89.6968 13.1035 0.115867 -0.968262 -0.221458
-37.8989 89.5647 13.0637 0.15152 -0.963038 -0.222712
-38.8195 89.426 13.0248 0.157975 -0.966902 -0.20036
-40.0196 89.2746 12.982 0.124182 -0.980017 -0.155387
-41.0085 89.1077 12.9411 0.144296 -0.983336 -0.110586
-42.0198 89.0271 12.9139 0.0495327 -0.996932 -0.0606115
-43.1652 88.9401 12.8721 0.0949576 -0.995396 -0.0130515
-44.2282 88.8623 12.8285 0.0502277 -0.998143 0.0344778
-45.3523 88.8036 12.783 0.0506739 -0.998093 0.0352454
-46.7663 88.7291 12.7141 0.0891143 -0.995429 0.0343397
-47.9971 88.5731 12.6533 0.136499 -0.989187 0.053633
-49.3341 88.3583 12.5857 0.15954 -0.985555 0.0568217
-50.533 87.9762 12.528 0.309695 -0.946414 0.0915931
-51.6152 87.569 12.4839 0.356329 -0.930531 0.0845079
-52.8165 87.0518 12.4099 0.434342 -0.894763 0.103665
-53.923 86.4055 12.3395 0.505016 -0.856701 0.104985
-54.932 85.7675 12.2795 0.606967 -0.794705 0.00582213
-56.0114 84.9358 12.2017 0.638568 -0.769564 -0.00144734
-56.1382 84.824 12.1891 0.662208 -0.74919 -0.0139313
-56.8847 84.1631 13.179 0.698555 -0.715314 -0.0186346
-55.8718 85.0998 13.2949 0.66788 -0.740176 0.0779453
-55.0203 85.7834 13.371 0.608798 -0.787189 0.0984832
-54.2577 86.3434 13.4384 0.573298 -0.815817 0.075975
-53.471 86.8161 13.502 0.453687 -0.888763 0.065331
-52.4111 87.3264 13.578 0.405236 -0.911668 0.0681571
-51.297 87.7878 13.6443 0.349369 -0.935262 0.0568071
-50.246 88.1737 13.7023 0.332879 -0.941426 0.0539422
-49.2546 88.4348 13.755 0.163736 -0.985062 0.0533158
-48.3348 88.5861 13.8034 0.114603 -0.993098 0.0249584
-47.2709 88.708 13.8579 0.112451 -0.993288 0.027094
-46.327 88.7974 13.9034 0.0673368 -0.997244 0.0311601
-45.2307 88.8539 13.9499 0.0437662 -0.998204 0.0409103
-44.2323 88.9012 13.9854 0.0459073 -0.998407 0.0327907
-43.197 88.946 14.0237 0.0402579 -0.998949 0.0219275
-42.1308 88.9802 14.0522 0.0293912 -0.999566 0.00190637
-41.1069 89.0116 14.0744 0.0717903 -0.996408 -0.0449128
-40.0993 89.1209 14.104 0.0985727 -0.990773 -0.0930178
-38.8335 89.2473 14.1391 0.116738 -0.981781 -0.149929
-37.4736 89.3821 14.1774 0.0793619 -0.978463 -0.190555
-36.1144 89.5029 14.2158 0.101469 -0.963301 -0.248506
-34.9906 89.6049 14.2477 0.0669269 -0.958601 -0.276776
-33.9671 89.6522 14.2648 0.0620463 -0.947205 -0.314569
-33.0554 89.7058 14.2834 0.0409274 -0.942604 -0.331394
-32.1733 89.7416 14.2972 0.0531087 -0.920533 -0.387037
-32.2366 89.3361 15.3354 0.0266467 -0.925604 -0.377554
-33.2418 89.3138 15.3286 0.0178062 -0.944443 -0.328191
-34.7247 89.2841 15.3202 0.030491 -0.969689 -0.242433
-35.9629 89.2575 15.312 0.0335427 -0.976411 -0.213299
-37.2008 89.1825 15.2907 0.0642173 -0.978163 -0.197671
-38.2263 89.1277 15.2736 0.0386833 -0.99263 -0.114841
-39.2976 89.0709 15.256 0.0812575 -0.99047 -0.111204
-40.6624 89.0211 15.2328 0.0229626 -0.999097 -0.0357424
-41.7041 88.995 15.213 0.0313133 -0.999507 0.00235728
-42.6101 88.973 15.1925 0.0221117 -0.999559 0.0198093
-43.8441 88.9483 15.1615 0.0178565 -0.999186 0.03616
-44.8842 88.9173 15.1296 0.0436877 -0.998217 0.0406665
-45.8942 88.8705 15.0929 0.0674028 -0.996686 0.0455458
-47.1325 88.7566 15.0422 0.0895998 -0.994621 0.0519654
-48.0986 88.6412 14.9948 0.116753 -0.992899 0.0228216
-49.0711 88.5098 14.9401 0.170364 -0.985165 0.0206454
-49.984 88.3222 14.887 0.326396 -0.944594 0.0347431
-50.9228 87.9909 14.835 0.364376 -0.931235 0.00563757
-52.0054 87.5405 14.7572 0.38529 -0.922631 0.0174198
-53.1128 87.0517 14.6693 0.440938 -0.897515 -0.00639178
-54.2426 86.397 14.565 0.560021 -0.828142 -0.0236156
-55.2348 85.6625 14.4649 0.626786 -0.777513 -0.0511089
-56.0565 84.9993 14.3598 0.692248 -0.720285 -0.0445208
-56.9361 84.0591 14.2164 0.737577 -0.674913 -0.021727
-57.4205 83.5366 14.1102 0.735551 -0.677051 -0.0238142
-57.8077 82.9875 15.0366 0.773344 -0.62726 -0.0921074
-57.153 83.7556 15.2073 0.749016 -0.653813 -0.107251
-56.5229 84.4394 15.3556 0.735852 -0.668029 -0.110723
-55.825 85.0826 15.4983 0.656494 -0.749856 -0.0820497
-54.8864 85.9245 15.6251 0.626428 -0.777995 0.0480843
-53.9248 86.5817 15.7382 0.535926 -0.843792 0.0282595
-53.1021 87.0335 15.8249 0.413304 -0.910446 -0.0163825
-52.197 87.4456 15.9076 0.415808 -0.909242 -0.0195573
-51.2228 87.8741 15.9823 0.391879 -0.919982 -0.00803004
-50.3443 88.1888 16.0387 0.267924 -0.959026 -0.0921146
-49.0254 88.4967 16.1295 0.190984 -0.981275 -0.0250095
-47.8209 88.7477 16.1938 0.165705 -0.985958 0.0207194
-46.9219 88.8354 16.2301 0.0761127 -0.996566 -0.0325916
-46.0168 88.9106 16.2677 0.0759989 -0.997077 0.00780896
-45.0142 88.9574 16.301 0.0453534 -0.998228 0.0385239
-44.0574 88.9738 16.323 0.0285424 -0.999589 0.00254895
-43.0502 89.0026 16.3442 0.0226882 -0.999575 0.0183213
-41.9482 88.9969 16.3637 -0.0122342 -0.999925 -0.000460237
-40.8876 88.9937 16.3791 0.00466246 -0.99998 -0.00435102
-39.9662 88.9906 16.3882 0.0033517 -0.999401 -0.0344314
-38.9923 89.0075 16.397 -0.00397973 -0.998573 -0.0532463
-37.7165 88.9995 16.4046 0.019162 -0.990763 -0.134241
-36.366 89.0057 16.4091 0.000925269 -0.987771 -0.155911
-34.834 89.0141 16.4078 -0.0218326 -0.975648 -0.218251
-33.2833 88.9689 16.3908 -0.00546719 -0.954752 -0.297352
-32.2474 88.9433 16.3784 -0.0403182 -0.937467 -0.345731
-32.6326 88.5951 17.4384 -0.0988388 -0.953082 -0.286121
-33.7104 88.6806 17.4712 -0.0694542 -0.959852 -0.271773
-34.7288 88.7451 17.4941 -0.0580397 -0.963579 -0.261051
-36.0102 88.7911 17.5123 -0.0291939 -0.987132 -0.157218
-37.0582 88.8404 17.5243 -0.0705795 -0.991617 -0.10823
-38.4766 88.9132 17.5351 -0.0368092 -0.995615 -0.0859994
-39.5306 88.9595 17.5372 -0.0189317 -0.998861 -0.0437897
-41.0484 88.9893 17.5295 -0.0220162 -0.999723 0.00828547
-42.2016 89.0109 17.5198 0.000481272 -0.999997 0.00225419
-43.1329 88.9967 17.5091 0.0196058 -0.999792 -0.00557345
-44.2147 88.9727 17.4933 0.0362837 -0.999331 0.00469324
-45.1494 88.9513 17.4713 0.014085 -0.99899 -0.0426774
-46.3402 88.8492 17.4285 0.101458 -0.994241 -0.0344995
-47.2985 88.7576 17.3931 0.0981291 -0.993877 -0.0507823
-48.5161 88.5861 17.3459 0.186581 -0.982379 0.0108674
-49.5848 88.3233 17.2921 0.28161 -0.959381 -0.0168449
-50.4808 88.084 17.2183 0.282336 -0.958013 -0.0499667
-51.4225 87.7655 17.1436 0.405232 -0.914124 -0.0128271
-52.3011 87.3778 17.0753 0.408042 -0.912902 -0.0105404
-53.3276 86.915 16.9872 0.45181 -0.891969 -0.0161209
-54.2721 86.3392 16.8573 0.603965 -0.777472 -0.175394
-55.0577 85.6875 16.7163 0.646604 -0.74243 -0.175216
-55.7873 84.9975 16.5791 0.680415 -0.721013 -0.131057
-56.499 84.2658 16.4112 0.732847 -0.659873 -0.165839
-57.2023 83.4939 16.2148 0.759826 -0.625316 -0.177887
-58.0197 82.5278 15.9416 0.793795 -0.589035 -0.15142
-57.9256 82.3383 16.9143 0.793867 -0.570248 -0.211168
-57.0634 83.3734 17.2398 0.765138 -0.613154 -0.196485
-56.1962 84.3855 17.5321 0.780699 -0.617315 -0.097114
-55.4545 85.1361 17.7249 0.638755 -0.755856 -0.143786
-54.6348 85.7959 17.8855 0.636388 -0.75778 -0.14415
-53.687 86.494 18.0545 0.571887 -0.805595 -0.154797
-52.8664 87.0117 18.1735 0.494404 -0.856359 -0.149046
-51.6525 87.582 18.2999 0.390568 -0.909192 -0.144315
-50.3376 88.0387 18.4119 0.283659 -0.954309 -0.0939759
-49.0039 88.3993 18.499 0.286543 -0.947283 -0.143346
-47.8976 88.6505 18.5538 0.186787 -0.977191 -0.101032
-46.6994 88.7701 18.6011 0.0963002 -0.994689 -0.0363452
-45.7036 88.8617 18.6352 0.0806697 -0.995627 -0.0471044
-44.6688 88.9374 18.6547 0.0781514 -0.995156 -0.0596383
-43.6376 88.9683 18.6685 -0.0196588 -0.998996 -0.040259
-42.5561 88.9695 18.6802 0.00751143 -0.998341 -0.0570917
-41.4386 88.9551 18.6908 -0.0216967 -0.997311 -0.0699952
-40.1561 88.9185 18.6922 -0.0166284 -0.998793 -0.0462252
-39.1006 88.88 18.6843 -0.0711208 -0.990678 -0.116181
-38.0491 88.7949 18.6698 -0.081601 -0.991873 -0.097617
-36.6626 88.6663 18.6407 -0.109024 -0.986162 -0.12489
-35.6203 88.5806 18.6152 -0.0842773 -0.979002 -0.185614
-34.4684 88.4681 18.5783 -0.131068 -0.968208 -0.21306
-33.5776 88.3459 18.5353 -0.136412 -0.958951 -0.248605
-32.8535 88.2667 18.5044 -0.114951 -0.936247 -0.332005
