-9.65937 97.6986 -1.04375 -0.356545 -0.902337 0.242161
-10.6308 97.9816 -1.12949 -0.27905 -0.942247 0.185208
-11.8322 98.3137 -1.16104 -0.230456 -0.963362 0.1372
-12.9997 98.5956 -1.20658 -0.21625 -0.969875 0.104675
-14.4641 98.8767 -1.08766 -0.131213 -0.987794 0.0675701
-15.583 98.9766 -0.572933 -0.0421693 -0.998639 0.00505777
-16.6922 98.9568 -0.170106 0.0356399 -0.998931 -0.0294337
-17.929 98.8854 0.309511 0.039004 -0.99738 -0.0609199
-19.0553 98.7568 0.95494 0.103718 -0.99103 -0.0842742
-20.1455 98.5325 1.70144 0.14608 -0.981063 -0.127185
-21.2262 98.1912 2.78153 0.190543 -0.969534 -0.153936
-22.0552 97.8985 3.47567 0.229228 -0.955296 -0.186716
-22.6841 97.6158 4.18992 0.243921 -0.953178 -0.177656
-23.5842 97.1547 5.21851 0.276779 -0.937673 -0.209295
-24.2759 96.825 5.71097 0.28326 -0.931986 -0.226198
-25.2038 96.3911 6.24582 0.30167 -0.916662 -0.262157
-26.112 95.8822 6.89855 0.332653 -0.898148 -0.287528
-26.8556 95.441 7.41654 0.333822 -0.898888 -0.283808
-27.5779 95.0215 7.82152 0.343905 -0.885605 -0.312141
-28.7822 94.3066 8.42837 0.353914 -0.86959 -0.343741
-29.4625 93.8613 8.88096 0.348108 -0.864534 -0.362097
-30.2457 93.1164 9.75279 0.352214 -0.83464 -0.423463
-30.5838 92.4377 10.7454 0.320127 -0.807179 -0.495965
-30.7075 91.9501 11.5389 0.244141 -0.832881 -0.496694
-30.7286 91.4378 12.4445 0.142178 -0.898911 -0.414314
-30.6928 90.8077 13.6907 0.0812421 -0.883795 -0.460767
-30.6959 90.3788 14.615 0.0423654 -0.895376 -0.441339
-30.6686 89.8464 15.7423 -0.0367625 -0.895721 -0.442133
-30.8225 89.3075 16.9647 -0.0851361 -0.918531 -0.38503
-30.9875 88.8438 18.1171 -0.153956 -0.914539 -0.37213
-31.1666 88.326 19.4965 -0.190817 -0.902233 -0.386735
-31.4863 87.9654 20.5767 -0.250309 -0.887931 -0.385907
-31.8002 87.5713 21.7422 -0.291711 -0.880144 -0.373308
-32.1162 87.0705 23.0468 -0.290258 -0.852175 -0.434356
-32.3807 86.6587 23.9785 -0.313251 -0.84186 -0.439483
-32.7577 86.2799 24.8948 -0.278948 -0.801097 -0.529557
-33.3353 85.942 25.6869 -0.259797 -0.786451 -0.560357
-33.9209 85.6351 26.3891 -0.2864 -0.78038 -0.555167
-34.6758 85.2261 27.1668 -0.276214 -0.706223 -0.651886
-35.4036 84.788 27.9344 -0.2769 -0.668241 -0.690492
-36.1217 84.244 28.7347 -0.244168 -0.663144 -0.707505
-36.8747 83.6332 29.5544 -0.250455 -0.658827 -0.709323
-37.4977 83.2148 30.1444 -0.252416 -0.63289 -0.73194
-38.1579 82.7921 30.7421 -0.255687 -0.638959 -0.725504
-38.8429 82.2548 31.4677 -0.269671 -0.641471 -0.718187
-39.406 81.7001 32.1747 -0.271836 -0.64177 -0.717099
-40.0331 81.0488 33.0366 -0.277966 -0.671172 -0.687214
-40.5064 80.3984 33.8572 -0.25363 -0.695957 -0.6718
-40.8988 79.7802 34.6353 -0.234351 -0.704351 -0.669634
-41.353 79.1696 35.4702 -0.219283 -0.715823 -0.66276
-41.786 78.5701 36.3178 -0.196101 -0.767082 -0.610844
-42.3195 77.8822 37.3531 -0.171599 -0.784981 -0.595281
-42.8016 77.4633 38.0441 -0.182473 -0.807082 -0.559272
-43.4128 77.046 38.8773 -0.111907 -0.85229 -0.510959
-44.0276 76.6814 39.5849 -0.0615154 -0.864231 -0.497677
-44.6879 76.4268 40.1554 -0.0587818 -0.884526 -0.462772
-45.6197 76.0827 40.951 -0.0299105 -0.891759 -0.450059
-46.4099 75.8609 41.4149 0.0129704 -0.9176 -0.397294
-47.376 75.6497 41.8491 0.0335139 -0.916873 -0.397598
-48.2237 75.4806 42.1283 0.0686432 -0.917898 -0.3908
-49.2872 75.3147 42.3405 0.06633 -0.919854 -0.386613
-50.7299 75.2173 42.133 0.118076 -0.932934 -0.339741
-51.8501 75.204 41.7394 0.149052 -0.928065 -0.340162
-52.6805 75.2413 41.2261 0.168889 -0.938245 -0.300764
-53.5972 75.2312 40.6736 0.206145 -0.932425 -0.296102
-54.6037 75.2871 39.7403 0.237887 -0.923047 -0.301711
-55.4364 75.3677 38.7414 0.262915 -0.922131 -0.283815
-56.0252 75.5211 37.6712 0.331268 -0.889293 -0.315308
-56.5016 75.6349 36.7512 0.38446 -0.887713 -0.253289
-57.2174 75.6683 35.6295 0.446033 -0.852631 -0.272168
-57.6098 75.7293 34.7955 0.453478 -0.838901 -0.299364
-57.9973 75.8986 33.588 0.510316 -0.81756 -0.266784
-58.2653 76.0504 32.5318 0.534793 -0.800753 -0.267045
-58.3395 76.3918 31.4072 0.571143 -0.767268 -0.290678
-58.3162 76.8494 30.2667 0.599418 -0.751716 -0.274993
-58.2476 77.3259 29.2394 0.607929 -0.736518 -0.296536
-58.1017 77.8844 28.1468 0.659394 -0.691041 -0.295531
-57.9503 78.4501 27.1732 0.67269 -0.680303 -0.290986
-57.8698 78.9362 26.23 0.677062 -0.668152 -0.307887
-57.7933 79.505 25.2339 0.69835 -0.651899 -0.293515
-57.7431 79.9463 24.4285 0.748065 -0.595325 -0.293235
-57.8031 80.4781 23.2745 0.771472 -0.559233 -0.303462
-58.0529 80.9028 21.8738 0.786335 -0.535668 -0.307795
-58.2854 81.094 20.9468 0.79198 -0.533615 -0.296408
-58.648 81.1951 19.7738 0.785034 -0.548403 -0.287981
-59.0005 81.2763 18.5994 0.787852 -0.556528 -0.263707
-59.1804 81.4754 17.6271 0.790355 -0.565635 -0.233643
-59.2301 81.9037 16.3178 0.767709 -0.605338 -0.20764
-59.0898 82.4842 14.9885 0.788056 -0.597278 -0.14282
-58.7505 83.0888 13.9999 0.768797 -0.630716 -0.103764
-58.328 83.7173 13.096 0.745382 -0.661526 -0.0763878
-57.9089 84.1891 12.3887 0.727348 -0.685881 -0.0230532
-57.4689 84.6332 11.6707 0.685049 -0.728014 0.0257239
-57.0477 84.9954 10.8892 0.645498 -0.757919 0.0702193
-56.6204 85.2261 10.1188 0.598525 -0.798815 0.0605152
-55.9759 85.5852 9.17894 0.570455 -0.814768 0.10361
-55.3886 85.8842 8.4205 0.535521 -0.836494 0.115086
-54.7941 86.1628 7.58106 0.534138 -0.839506 0.099632
-54.2066 86.4165 6.78833 0.497651 -0.861249 0.099421
-53.6495 86.6747 6.06049 0.495153 -0.865554 0.0751068
-53.1641 86.8772 5.19438 0.472771 -0.877557 0.075736
-52.6299 87.1585 4.42207 0.481402 -0.876493 0.00354944
-51.8735 87.6059 3.54201 0.45974 -0.88422 -0.0698005
-51.2615 87.9669 2.79361 0.44246 -0.889475 -0.109996
-50.5161 88.5028 2.03723 0.449782 -0.871628 -0.194826
-49.7444 89.0871 1.35935 0.473749 -0.829242 -0.295317
-49.1574 89.6586 0.779654 0.487374 -0.817214 -0.307462
-48.5752 90.2689 0.0718303 0.410974 -0.826147 -0.385463
-48.04 90.9402 -0.859433 0.357563 -0.857549 -0.369585
-47.6523 91.6326 -1.94461 0.244731 -0.856351 -0.453201
-47.2509 92.254 -3.02038 0.206714 -0.894797 -0.394142
-46.9746 92.7819 -4.10572 0.175294 -0.896262 -0.407415
-46.9714 93.2781 -5.35578 0.10859 -0.915832 -0.3866
-47.1137 93.6426 -6.35179 0.0358784 -0.924155 -0.38033
-47.2606 94.032 -7.49374 -7.23864e-07 -0.951517 -0.307597
-47.3644 94.3845 -8.803 -0.0352123 -0.968177 -0.247778
-47.445 94.6179 -9.86698 -0.0768769 -0.977468 -0.195146
-47.5394 94.8551 -11.0615 -0.105402 -0.982046 -0.155877
-47.6294 94.9963 -12.0623 -0.11781 -0.987253 -0.106918
-47.6108 95.0705 -13.2935 -0.123568 -0.992319 0.00591181
-47.3922 95.0513 -14.2635 -0.102959 -0.992991 0.0357822
-46.5988 94.8395 -15.763 -0.103326 -0.991517 0.0782903
-45.9892 94.6038 -16.6918 -0.10058 -0.977128 0.187361
-45.5946 94.3392 -17.509 -0.165124 -0.946777 0.276312
-45.2769 93.8986 -18.5156 -0.0763601 -0.90759 0.412856
-45.0775 93.4651 -19.346 -0.110865 -0.86445 0.490342
-44.955 92.984 -20.1016 -0.0656294 -0.795116 0.600806
-44.9718 92.3805 -20.9457 -0.0248927 -0.788877 0.61278
-45.1176 91.7936 -21.6489 -0.0210342 -0.762684 0.646394
-45.1904 91.0401 -22.46 0.0349781 -0.729391 0.683202
-45.0879 90.4245 -23.1097 0.0344539 -0.693146 0.719973
-44.4362 89.7302 -23.8136 0.0409944 -0.695627 0.717233
-43.4312 89.4407 -24.1556 0.0675223 -0.693313 0.717463
-42.5341 89.4338 -24.2446 0.0657079 -0.694206 0.71677
-41.6114 89.7561 -23.9913 0.0690399 -0.73549 0.673046
-40.7479 90.2526 -23.5675 0.102395 -0.74283 0.661604
-40.0239 90.6629 -23.1633 0.0612051 -0.775907 0.627288
-39.2394 91.3595 -22.3682 0.100029 -0.78387 0.612815
-38.7685 92.065 -21.4678 0.0915204 -0.827069 0.553518
-38.5176 92.609 -20.5318 0.0315927 -0.883341 0.467665
-38.4347 92.9941 -19.6435 0.0518524 -0.933545 0.35469
-38.3125 93.289 -18.7525 0.000975083 -0.955774 0.2941
-38.2246 93.5951 -17.7539 -0.0320702 -0.962559 0.269158
-38.2091 93.8649 -16.7918 -0.0258895 -0.972125 0.229116
-38.2942 94.0718 -15.7203 -0.0393105 -0.979763 0.195315
-38.4677 94.2454 -14.5741 -0.0597942 -0.990802 0.121394
-38.6109 94.3435 -13.5239 -0.0486125 -0.997253 0.0558854
-38.8688 94.4082 -12.1278 -0.0265741 -0.999514 0.0143406
-39.0751 94.4205 -11.2261 -0.0198037 -0.999723 -0.00140728
-39.4927 94.3938 -9.91799 -0.0170883 -0.999164 -0.0371492
-39.7774 94.3366 -9.04391 0.00990936 -0.996496 -0.0830535
-40.1275 94.2195 -7.84208 0.0406575 -0.993937 -0.102095
-40.4936 94.0939 -6.72732 0.0571859 -0.991859 -0.111859
-40.8394 93.9353 -5.70484 0.0720404 -0.988794 -0.130753
-41.1482 93.763 -4.77944 0.107799 -0.979883 -0.167953
-41.4543 93.5308 -3.68973 0.127384 -0.974384 -0.185336
-41.7401 93.2325 -2.40846 0.175348 -0.965356 -0.193241
-41.8453 93.0337 -1.52151 0.254516 -0.936742 -0.239075
-41.8751 92.806 -0.588271 0.269309 -0.937557 -0.220133
-41.8319 92.591 0.335639 0.318713 -0.910011 -0.264715
-41.607 92.4252 1.21644 0.358282 -0.89703 -0.25703
-41.2556 92.2957 2.10541 0.341748 -0.898551 -0.275345
-40.6725 92.1919 3.09683 0.351366 -0.884744 -0.30622
-39.9079 92.1926 3.97723 0.337446 -0.888642 -0.310092
-38.7541 92.3434 4.72481 0.336151 -0.881469 -0.331047
-37.5575 92.6209 5.10074 0.31211 -0.88372 -0.348749
-36.6542 92.8761 5.21338 0.288903 -0.887822 -0.3582
-35.7484 93.1773 5.17774 0.278625 -0.892899 -0.353694
-34.4491 93.6878 4.8704 0.274654 -0.901572 -0.334023
-33.6513 94.0829 4.47962 0.283866 -0.901356 -0.327075
-32.9029 94.4848 4.02147 0.287564 -0.904618 -0.314303
-32.0551 94.9986 3.35049 0.300219 -0.901633 -0.311329
-30.9623 95.6385 2.49239 0.299098 -0.910931 -0.283796
-30.1208 96.1124 1.80644 0.289597 -0.917978 -0.270962
-29.5036 96.4608 1.24972 0.280767 -0.925565 -0.253967
-28.5867 96.9444 0.454633 0.249506 -0.936918 -0.244723
-27.8061 97.2991 -0.129534 0.243513 -0.940257 -0.237899
-26.8944 97.6927 -0.812394 0.23425 -0.946263 -0.222966
-26.011 98.0614 -1.56905 0.20797 -0.954267 -0.214761
-25.2503 98.3641 -2.22588 0.193192 -0.962251 -0.191701
-24.7051 98.5651 -2.68529 0.187304 -0.96362 -0.190565
-25.461 98.5188 -3.26814 0.210397 -0.956095 -0.202229
-24.3062 98.9518 -4.14694 0.157307 -0.962097 -0.222765
-23.5402 99.1785 -4.68196 0.0877748 -0.97472 -0.205466
-22.3124 99.4693 -5.53082 0.0555925 -0.97526 -0.211365
-20.916 99.6915 -6.47192 -0.0140408 -0.978818 -0.202746
-20.0507 99.7555 -6.94538 -0.066862 -0.978743 -0.193583
-18.9254 99.828 -7.60817 -0.114159 -0.958255 -0.253492
-18.0963 99.7989 -8.086 -0.191455 -0.93728 -0.276953
-17.2451 99.7042 -8.6402 -0.227461 -0.954268 -0.193996
-16.3687 99.4828 -8.88761 -0.330871 -0.930189 -0.158976
-15.5078 99.1883 -9.03238 -0.444732 -0.876401 -0.184758
-14.4771 98.5757 -9.00019 -0.521042 -0.849827 -0.0304249
-13.6071 98.1124 -8.87232 -0.445704 -0.894665 0.030373
-12.3763 97.4956 -8.54858 -0.493778 -0.868262 0.0370134
-11.5076 97.0424 -8.23601 -0.474551 -0.875495 0.0911553
-10.7442 96.6035 -7.86017 -0.516739 -0.840936 0.160649
-9.77736 96.118 -7.14184 -0.549374 -0.815783 0.179006
-8.79921 95.674 -6.23099 -0.578846 -0.776244 0.245168
-7.90542 95.412 -5.12053 -0.584392 -0.752481 0.302919
-7.25921 95.3714 -4.04616 -0.57682 -0.739147 0.346544
-6.84797 95.4823 -3.20378 -0.577286 -0.728644 0.368304
-6.61185 95.9075 -2.03207 -0.524348 -0.763404 0.369276
-6.80729 96.355 -1.26221 -0.468611 -0.794321 0.380848
-7.3584 96.9884 -0.41701 -0.438091 -0.825224 0.355101
-8.13449 97.5149 0.0481102 -0.364503 -0.87695 0.311999
-9.32976 97.9028 -0.116914 -0.320102 -0.891222 0.321338
-10.307 98.1005 -0.196697 -0.276108 -0.934311 0.225449
-11.5239 98.3843 -0.271807 -0.211087 -0.961869 0.172905
-13.1299 98.7597 -0.300376 -0.195212 -0.961431 0.189488
-14.0322 98.9283 -0.23348 -0.162439 -0.963159 0.214324
-14.8667 99.004 0.11983 0.00411376 -0.985542 0.169383
-15.8483 98.9945 0.532634 0.0722716 -0.996717 0.0364857
-16.8804 98.9386 0.894528 0.0585119 -0.997704 -0.0206344
-17.9545 98.848 1.43363 0.123376 -0.990907 0.00242058
-18.7767 98.6793 2.0061 0.106527 -0.988619 -0.106228
-19.5677 98.5059 2.57051 0.149498 -0.978524 -0.141165
-20.4208 98.2251 3.44378 0.168884 -0.971698 -0.165171
-21.2178 98.0127 4.04053 0.22225 -0.966347 -0.112605
-21.7945 97.7369 4.75814 0.254882 -0.954577 -0.152547
-22.4503 97.4059 5.50124 0.247979 -0.946826 -0.205004
-23.5384 96.8879 6.39744 0.289729 -0.932007 -0.217763
-24.3368 96.5141 6.86291 0.320403 -0.917869 -0.234218
-25.1158 96.1199 7.32092 0.33346 -0.902429 -0.272677
-25.8258 95.6639 7.93218 0.334988 -0.899628 -0.280094
-26.5969 95.2014 8.43748 0.358915 -0.882668 -0.303443
-27.3612 94.7724 8.78138 0.358872 -0.882597 -0.303699
-28.1651 94.2757 9.22122 0.385351 -0.872435 -0.300602
-28.989 93.6685 9.79648 0.427405 -0.823896 -0.372016
-29.4591 93.1646 10.3934 0.421956 -0.770105 -0.465264
-29.6683 92.603 11.1051 0.351961 -0.803754 -0.47969
-29.7956 91.7678 12.2405 0.205486 -0.837723 -0.50596
-29.6852 91.1963 13.2511 0.191763 -0.852909 -0.485565
-29.7468 90.649 14.1185 0.0183147 -0.871106 -0.489142
-29.6819 90.1566 15.0497 -0.0155657 -0.878834 -0.476723
-29.582 89.6418 16.0026 -0.0643864 -0.897215 -0.435904
-29.9071 89.0189 17.3496 -0.126847 -0.894235 -0.427784
-30.0549 88.6102 18.329 -0.172574 -0.881258 -0.436924
-30.1332 88.2077 19.2126 -0.227155 -0.889832 -0.395727
-30.5722 87.7088 20.6068 -0.226654 -0.895393 -0.383272
-30.8216 87.4131 21.4475 -0.232392 -0.882568 -0.407728
-31.1313 86.9115 22.69 -0.284769 -0.871648 -0.398919
-31.3195 86.5535 23.5133 -0.260015 -0.850621 -0.456986
-31.6696 85.9459 24.7466 -0.291067 -0.819032 -0.492475
-32.0533 85.6343 25.4988 -0.280157 -0.800832 -0.52932
-32.6745 85.3146 26.2352 -0.270813 -0.77392 -0.572458
-33.435 84.9382 27.0154 -0.26029 -0.734891 -0.626246
-34.1074 84.6152 27.6383 -0.230794 -0.711975 -0.662454
-35.1005 83.9766 28.6323 -0.247042 -0.692779 -0.677516
-35.6483 83.4793 29.2482 -0.26742 -0.637546 -0.72251
-36.7291 82.6944 30.3376 -0.256557 -0.637152 -0.72671
-37.3132 82.2595 30.9185 -0.251324 -0.641671 -0.724634
-38.0399 81.7971 31.5627 -0.269145 -0.624115 -0.733235
-38.5511 81.2982 32.1997 -0.279822 -0.647501 -0.708465
-39.0016 80.8241 32.8335 -0.283902 -0.667324 -0.688534
-39.5114 80.1893 33.6805 -0.276981 -0.689688 -0.668984
-40.1152 79.2962 34.8708 -0.256827 -0.713384 -0.651973
-40.7069 78.5373 36.0072 -0.22076 -0.771004 -0.596783
-41.311 77.7318 37.2405 -0.197463 -0.781756 -0.591495
-41.7693 77.1195 38.2349 -0.18262 -0.835749 -0.517855
-42.4344 76.7797 39.0178 -0.170161 -0.835338 -0.522568
-42.8718 76.4404 39.7622 -0.138276 -0.878456 -0.457377
-43.498 76.184 40.4282 -0.0907641 -0.876188 -0.473347
-44.3714 75.9175 41.1434 -0.0757495 -0.909489 -0.407845
-45.1012 75.6658 41.8106 -0.0379821 -0.911838 -0.408509
-45.9868 75.5052 42.2155 -0.0257544 -0.914382 -0.403774
-46.8343 75.337 42.6329 0.0284404 -0.93121 -0.363371
-47.8484 75.1472 43.0358 0.0536676 -0.929661 -0.363791
-48.7409 74.9956 43.2368 0.0761127 -0.928842 -0.362573
-50.133 74.8849 43.2144 0.115459 -0.940989 -0.317539
-51.2955 74.8365 42.9844 0.106352 -0.936675 -0.333658
-52.1755 74.8305 42.7109 0.10862 -0.942475 -0.316136
-53.0063 74.8754 42.2267 0.14733 -0.953062 -0.264512
-54.2679 74.9007 41.2969 0.188497 -0.947023 -0.259998
-55.1935 74.9368 40.3971 0.230705 -0.939723 -0.252033
-56.121 74.9658 39.3704 0.280958 -0.922507 -0.263809
-56.6811 75.0319 38.5486 0.308218 -0.917149 -0.252666
-57.0237 75.1637 37.6329 0.346215 -0.90618 -0.242786
-57.5149 75.2171 36.744 0.383956 -0.895257 -0.221533
-58.1554 75.1816 35.6679 0.430974 -0.861627 -0.268068
-58.6014 75.2836 34.4691 0.466386 -0.854407 -0.229071
-58.9037 75.3574 33.5849 0.495215 -0.844127 -0.201037
-59.1531 75.4987 32.4377 0.53474 -0.812856 -0.230906
-59.1457 75.7705 31.5982 0.538085 -0.799332 -0.267454
-59.0845 76.086 30.6852 0.596311 -0.753953 -0.275622
-59.0398 76.6232 29.3494 0.599523 -0.743551 -0.295784
-58.9576 77.103 28.3282 0.616796 -0.740902 -0.264108
-58.8073 77.5001 27.4792 0.626796 -0.742482 -0.236321
-58.6882 77.9536 26.6579 0.659057 -0.693374 -0.291307
-58.5935 78.422 25.7485 0.687098 -0.681519 -0.251584
-58.496 78.8794 24.8622 0.715511 -0.646735 -0.264155
-58.3536 79.4142 24.0354 0.725909 -0.619989 -0.297774
-58.3204 79.7776 23.18 0.771502 -0.577732 -0.260725
-58.592 80.1136 21.8665 0.77643 -0.543551 -0.318445
-58.8397 80.3119 20.9569 0.769854 -0.559711 -0.305675
-59.1949 80.3393 19.9361 0.769751 -0.57038 -0.286617
-59.5469 80.4809 18.727 0.764212 -0.582739 -0.275804
-59.8152 80.7546 17.3678 0.745308 -0.61256 -0.261982
-59.8847 81.0593 16.3541 0.751038 -0.617815 -0.232791
-59.786 81.6099 15.0036 0.750767 -0.63138 -0.194186
-59.6191 82.0102 14.2036 0.747996 -0.647445 -0.144668
-59.2876 82.5564 13.3432 0.743126 -0.661013 -0.0958642
-58.8564 83.1745 12.4268 0.762397 -0.642091 -0.0804388
-58.4449 83.6621 11.7819 0.715256 -0.698071 -0.0332711
-57.7762 84.3309 10.6306 0.653255 -0.757104 0.00716642
-57.3223 84.6513 9.70796 0.622103 -0.779293 0.0754325
-56.7669 85.0132 8.86176 0.552264 -0.830908 0.0677972
-55.8543 85.512 7.67449 0.537082 -0.839031 0.0853561
-55.346 85.7441 6.91172 0.52347 -0.847152 0.0911715
-54.8127 86.0178 6.15586 0.508468 -0.858405 0.0651666
-54.2757 86.2525 5.33033 0.492389 -0.866851 0.0781394
-53.7589 86.5118 4.31054 0.515696 -0.856768 -0.00231068
-53.1045 86.9167 3.44398 0.485567 -0.873254 -0.0406586
-52.4121 87.3483 2.69263 0.495614 -0.867021 -0.0513924
-51.7688 87.8067 2.00844 0.499813 -0.855354 -0.135627
-51.2032 88.2417 1.43339 0.508897 -0.843127 -0.171011
-50.4134 88.912 0.716887 0.537871 -0.819129 -0.199304
-49.8783 89.4936 0.131381 0.482886 -0.801956 -0.351693
-49.2903 90.1602 -0.599658 0.475928 -0.808374 -0.346443
-48.8267 90.8785 -1.33165 0.372005 -0.780441 -0.498992
-48.5936 91.4669 -2.18774 0.317156 -0.80626 -0.498155
-48.2552 92.1317 -3.19452 0.134543 -0.863799 -0.485541
-48.0508 92.6725 -4.30729 0.156621 -0.898442 -0.410209
-47.9784 93.2001 -5.45125 0.106335 -0.916025 -0.38677
-48.0966 93.6039 -6.29352 0.0374616 -0.905918 -0.418724
-48.2087 93.9272 -7.13512 -0.0147327 -0.952551 -0.304023
-48.2626 94.3164 -8.25416 -0.0737213 -0.951671 -0.293133
-48.4239 94.7064 -9.81422 -0.0940173 -0.973145 -0.209944
-48.5539 94.9336 -10.945 -0.0948813 -0.981874 -0.164077
-48.6124 95.1497 -12.1435 -0.176137 -0.980711 -0.0847385
-48.6393 95.2099 -13.0956 -0.201987 -0.978044 0.0152042
-48.4819 95.1927 -14.1467 -0.159675 -0.98714 -0.0077178
-48.1054 95.0836 -15.2061 -0.169539 -0.983138 0.061658
-47.6104 94.9683 -16.0174 -0.146803 -0.985072 0.0844848
-47.0178 94.7887 -16.7669 -0.192836 -0.971409 0.131078
-46.4027 94.3502 -17.9624 -0.20819 -0.935404 0.282453
-46.0742 93.9122 -18.9492 -0.276849 -0.859104 0.43046
-45.9616 93.3434 -19.6975 -0.142224 -0.817979 0.551047
-45.9068 92.8338 -20.4564 -0.108405 -0.777167 0.619888
-46.0546 92.051 -21.369 -0.0443864 -0.74217 0.667584
-46.2859 91.0973 -22.4174 -0.00532753 -0.705187 0.708894
-46.1881 90.0552 -23.4321 0.0103795 -0.696812 0.717146
-45.1928 89.1674 -24.3064 0.0203443 -0.681411 0.731595
-44.3099 88.7329 -24.7532 0.0550963 -0.685855 0.725443
-43.3379 88.6948 -24.8839 0.0633558 -0.677514 0.732461
-42.0719 88.7901 -24.9275 0.0790152 -0.705109 0.704683
-41.0714 89.1579 -24.6964 0.120441 -0.689897 0.713818
-40.117 89.7528 -24.2268 0.125502 -0.721201 0.681148
-39.4133 90.198 -23.794 0.100289 -0.76698 0.633735
-38.8115 90.675 -23.3191 0.104301 -0.785712 0.609736
-38.1649 91.5048 -22.3694 0.120148 -0.796433 0.592099
-37.715 92.3034 -21.3412 0.140894 -0.847567 0.505211
-37.5212 92.8944 -19.9857 0.0338009 -0.947875 0.316677
-37.3875 93.1826 -19.1107 0.0416487 -0.949283 0.311593
-37.1955 93.5611 -17.8956 0.00842499 -0.954553 0.297921
-37.2245 93.8226 -16.9073 0.02205 -0.971499 0.235846
-37.3072 94.1022 -15.5957 0.0132649 -0.978339 0.206585
-37.4915 94.2416 -14.4026 -0.0110829 -0.992476 0.121936
-37.6827 94.3475 -13.0357 -0.00421927 -0.998462 0.0552841
-37.9319 94.3941 -11.8707 0.00371465 -0.999877 0.0145903
-38.1383 94.409 -10.9588 -0.000194002 -0.999866 0.0163554
-38.4086 94.3956 -10.0642 0.0117898 -0.999557 -0.0273099
-38.789 94.3728 -8.91027 0.0446812 -0.997689 -0.0260404
-39.2785 94.2111 -7.36044 0.0559421 -0.992986 -0.103559
-39.7915 94.0847 -5.85801 0.104338 -0.990611 -0.0658001
-40.2232 93.8233 -4.49411 0.131007 -0.975583 -0.175136
-40.4742 93.6203 -3.52098 0.138139 -0.979607 -0.135348
-40.7169 93.5066 -2.63492 0.155202 -0.984321 -0.0838134
-40.8581 93.3127 -1.71593 0.244013 -0.960853 -0.131221
-40.9357 93.1716 -0.827203 0.276199 -0.943273 -0.175143
-40.9041 92.912 0.566998 0.339853 -0.931569 -0.129152
-40.5382 92.7364 1.66352 0.3652 -0.882344 -0.296813
-40.1355 92.6335 2.5319 0.390997 -0.866069 -0.310212
-39.0793 92.6588 3.59355 0.347807 -0.869928 -0.34959
-37.9733 92.8751 4.10917 0.30967 -0.87971 -0.360854
-37.0529 93.1193 4.35894 0.303566 -0.858016 -0.411614
-35.9457 93.4791 4.30938 0.241694 -0.884819 -0.39563
-34.7858 93.8984 4.04868 0.263269 -0.903111 -0.339234
-34.0367 94.273 3.56412 0.291262 -0.90788 -0.301531
-33.3592 94.6706 3.03726 0.302386 -0.901186 -0.310527
-32.6713 95.0556 2.57645 0.296715 -0.907309 -0.29786
-31.5205 95.6976 1.74079 0.283667 -0.911664 -0.297207
-30.7919 96.1023 1.17231 0.270865 -0.921322 -0.278115
-29.7233 96.6896 0.192117 0.275377 -0.925465 -0.260157
-29.0632 97.044 -0.359948 0.251823 -0.931203 -0.262311
-28.0339 97.5029 -1.16475 0.219764 -0.946515 -0.236222
-27.0919 97.9137 -1.92006 0.209946 -0.949747 -0.231759
-26.086 98.2934 -2.76535 0.193272 -0.965684 -0.173031
-25.5373 98.491 -3.20535 0.205029 -0.962661 -0.17677
-23.8009 98.5021 -1.49203 0.184521 -0.963593 -0.193496
-23.765 98.2818 -0.393928 0.186421 -0.962087 -0.199089
-23.7275 98.0781 0.711604 0.22081 -0.957199 -0.187116
-23.682 97.8654 1.78297 0.222686 -0.952622 -0.207176
-23.6353 97.6677 2.77045 0.234054 -0.951976 -0.197383
-22.5742 98.0849 1.90627 0.177882 -0.967477 -0.179852
-22.6161 98.2925 0.718436 0.177204 -0.969242 -0.170786
-22.6461 98.4611 -0.212523 0.151385 -0.970663 -0.186805
-22.6712 98.6244 -1.14566 0.11705 -0.976568 -0.180592
-22.6977 98.8393 -2.34309 0.129556 -0.976187 -0.173992
-22.6998 98.8574 -2.44487 0.130423 -0.975426 -0.177578
-21.5811 99.1161 -3.14416 0.101829 -0.982515 -0.155868
-21.566 98.9449 -2.20882 0.0718873 -0.980541 -0.18268
-21.5418 98.7256 -0.960575 0.11705 -0.976568 -0.180592
-21.5145 98.5553 0.193137 0.147213 -0.979438 -0.137951
-21.5072 98.5128 0.50315 0.150993 -0.977118 -0.149806
-20.4072 98.7862 -0.372584 0.112388 -0.987321 -0.1121
-20.4275 98.95 -1.71641 0.0781217 -0.983724 -0.161812
-20.4427 99.127 -2.86192 0.0131382 -0.989488 -0.144016
-20.4491 99.268 -3.85785 0.0146362 -0.991355 -0.130385
-19.313 99.2637 -4.01418 -0.0290607 -0.994153 -0.103996
-19.3061 99.128 -2.67911 0.0282188 -0.991013 -0.130758
-19.2914 98.9647 -1.35814 0.0260708 -0.994224 -0.104112
-19.2838 98.9097 -0.739491 0.0628284 -0.992526 -0.104616
-18.1621 99.0152 -1.55751 0.0260785 -0.994223 -0.104118
-18.1728 99.1137 -2.69911 -0.0579946 -0.996595 -0.0586024
-18.1786 99.1997 -3.80711 -0.0680065 -0.993968 -0.0860385
-18.1802 99.295 -4.8811 -0.101119 -0.987408 -0.121653
-17.0526 99.2474 -5.8171 -0.199966 -0.97508 -0.0960837
-17.0518 99.1676 -4.58577 -0.12438 -0.989452 -0.0742535
-17.0487 99.0923 -3.58827 -0.111065 -0.991936 -0.0610496
-17.0399 99.0585 -2.63825 -0.0256019 -0.99854 -0.0475719
-17.0311 99.0186 -1.80197 -0.0205927 -0.999418 -0.0272122
-15.9092 98.9689 -2.57411 -0.101159 -0.99485 0.00641976
-15.923 98.9905 -3.771 -0.0977092 -0.994065 -0.0478242
-15.9309 99.0277 -4.73524 -0.238007 -0.971236 -0.00736826
-15.9384 99.0386 -5.64719 -0.240615 -0.970572 -0.00968484
-15.9479 99.037 -6.43424 -0.290221 -0.956546 -0.0281365
-14.8591 98.7327 -6.41864 -0.31451 -0.949185 0.0114475
-14.8408 98.746 -5.29713 -0.312776 -0.949447 0.0268804
-14.8243 98.7581 -4.31239 -0.200523 -0.979403 0.0236555
-14.7961 98.8087 -3.16295 -0.164371 -0.985261 0.0473582
-14.7834 98.8338 -2.52175 -0.163309 -0.985714 0.0412158
-13.673 98.6072 -2.654 -0.273754 -0.95651 0.100731
-13.7061 98.5262 -3.69944 -0.278868 -0.957662 0.0715241
-13.7484 98.4395 -5.036 -0.303461 -0.949158 0.0837241
-13.805 98.3293 -6.33124 -0.36556 -0.928307 0.0679045
-13.8076 98.3254 -6.40886 -0.380488 -0.922931 0.0585504
-12.7267 97.9737 -5.7348 -0.382453 -0.918815 0.0975135
-12.6642 98.0961 -4.49198 -0.349062 -0.930552 0.110586
-12.6153 98.2017 -3.4599 -0.327878 -0.936092 0.127387
-12.5733 98.3096 -2.60676 -0.250957 -0.961423 0.112637
-11.4923 97.951 -2.73238 -0.298135 -0.94261 0.150338
-11.5558 97.799 -3.75373 -0.355618 -0.919851 0.165558
-11.6288 97.6456 -4.79725 -0.354193 -0.922203 0.155204
-11.681 97.5473 -5.58013 -0.38976 -0.911346 0.132421
-10.592 97.2014 -4.76542 -0.462132 -0.858371 0.222786
-10.5013 97.3805 -3.83891 -0.354973 -0.915666 0.188548
-10.4363 97.524 -3.00167 -0.372202 -0.909559 0.184846
-9.34368 97.1644 -2.55639 -0.401225 -0.871425 0.282199
-9.47148 96.9097 -3.63532 -0.455622 -0.853618 0.252477
-24.8771 98.0459 -0.39825 0.207353 -0.957313 -0.201387
-24.8323 97.8195 0.754431 0.220322 -0.953957 -0.203529
-24.7901 97.6332 1.64764 0.227129 -0.950992 -0.209827
-24.7344 97.4033 2.72806 0.228461 -0.94884 -0.217962
-24.6544 97.1026 4.09693 0.26397 -0.938824 -0.2212
-25.692 96.6226 4.82761 0.284746 -0.927598 -0.241828
-25.7714 96.8975 3.68361 0.267288 -0.933741 -0.238085
-25.8283 97.1067 2.80142 0.254665 -0.938543 -0.232985
-25.9083 97.4296 1.31905 0.239218 -0.947266 -0.213217
-25.9542 97.6331 0.361434 0.213197 -0.952271 -0.218464
-27.0164 97.1831 1.15161 0.242654 -0.94321 -0.226876
-26.9515 96.9183 2.33258 0.254665 -0.938543 -0.232985
-26.8834 96.6688 3.35 0.271672 -0.929671 -0.248811
-26.8124 96.4228 4.30845 0.29519 -0.919009 -0.261315
-26.7334 96.1676 5.2645 0.295808 -0.913344 -0.279821
-26.7175 96.1172 5.44562 0.295808 -0.913344 -0.279821
-27.7633 95.6845 5.71121 0.307577 -0.906288 -0.289896
-27.8519 95.9578 4.7628 0.307806 -0.906696 -0.288371
-27.925 96.1977 3.86885 0.288839 -0.919094 -0.268028
-27.9942 96.4341 2.95929 0.279006 -0.925346 -0.256692
-28.0649 96.6898 1.9828 0.270938 -0.930312 -0.24721
-29.0735 96.0858 3.01361 0.288836 -0.919787 -0.265642
-28.9894 95.8064 4.00582 0.296694 -0.913852 -0.277212
-28.881 95.4668 5.20823 0.307803 -0.906695 -0.288377
-28.7478 95.0724 6.47683 0.334387 -0.885748 -0.321925
-28.7379 95.0441 6.5639 0.331226 -0.883602 -0.330963
-29.7167 94.4278 7.20434 0.33039 -0.878278 -0.345645
-29.8344 94.7597 6.25596 0.302111 -0.893099 -0.333321
-29.9688 95.1552 5.02796 0.314022 -0.896747 -0.311826
-30.0804 95.5027 3.8397 0.299142 -0.909459 -0.288787
-30.0932 95.5438 3.69701 0.299142 -0.909459 -0.288787
-31.0415 94.798 4.96099 0.323514 -0.895467 -0.305743
-30.8925 94.368 6.27479 0.327159 -0.879764 -0.344937
-30.7414 93.9483 7.46746 0.327288 -0.875537 -0.355412
-30.7025 93.8442 7.75985 0.327288 -0.875537 -0.355413
-31.6362 93.1331 8.60022 0.302986 -0.872702 -0.382872
-31.8119 93.5932 7.37349 0.316172 -0.876477 -0.363074
-31.9446 93.9538 6.35965 0.316687 -0.885359 -0.340365
-32.0624 94.284 5.40345 0.306279 -0.891826 -0.332926
-33.056 93.6958 6.03919 0.289642 -0.894618 -0.340245
-32.9019 93.2751 7.23546 0.293574 -0.886477 -0.357733
-32.7451 92.8725 8.33439 0.295625 -0.873344 -0.387139
-32.621 92.5508 9.18558 0.26258 -0.886382 -0.381285
-32.4693 92.1335 10.1995 0.256309 -0.871397 -0.418298
-32.316 91.6781 11.3059 0.178728 -0.905265 -0.385424
-32.1877 91.2093 12.4367 0.157259 -0.912667 -0.377238
-32.1857 91.201 12.4587 0.137154 -0.922491 -0.360831
-34.1023 93.2448 6.33943 0.282481 -0.895994 -0.342636
-33.9456 92.8224 7.54074 0.264165 -0.896747 -0.355053
-33.8195 92.4977 8.4635 0.2404 -0.898273 -0.367849
-33.696 92.1741 9.35697 0.213283 -0.915191 -0.34196
-33.5893 91.8668 10.2104 0.195522 -0.91124 -0.362508
-33.4696 91.5204 11.1205 0.165195 -0.923695 -0.345685
-33.3829 91.2114 11.9821 0.111961 -0.924468 -0.364449
-33.2977 90.8493 12.9687 0.0736335 -0.940438 -0.331894
-33.2277 90.5186 13.9865 0.0427677 -0.947657 -0.316412
-33.166 90.2057 14.9002 0.00704683 -0.954751 -0.297323
-33.0958 89.8106 16.0702 -0.0565622 -0.946033 -0.319096
-33.0577 89.5302 17.0081 -0.0814705 -0.951758 -0.295835
-33.0179 89.1561 18.2343 -0.146422 -0.948008 -0.282561
-33.0092 88.8397 19.2047 -0.168998 -0.93581 -0.309353
-32.9988 88.4694 20.3255 -0.241715 -0.926399 -0.28872
-32.9931 88.3921 20.5818 -0.253114 -0.920757 -0.296883
-34.1332 86.9923 24.5455 -0.286102 -0.797872 -0.530609
-34.0904 87.4924 23.6521 -0.324857 -0.853353 -0.407746
-34.0728 87.8842 22.786 -0.329894 -0.863467 -0.381568
-34.0798 88.2163 21.9486 -0.250781 -0.9123 -0.323756
-34.1055 88.6355 20.7754 -0.253121 -0.920756 -0.29688
-34.1274 88.9053 19.8081 -0.179704 -0.953714 -0.241113
-34.1559 89.2033 18.6864 -0.151352 -0.962915 -0.223354
-34.1988 89.4715 17.6109 -0.0905672 -0.965609 -0.243715
-34.2448 89.8069 16.3337 -0.0367343 -0.965982 -0.255987
-34.3303 90.1776 14.9722 0.0195143 -0.960728 -0.276806
-34.4092 90.5104 13.7826 0.0422023 -0.956826 -0.28758
-34.4784 90.8265 12.7545 0.0701595 -0.944775 -0.320121
-34.5486 91.123 11.821 0.137128 -0.947273 -0.289602
-34.6437 91.4086 10.9372 0.149938 -0.935959 -0.31859
-34.7735 91.7721 9.74326 0.203427 -0.924518 -0.322309
-34.8838 92.0825 8.78324 0.216721 -0.920134 -0.326167
-34.999 92.3764 7.90506 0.272394 -0.901163 -0.337204
-35.1117 92.6782 7.00315 0.2733 -0.901824 -0.334696
-35.1676 92.8323 6.54585 0.281097 -0.897264 -0.340443
-36.2442 92.4321 6.7351 0.275352 -0.901206 -0.334676
-36.1205 92.0891 7.77555 0.27079 -0.913695 -0.303041
-35.9826 91.7288 9.01206 0.235174 -0.924073 -0.3013
-35.8753 91.4214 10.0699 0.210336 -0.938993 -0.272123
-35.7596 91.103 11.2782 0.200776 -0.949593 -0.240753
-35.6874 90.8691 12.2061 0.135584 -0.955772 -0.260994
-35.6082 90.5619 13.3552 0.0847455 -0.956196 -0.280193
-35.5457 90.2976 14.3581 0.0403805 -0.970282 -0.238584
-35.4479 89.9706 15.7652 -0.0150709 -0.978007 -0.208025
-35.3903 89.7518 16.7493 -0.0386394 -0.984196 -0.172815
-35.3562 89.5591 17.7046 -0.090327 -0.976657 -0.194891
-35.3038 89.272 19.0651 -0.123501 -0.972397 -0.19797
-35.2495 88.9926 20.292 -0.166223 -0.955804 -0.242504
-35.211 88.6904 21.3841 -0.164271 -0.948163 -0.272034
-35.1884 88.3211 22.5059 -0.24611 -0.912292 -0.327343
-35.1826 87.9501 23.4411 -0.23431 -0.872322 -0.429131
-35.1952 87.3248 24.6157 -0.235367 -0.848258 -0.474406
-35.2171 86.5396 25.8533 -0.305023 -0.789114 -0.533161
-35.2205 86.4988 25.9128 -0.290222 -0.760265 -0.581178
-36.377 85.7814 27.3053 -0.24721 -0.709546 -0.659873
-36.2965 86.3721 26.6169 -0.275864 -0.777983 -0.564483
-36.2871 87.0198 25.5972 -0.238867 -0.818996 -0.521717
-36.2957 87.6209 24.6064 -0.222418 -0.842101 -0.49132
-36.307 88.2086 23.4944 -0.242697 -0.881995 -0.403958
-36.3141 88.6289 22.4563 -0.225564 -0.920737 -0.318378
-36.3465 88.9171 21.4772 -0.202431 -0.955914 -0.212721
-36.4154 89.1665 20.2195 -0.174879 -0.97067 -0.164975
-36.4648 89.3745 19.2179 -0.0953917 -0.978736 -0.181593
-36.5143 89.5621 18.0985 -0.0710773 -0.981062 -0.180179
-36.55 89.7367 17.1361 -0.0492847 -0.98481 -0.166497
-36.6019 89.8771 16.1936 0.0247289 -0.98799 -0.152529
-36.687 90.1155 14.9282 0.0547198 -0.982603 -0.177474
-36.7511 90.3384 13.7874 0.104028 -0.97093 -0.215577
-36.8191 90.5929 12.6826 0.133644 -0.968405 -0.21055
-36.8889 90.7893 11.6978 0.170895 -0.962522 -0.210588
-36.9567 90.9944 10.708 0.200775 -0.949593 -0.240753
-37.0654 91.3058 9.54515 0.220937 -0.936786 -0.271329
-37.1445 91.5229 8.66373 0.228798 -0.942846 -0.242266
-37.2609 91.8458 7.51866 0.280579 -0.907023 -0.313983
-37.3257 92.0302 6.92733 0.282367 -0.90849 -0.308082
-38.4742 91.7966 6.54497 0.289846 -0.907075 -0.305295
-38.3824 91.5447 7.47919 0.270927 -0.925779 -0.26369
-38.294 91.2795 8.50272 0.236111 -0.942191 -0.237756
-38.2192 91.0633 9.43496 0.232012 -0.944681 -0.231837
-38.1411 90.8424 10.4643 0.168736 -0.959625 -0.22505
-38.0537 90.5895 11.6527 0.158101 -0.967887 -0.195446
-37.998 90.4163 12.6119 0.137114 -0.972587 -0.187812
-37.9283 90.1989 13.9463 0.0854717 -0.985082 -0.149361
-37.8518 89.9755 15.3208 0.0516175 -0.989504 -0.134975
-37.7949 89.8646 16.3001 8.8907e-06 -0.993175 -0.116633
-37.7392 89.7357 17.2806 -0.0410235 -0.991193 -0.125911
-37.6876 89.6301 18.3466 -0.0804791 -0.988535 -0.127756
-37.6295 89.4538 19.5305 -0.118632 -0.984884 -0.126212
-37.5669 89.2755 20.7508 -0.125854 -0.982729 -0.135667
-37.4967 88.9423 22.1014 -0.115384 -0.963637 -0.24102
-37.4491 88.6564 23.0486 -0.115148 -0.951855 -0.284099
-37.4142 88.2601 24.0109 -0.228778 -0.878767 -0.418842
-37.3893 87.7436 24.9418 -0.261106 -0.834311 -0.48554
-37.3749 87.123 25.9576 -0.272629 -0.801225 -0.532646
-37.3846 86.4337 26.9425 -0.218432 -0.733958 -0.643112
-37.4265 85.832 27.6437 -0.225466 -0.717612 -0.658937
-37.4777 85.2169 28.2662 -0.23828 -0.680795 -0.692633
-38.5763 84.2756 29.5648 -0.264053 -0.67501 -0.688939
-38.553 85.0176 28.8352 -0.240425 -0.682617 -0.690094
-38.523 85.6888 28.1473 -0.225152 -0.700704 -0.676993
-38.4795 86.3986 27.372 -0.230678 -0.734096 -0.638664
-38.4534 87.0037 26.6488 -0.236614 -0.796903 -0.555841
-38.4663 87.591 25.8123 -0.254679 -0.79925 -0.544369
-38.5211 88.0834 24.8602 -0.154514 -0.888457 -0.432169
-38.5922 88.5101 23.8657 -0.136367 -0.916104 -0.377038
-38.6567 88.84 22.925 -0.180332 -0.934665 -0.306401
-38.7115 89.2244 21.6046 -0.176247 -0.959187 -0.221126
-38.7554 89.4584 20.5647 -0.10876 -0.987109 -0.117414
-38.8168 89.567 19.5625 -0.0828287 -0.990107 -0.113255
-38.8915 89.701 18.2765 -0.0543252 -0.995848 -0.0730439
-38.9487 89.7784 17.2417 -0.0133161 -0.998649 -0.0502285
-39.0248 89.8761 15.9812 0.0231472 -0.993748 -0.109223
-39.0852 89.9874 14.9193 0.0729541 -0.993468 -0.0877413
-39.1304 90.0972 13.77 0.131332 -0.982968 -0.128556
-39.1933 90.2901 12.2389 0.154879 -0.976074 -0.152619
-39.249 90.4607 11.2203 0.183686 -0.969734 -0.160857
-39.2996 90.6022 10.3095 0.175532 -0.970696 -0.164127
-39.3827 90.8616 9.09255 0.232023 -0.944677 -0.23184
-39.4771 91.131 7.82793 0.259394 -0.942089 -0.212563
-39.5608 91.3648 6.90564 0.284234 -0.925793 -0.249235
-39.6603 91.6248 5.86624 0.31233 -0.904296 -0.291031
-39.6788 91.6721 5.70661 0.326476 -0.895212 -0.303329
-40.8796 91.5384 4.86476 0.283219 -0.922499 -0.262265
-40.7735 91.2675 5.88916 0.255339 -0.923395 -0.286605
-40.6828 91.0275 6.91041 0.220735 -0.951931 -0.212375
-40.6001 90.8038 8.09586 0.206865 -0.960289 -0.187221
-40.5389 90.6322 9.01641 0.197361 -0.962649 -0.185355
-40.4781 90.4569 9.99141 0.183784 -0.963079 -0.19673
-40.4165 90.2618 11.2599 0.135575 -0.978907 -0.152842
-40.38 90.1505 12.1809 0.120956 -0.985072 -0.122488
-40.341 90.0307 13.1613 0.0912931 -0.989718 -0.110108
-40.2997 89.9205 14.19 0.091555 -0.989778 -0.10935
-40.2618 89.8596 15.2243 0.029577 -0.998661 -0.0424332
-40.212 89.8253 16.4199 0.0104546 -0.999493 -0.0300884
-40.1347 89.7575 17.8358 -0.00615997 -0.998415 -0.0559412
-40.0429 89.6716 19.3043 -0.0154732 -0.996696 -0.0797348
-39.9427 89.5007 20.7948 -0.0497232 -0.990387 -0.129078
-39.8831 89.3197 21.9189 -0.0132913 -0.975179 -0.221019
-39.8304 89.0229 23.0062 -0.0833622 -0.94848 -0.305674
-39.7449 88.4952 24.3309 -0.13467 -0.919522 -0.369248
-39.6599 87.9954 25.3636 -0.102734 -0.869421 -0.483273
-39.5878 87.3815 26.4357 -0.105305 -0.85942 -0.500309
-39.5669 86.8413 27.286 -0.168583 -0.792166 -0.58656
-39.599 86.1907 28.0275 -0.267911 -0.668131 -0.694136
-39.6227 85.4738 28.7397 -0.243162 -0.69297 -0.678723
-39.6133 84.7801 29.4618 -0.255588 -0.698823 -0.668073
-39.6984 83.8272 30.3899 -0.239882 -0.645479 -0.72513
-39.7439 83.424 30.7531 -0.261276 -0.635986 -0.726124
-40.798 82.2766 32.1839 -0.266501 -0.649248 -0.712358
-40.7602 83.1826 31.3473 -0.25527 -0.656355 -0.709954
-40.7324 83.8384 30.7166 -0.239679 -0.656434 -0.715296
-40.6746 84.9252 29.6892 -0.215075 -0.697179 -0.683874
-40.7015 85.9672 28.5086 -0.191377 -0.757463 -0.6242
-40.7092 86.6346 27.7862 -0.0902645 -0.765515 -0.637056
-40.755 87.2438 26.9572 -0.111335 -0.867379 -0.485033
-40.8261 87.8558 25.8714 -0.109137 -0.870186 -0.480485
-40.8982 88.3598 24.9055 -0.0793424 -0.908333 -0.410653
-40.9743 88.8053 23.9296 -0.0429499 -0.940648 -0.336656
-41.0618 89.1456 22.6735 -0.0136006 -0.965491 -0.26008
-41.1173 89.3831 21.7919 -0.0444913 -0.973048 -0.22627
-41.1747 89.5489 20.8537 -0.0393845 -0.99543 -0.0869953
-41.2586 89.6583 19.6396 -0.0285274 -0.99504 -0.0952951
-41.3192 89.7306 18.6145 -0.0219424 -0.997897 -0.060986
-41.3769 89.7906 17.5231 -0.024308 -0.999235 -0.0306366
-41.4167 89.8023 16.5895 0.0179264 -0.999828 -0.00484219
-41.4624 89.8199 15.2666 0.0280191 -0.999274 -0.0258046
-41.4983 89.8612 14.1781 0.0493873 -0.998567 -0.0206132
-41.5246 89.8997 13.2551 0.0779227 -0.99376 -0.0798125
-41.5654 90.0259 11.9909 0.115104 -0.987535 -0.107356
-41.6101 90.1387 10.8379 0.170055 -0.977229 -0.126904
-41.6497 90.2501 9.94236 0.175294 -0.97254 -0.153094
-41.7238 90.4723 8.51633 0.212927 -0.963177 -0.164174
-41.7859 90.6547 7.4732 0.227613 -0.959042 -0.168615
-41.8494 90.8283 6.52884 0.252545 -0.945373 -0.206134
-41.9532 91.0943 5.3077 0.265201 -0.931153 -0.250244
-42.1046 91.4702 3.78184 0.306384 -0.914487 -0.264276
-42.1085 91.4791 3.74656 0.30638 -0.914487 -0.26428
-46.8672 90.948 0.225707 0.315677 -0.873037 -0.371691
-46.6869 90.5014 1.71063 0.333833 -0.896552 -0.291119
-46.574 90.219 2.79789 0.326913 -0.916351 -0.231147
-46.4948 90.0076 3.7481 0.32322 -0.916802 -0.234526
-46.4297 89.8208 4.88867 0.317217 -0.933551 -0.166904
-46.3924 89.7087 5.80259 0.297005 -0.94864 -0.108952
-46.3663 89.6192 6.7511 0.253097 -0.9645 -0.0753738
-46.3467 89.5306 8.08639 0.219524 -0.97541 -0.0196044
-46.3458 89.4886 9.38665 0.152747 -0.988242 0.00680182
-46.3483 89.493 10.3958 0.123496 -0.992253 0.0135411
-46.3491 89.5524 11.8873 0.0878648 -0.996076 0.0106139
-46.3447 89.5708 13.2658 0.0536961 -0.998439 0.0153755
-46.3379 89.6225 14.7491 0.0583043 -0.997655 0.0358418
-46.3284 89.69 15.9441 0.0811246 -0.995978 0.0380268
-46.3078 89.6898 17.2482 0.0689058 -0.997585 0.00867987
-46.2932 89.6814 18.3437 0.0872885 -0.99071 -0.104277
-46.2446 89.5504 19.7565 0.0915645 -0.992363 -0.0826503
-46.1776 89.3513 21.0597 0.104271 -0.966794 -0.233317
-46.0972 89.116 22.1438 0.134583 -0.964536 -0.227063
-45.9761 88.7894 23.4496 0.113672 -0.962926 -0.244646
-45.9099 88.5398 24.3845 0.0879237 -0.933864 -0.34665
-45.8171 88.1728 25.2112 0.0970563 -0.900427 -0.424042
-45.7157 87.8268 26.0588 0.0635526 -0.935899 -0.346487
-45.572 87.283 27.1174 0.138952 -0.825243 -0.547417
-45.4278 86.6952 28.077 0.0642478 -0.874088 -0.4815
-45.2849 85.9828 29.1921 0.0693391 -0.774448 -0.628827
-45.193 85.4081 29.9298 0.0823385 -0.788234 -0.609843
-45.0924 84.7409 30.7558 0.090491 -0.745623 -0.660195
-45.0046 83.8968 31.6465 -0.045194 -0.690965 -0.721474
-44.9495 83.1797 32.3261 -0.0385903 -0.684652 -0.727847
-44.8638 82.3588 33.0721 -0.0648107 -0.664489 -0.744482
-44.7787 81.5364 33.8852 -0.0724541 -0.730587 -0.678964
-44.6878 80.8891 34.5473 -0.0389038 -0.690438 -0.722345
-44.6037 80.0943 35.2736 -0.0781364 -0.707432 -0.702449
-44.5388 79.37 36.0575 -0.0898182 -0.732792 -0.674498
-44.4893 78.7362 36.7494 -0.0761507 -0.76066 -0.644668
-44.4214 78.1086 37.5289 -0.0667936 -0.792152 -0.606657
-44.4031 77.9289 37.7714 -0.0711186 -0.808199 -0.584599
-45.3426 77.5262 38.4429 -0.0718584 -0.824685 -0.56101
-45.4272 78.3909 37.2589 0.0113558 -0.791386 -0.611211
-45.5076 79.2377 36.2889 0.00179627 -0.741496 -0.670954
-45.5777 79.9432 35.5238 -0.0131455 -0.738213 -0.67444
-45.6436 80.6159 34.8281 -0.00791732 -0.703054 -0.711092
-45.7397 81.3562 34.0965 -0.00778464 -0.703646 -0.710508
-45.8216 81.9917 33.4635 0.0141541 -0.724062 -0.68959
-45.9356 82.7977 32.6868 0.0826516 -0.664193 -0.742978
-46.0659 83.6509 31.8514 0.127934 -0.700217 -0.702374
-46.1727 84.3218 31.1128 0.0902898 -0.762276 -0.640924
-46.2986 85.0373 30.2246 0.116984 -0.762065 -0.636845
-46.4155 85.6939 29.4029 0.146594 -0.775914 -0.613569
-46.5739 86.3291 28.46 0.194387 -0.849179 -0.491029
-46.719 86.8806 27.4416 0.1337 -0.828694 -0.543499
-46.8714 87.4264 26.478 0.203995 -0.887703 -0.412758
-46.9897 87.802 25.569 0.176042 -0.891251 -0.417948
-47.1065 88.2253 24.6757 0.158022 -0.890507 -0.426646
-47.2312 88.6196 23.4355 0.211734 -0.924067 -0.318228
-47.3368 88.9082 22.3032 0.125668 -0.963215 -0.237538
-47.4184 89.1419 21.1991 0.14099 -0.965594 -0.218517
-47.491 89.3592 20.0482 0.15513 -0.977617 -0.142128
-47.5156 89.499 18.7423 0.205065 -0.976479 -0.0666083
-47.5266 89.5592 17.6808 0.206994 -0.977173 -0.0478076
-47.5495 89.5809 16.6451 0.0952186 -0.995427 0.0076347
-47.5746 89.5433 15.1706 0.130395 -0.9911 0.026811
-47.5706 89.4708 13.7353 0.104531 -0.992817 0.0582023
-47.5598 89.4532 12.625 0.111375 -0.993367 0.0285883
-47.5461 89.3752 11.2919 0.122418 -0.991251 0.0493576
-47.5277 89.3035 9.98896 0.15065 -0.988094 0.0312091
-47.5056 89.2729 8.90961 0.200761 -0.978471 0.0478554
-47.4917 89.2766 7.97007 0.216848 -0.976024 -0.0188216
-47.4838 89.3003 6.80603 0.2892 -0.955532 -0.0576351
-47.4908 89.352 5.77409 0.329299 -0.941507 -0.0716028
-47.5215 89.4511 4.84342 0.350842 -0.92793 -0.125918
-47.5738 89.6115 3.66529 0.350153 -0.917184 -0.190176
-47.6657 89.858 2.49005 0.399239 -0.895833 -0.195167
-47.7014 89.9486 2.05153 0.412614 -0.85905 -0.302957
-48.7006 89.3503 2.56508 0.454511 -0.866901 -0.204701
-48.6285 89.1475 3.87175 0.413541 -0.903712 -0.110858
-48.5907 89.0191 4.9371 0.383693 -0.919678 -0.0834955
-48.5931 88.9839 5.95649 0.366116 -0.930173 -0.0271363
-48.6164 88.9802 7.44341 0.31889 -0.947541 0.0217898
-48.6486 89.0036 8.4771 0.282808 -0.956394 0.0730091
-48.6849 89.057 9.74762 0.211858 -0.974184 0.0779812
-48.721 89.1712 10.7669 0.176277 -0.980556 0.0862347
-48.7572 89.2685 12.1855 0.23407 -0.968121 0.0891815
-48.7832 89.3079 13.1645 0.187759 -0.981434 0.0391761
-48.802 89.3309 14.1902 0.210827 -0.977521 0.00217334
-48.8009 89.3641 15.5122 0.237623 -0.971243 0.0149404
-48.7833 89.3525 16.7335 0.19553 -0.979941 -0.038529
-48.7579 89.2944 17.8691 0.203942 -0.977226 -0.0586291
-48.7448 89.2451 18.8719 0.185431 -0.981317 -0.0513008
-48.7241 89.1445 19.8298 0.229787 -0.95326 -0.196194
-48.6709 88.9512 21.0195 0.242032 -0.959544 -0.143857
-48.5913 88.7225 22.1106 0.313435 -0.9053 -0.286688
-48.4762 88.4209 23.1516 0.310031 -0.90033 -0.305429
-48.3642 88.0991 24.1719 0.245586 -0.911515 -0.329892
-48.2455 87.7153 25.1541 0.233113 -0.872963 -0.428479
-48.104 87.2425 26.1978 0.233222 -0.873902 -0.426501
-47.9313 86.6989 27.2779 0.211371 -0.835168 -0.507756
-47.74 86.0261 28.4124 0.20775 -0.817336 -0.537403
-47.546 85.3297 29.4952 0.209983 -0.786381 -0.580958
-47.4163 84.7632 30.3033 0.224256 -0.7668 -0.601437
-47.2569 84.002 31.2329 0.163096 -0.726614 -0.667406
-47.1064 83.3063 31.9924 0.166699 -0.701744 -0.692652
-46.9651 82.6169 32.7111 0.153873 -0.706344 -0.690943
-46.8197 81.7168 33.7231 0.159149 -0.72135 -0.674037
-46.6922 80.8818 34.5117 0.0849365 -0.699394 -0.709672
-46.5942 80.1325 35.3126 0.0792458 -0.722534 -0.686778
-46.4921 79.3239 36.1971 0.109522 -0.739423 -0.664273
-46.3942 78.436 37.2111 -0.00477946 -0.774247 -0.632865
-46.3327 77.7946 38.0346 0.0213043 -0.81503 -0.579027
-46.2712 77.2423 38.8342 0.0204115 -0.827483 -0.561119
-46.2183 76.8413 39.4696 -0.0138887 -0.878796 -0.476996
-47.1617 76.5921 39.8857 0.082622 -0.875703 -0.475729
-47.2198 77.122 38.9107 0.0951441 -0.845964 -0.524683
-47.2862 77.7241 38.0182 0.105984 -0.809032 -0.578131
-47.3675 78.494 37.0008 0.106184 -0.765539 -0.634567
-47.4624 79.2 36.175 0.103008 -0.745273 -0.658754
-47.5988 80.0733 35.2191 0.178255 -0.706382 -0.685018
-47.7166 80.8376 34.4261 0.208445 -0.707358 -0.675422
-47.8306 81.4607 33.7497 0.162988 -0.713883 -0.681033
-48.0226 82.4414 32.6717 0.206291 -0.71443 -0.668606
-48.1778 83.1067 31.8902 0.264704 -0.701902 -0.661261
-48.3295 83.7006 31.1999 0.265293 -0.701329 -0.661632
-48.5304 84.4442 30.2848 0.248165 -0.735591 -0.630333
-48.6727 84.9927 29.4655 0.285634 -0.795193 -0.534866
-48.8441 85.5738 28.5447 0.286615 -0.765699 -0.57581
-49.0233 86.1241 27.6946 0.341455 -0.793875 -0.503162
-49.202 86.6633 26.5874 0.305828 -0.834812 -0.457775
-49.3725 87.1652 25.5058 0.388189 -0.822351 -0.41599
-49.5017 87.5416 24.6442 0.346012 -0.848355 -0.400711
-49.628 87.91 23.5598 0.303019 -0.908816 -0.286764
-49.7579 88.2669 22.2882 0.310383 -0.904227 -0.293317
-49.8519 88.5298 21.2739 0.287157 -0.937772 -0.195253
-49.9109 88.7266 20.3376 0.264562 -0.94026 -0.214285
-49.9793 88.9559 19.0153 0.333753 -0.933356 -0.132118
-50.0081 89.0279 17.7726 0.229125 -0.972082 -0.0505722
-50.0123 89.065 16.8079 0.245404 -0.968663 -0.0383287
-50.0115 89.0662 15.5932 0.245561 -0.969294 0.013014
-50.02 89.0937 14.5325 0.229041 -0.972755 -0.0358826
-50.0095 89.0863 13.6194 0.192947 -0.980707 0.0313921
-49.9555 89.0024 12.3 0.225262 -0.968363 0.107375
-49.8904 88.8868 11.0055 0.254385 -0.962844 0.0906693
-49.834 88.7796 9.81916 0.253949 -0.960945 0.109979
-49.77 88.6617 8.38258 0.284718 -0.95539 0.0785213
-49.7231 88.6034 7.25513 0.321523 -0.946489 0.0279654
-49.6783 88.5686 5.86466 0.361721 -0.931282 0.0432506
-49.6683 88.5955 4.93627 0.41924 -0.90726 -0.0334332
-49.6717 88.6619 3.75944 0.459572 -0.883288 -0.0927108
-49.6781 88.6895 3.46511 0.459576 -0.883286 -0.0927102
-50.7194 88.1134 4.81461 0.432723 -0.901237 -0.0228737
-50.7543 88.1163 6.1504 0.393252 -0.918806 0.0338806
-50.8039 88.1683 7.22509 0.384192 -0.921097 0.0630603
-50.8851 88.2691 8.6653 0.351926 -0.928992 0.114551
-50.9749 88.4278 9.94742 0.318355 -0.942546 0.101281
-51.032 88.5054 10.9242 0.31933 -0.943404 0.0895325
-51.0884 88.5964 11.8204 0.301881 -0.944457 0.129877
-51.1503 88.6894 13.0152 0.312904 -0.948384 0.0515655
-51.1839 88.7265 14.2664 0.29765 -0.954516 0.0174357
-51.2048 88.7232 15.5583 0.358152 -0.933647 0.00552932
-51.2404 88.7123 16.8593 0.339065 -0.940304 -0.0293886
-51.2442 88.6532 17.8276 0.336871 -0.936205 -0.100193
-51.2067 88.5266 18.7348 0.361112 -0.922624 -0.135512
-51.1548 88.3691 19.9666 0.378254 -0.914583 -0.143043
-51.0835 88.1757 20.9953 0.348437 -0.910004 -0.224688
-50.9881 87.9165 22.0206 0.329104 -0.901223 -0.281936
-50.8588 87.569 23.1444 0.390054 -0.857148 -0.336385
-50.7369 87.2589 24.0816 0.384938 -0.841285 -0.379555
-50.5824 86.8609 24.9928 0.394329 -0.809374 -0.435222
-50.4386 86.4993 25.8648 0.364034 -0.840181 -0.401963
-50.2946 86.1103 26.7585 0.362398 -0.817298 -0.447986
-50.0329 85.4176 28.0249 0.400086 -0.728405 -0.556199
-49.8142 84.7655 29.0648 0.400998 -0.746086 -0.53156
-49.6528 84.2397 29.8995 0.363829 -0.729356 -0.579369
-49.3772 83.3451 31.0884 0.391145 -0.682534 -0.617376
-49.1911 82.6842 31.9343 0.328212 -0.693642 -0.6412
-49.0362 82.0715 32.664 0.258933 -0.71696 -0.647242
-48.8381 81.2831 33.5697 0.252762 -0.682992 -0.685298
-48.6756 80.4566 34.49 0.241603 -0.717686 -0.653112
-48.5762 79.8161 35.2306 0.208447 -0.707356 -0.675424
-48.4636 79.1579 35.9794 0.167265 -0.728916 -0.663855
-48.349 78.5196 36.7515 0.184903 -0.759378 -0.623824
-48.2511 77.825 37.7172 0.19133 -0.806599 -0.559277
-48.1967 77.2667 38.5002 0.0951483 -0.845968 -0.524676
-48.1515 76.5959 39.7068 0.0790991 -0.873023 -0.481222
-48.1195 76.2377 40.4482 0.0605229 -0.902705 -0.425982
-49.0964 75.9736 40.7721 0.0951938 -0.910167 -0.403155
-49.1203 76.4315 39.7656 0.12977 -0.907181 -0.400227
-49.1489 76.9123 38.8669 0.154969 -0.858013 -0.489693
-49.185 77.4219 37.977 0.193761 -0.80536 -0.560225
-49.2523 77.9774 37.155 0.185963 -0.785227 -0.590624
-49.3775 78.6652 36.2255 0.221944 -0.770374 -0.597716
-49.4952 79.2914 35.4587 0.26173 -0.73235 -0.628618
-49.6507 80.2274 34.3362 0.284183 -0.708917 -0.645505
-49.7843 80.8299 33.6003 0.306179 -0.683073 -0.663073
-50.0161 81.5908 32.7276 0.34592 -0.673227 -0.653533
-50.19 82.1971 31.9242 0.340937 -0.738929 -0.581159
-50.3411 82.7338 31.1532 0.366201 -0.710917 -0.600411
-50.5303 83.3324 30.3386 0.449634 -0.677133 -0.582511
-50.7085 83.8523 29.5913 0.451248 -0.709409 -0.5414
-50.9097 84.4286 28.6686 0.442639 -0.709605 -0.548207
-51.0949 84.9214 27.8311 0.42232 -0.753646 -0.50365
-51.2743 85.385 26.9869 0.455321 -0.752021 -0.476599
-51.561 86.0466 25.5507 0.466468 -0.785952 -0.405816
-51.8269 86.6548 24.1051 0.481132 -0.773134 -0.41325
-52.0348 87.1225 22.8714 0.486319 -0.787208 -0.379206
-52.1259 87.3643 21.9911 0.48299 -0.840009 -0.247196
-52.2391 87.6601 20.7684 0.470896 -0.842099 -0.262918
-52.3613 87.9593 19.3625 0.376362 -0.912836 -0.158373
-52.44 88.1915 17.864 0.38285 -0.919495 -0.089194
-52.4283 88.2262 16.9583 0.408401 -0.912671 -0.0155168
-52.3784 88.2693 15.7341 0.40358 -0.914718 -0.0203567
