-20.2473 100.161 -4.43779 0.0160932 -0.99072 -0.13496
-20.9611 100.052 -3.86309 0.0866266 -0.982437 -0.165242
-21.6984 99.8876 -3.26561 0.0921944 -0.981557 -0.167322
-22.7043 99.6382 -2.60213 0.154474 -0.973998 -0.165728
-23.5326 99.3717 -2.05093 0.208265 -0.956863 -0.202582
-24.5379 99.013 -1.40964 0.222144 -0.952884 -0.20633
-25.2641 98.7035 -0.81184 0.243857 -0.945294 -0.216685
-26.0417 98.3456 -0.125275 0.238014 -0.946425 -0.218155
-26.7575 98.0351 0.420513 0.245291 -0.9451 -0.215912
-27.7754 97.5286 1.31195 0.270111 -0.930953 -0.245587
-28.398 97.1591 1.99949 0.277171 -0.927014 -0.252586
-29.0412 96.7841 2.60325 0.290389 -0.917318 -0.272399
-29.7131 96.4137 3.13269 0.305056 -0.911246 -0.276677
-30.5768 95.9185 3.82845 0.304787 -0.907351 -0.289151
-31.3703 95.4289 4.4606 0.31862 -0.898605 -0.301644
-32.181 94.9259 5.0891 0.315596 -0.898311 -0.305631
-32.9738 94.4333 5.687 0.31812 -0.890937 -0.324086
-33.8399 93.9504 6.22271 0.290774 -0.895759 -0.336253
-35.0054 93.3965 6.73155 0.272282 -0.902897 -0.332627
-35.9884 93.0168 6.95532 0.273075 -0.902061 -0.334177
-36.9882 92.7064 6.96278 0.270115 -0.905125 -0.328208
-37.9057 92.5141 6.75978 0.27697 -0.907695 -0.314673
-39.0467 92.2879 6.39945 0.278892 -0.920522 -0.272802
-39.9193 92.1283 5.97041 0.295084 -0.912086 -0.283825
-40.6617 92.0619 5.4412 0.253362 -0.930205 -0.265567
-41.3302 92.0812 4.72854 0.251424 -0.935699 -0.247493
-41.8879 92.1221 3.96181 0.293936 -0.925453 -0.238947
-42.4159 92.1917 3.09179 0.318903 -0.905831 -0.278873
-42.901 92.341 2.05148 0.320411 -0.904047 -0.282866
-43.2092 92.5401 1.04991 0.301339 -0.912308 -0.277288
-43.4399 92.8019 -0.0655825 0.290662 -0.919352 -0.264585
-43.4563 93.0333 -0.940515 0.256156 -0.93059 -0.26012
-43.342 93.3258 -1.8394 0.212458 -0.939477 -0.267546
-43.0195 93.6941 -3.0131 0.173085 -0.959391 -0.220991
-42.705 93.9984 -4.16796 0.130374 -0.969025 -0.20863
-42.4244 94.2736 -5.40247 0.103268 -0.971502 -0.211385
-42.1614 94.4604 -6.31495 0.0569539 -0.983156 -0.173668
-41.7811 94.6399 -7.25223 0.0329438 -0.989847 -0.137603
-41.2402 94.8332 -8.43339 0.0267347 -0.988396 -0.149528
-40.8715 94.9469 -9.30089 0.00138038 -0.992922 -0.118761
-40.439 95.0579 -10.7806 -0.0290512 -0.998017 -0.055841
-40.137 95.1005 -11.8877 -0.0563009 -0.997865 -0.0330943
-39.8595 95.1146 -12.7836 -0.0450974 -0.998625 -0.0120424
-39.6555 95.0842 -13.676 -0.0358695 -0.999002 0.0266161
-39.3847 94.9677 -15.2215 -0.0424023 -0.992644 0.113405
-39.2587 94.8219 -16.4333 -0.0310049 -0.985811 0.159017
-39.1944 94.5395 -17.8132 -0.0452078 -0.979961 0.191569
-39.2754 94.1447 -19.2021 -0.0284507 -0.957029 0.288593
-39.3151 93.7722 -20.2392 -0.0142299 -0.938198 0.345805
-39.3814 93.3404 -21.1335 0.0317964 -0.870026 0.491979
-39.7131 92.7054 -22.1883 0.0325542 -0.842664 0.537015
-40.181 92.143 -23.0039 0.0603475 -0.793594 0.605438
-40.7417 91.6401 -23.6021 0.063507 -0.792463 0.606605
-41.8898 90.9401 -24.2946 0.0709119 -0.744284 0.664088
-42.6939 90.5703 -24.6404 0.0470896 -0.719879 0.692166
-43.6749 90.7475 -24.3674 0.065932 -0.712082 0.698994
-43.9008 91.481 -23.6058 0.0538089 -0.718615 0.693323
-43.9358 92.1356 -22.9059 0.00881656 -0.757809 0.651938
-43.8882 92.7154 -22.2026 -0.00230666 -0.769386 0.63878
-43.8605 93.3332 -21.3504 -0.0366518 -0.83157 0.55421
-43.951 94.0398 -20.2099 -0.125848 -0.873377 0.470504
-44.2506 94.6589 -19.0123 -0.166643 -0.914621 0.368373
-44.745 95.0856 -17.9879 -0.170949 -0.95522 0.241517
-45.4211 95.3903 -17.0308 -0.127922 -0.976483 0.173544
-46.1301 95.6321 -16.0465 -0.169504 -0.979486 0.108973
-46.6416 95.7788 -14.9694 -0.148608 -0.988829 0.0115499
-46.6884 95.7456 -13.6143 -0.138493 -0.988326 -0.0634884
-46.6899 95.6753 -12.6946 -0.136162 -0.983146 -0.122
-46.6089 95.4927 -11.3135 -0.104591 -0.988101 -0.107118
-46.5274 95.3218 -10.328 -0.0661786 -0.982422 -0.174551
-46.3917 95.044 -9.03325 -0.0429978 -0.969148 -0.2427
-46.1681 94.6943 -7.74902 -0.0477984 -0.962774 -0.266048
-46.0773 94.2909 -6.40854 0.0965107 -0.944535 -0.31391
-46.1218 93.9202 -5.28341 0.100538 -0.948881 -0.299195
-46.1636 93.5236 -4.1413 0.125154 -0.936333 -0.32805
-46.2033 93.1404 -3.10479 0.176622 -0.923302 -0.339941
-46.2747 92.7966 -2.27507 0.197998 -0.917379 -0.344717
-46.4221 92.3745 -1.26831 0.23471 -0.902488 -0.361145
-46.7974 91.8475 -0.245941 0.278191 -0.882268 -0.379755
-47.3999 91.2398 0.648808 0.379281 -0.875288 -0.300028
-48.1504 90.6178 1.48168 0.388597 -0.867823 -0.309637
-48.9253 90.0458 2.25262 0.47147 -0.86275 -0.182698
-49.6076 89.5765 2.87563 0.451373 -0.883886 -0.120234
-50.3544 89.0775 3.53735 0.477623 -0.874097 -0.0701213
-51.0986 88.6709 4.25049 0.459386 -0.888031 -0.0178018
-51.6655 88.4003 4.93443 0.429213 -0.902652 0.0315649
-52.2489 88.1607 5.74012 0.429246 -0.898401 0.092548
-53.1722 87.8253 6.94111 0.473555 -0.874355 0.10576
-53.7378 87.6413 7.72843 0.475505 -0.8675 0.146082
-54.4729 87.3899 8.74781 0.507924 -0.846451 0.159794
-55.1225 87.1229 9.45814 0.531433 -0.835058 0.142327
-55.7158 86.8532 10.0845 0.546647 -0.826056 0.135456
-56.4664 86.469 11.0838 0.62838 -0.767759 0.118866
-57.0864 86.0521 12.1533 0.653163 -0.752989 0.079916
-57.4965 85.7206 12.9438 0.706207 -0.705907 0.0331755
-57.9007 85.2682 13.7239 0.756389 -0.652684 -0.0433442
-58.3325 84.6983 14.6113 0.791995 -0.608599 -0.0484907
-58.5961 84.2589 15.3569 0.797494 -0.590852 -0.121682
-58.7521 83.7395 16.4789 0.808237 -0.55644 -0.192685
-58.7818 83.3487 17.4483 0.832265 -0.51105 -0.214854
-58.5596 83.0355 18.8602 0.82665 -0.489905 -0.276845
-58.2014 82.8222 20.2345 0.815724 -0.492729 -0.303004
-57.8176 82.5045 21.7509 0.814854 -0.486359 -0.315384
-57.6027 82.28 22.6429 0.793069 -0.506773 -0.337432
-57.42 82.0118 23.5209 0.791042 -0.519359 -0.323292
-57.2873 81.6841 24.3757 0.781535 -0.545774 -0.302199
-57.2335 81.1968 25.3523 0.75084 -0.572881 -0.328703
-57.2328 80.7081 26.2054 0.741588 -0.588191 -0.322041
-57.2739 80.2459 26.995 0.732382 -0.603564 -0.315162
-57.3005 79.7651 27.8236 0.713495 -0.624329 -0.316606
-57.3428 79.2559 28.8024 0.697471 -0.64732 -0.307427
-57.3677 78.7999 29.7059 0.677573 -0.675346 -0.288559
-57.3838 78.251 30.9411 0.617379 -0.717755 -0.32198
-57.316 77.9092 31.883 0.609562 -0.730863 -0.30704
-57.3127 77.807 32.1327 0.584873 -0.735378 -0.339768
-58.1008 77.2433 31.9193 0.597589 -0.741953 -0.30396
-58.1624 77.5911 30.934 0.626119 -0.723102 -0.291717
-58.1402 78.0174 29.8629 0.656916 -0.702503 -0.273739
-58.0485 78.5697 28.6462 0.677574 -0.675346 -0.288555
-58.0172 79.0278 27.7334 0.738782 -0.620434 -0.263178
-57.9028 79.6532 26.6029 0.750042 -0.597667 -0.282113
-57.8478 80.1171 25.8234 0.763423 -0.577486 -0.2893
-57.8384 80.8382 24.4783 0.781536 -0.545774 -0.302197
-57.949 81.2171 23.4976 0.787348 -0.531881 -0.31116
-58.239 81.6078 22.115 0.800478 -0.515674 -0.305475
-58.478 81.849 21.1006 0.811742 -0.501579 -0.299156
-58.7952 82.0782 19.8636 0.814566 -0.496994 -0.29909
-59.0768 82.2279 18.8312 0.815043 -0.504239 -0.285114
-59.3017 82.4145 17.7382 0.824821 -0.509491 -0.245129
-59.3693 82.6775 16.8741 0.816394 -0.536922 -0.212639
-59.3068 83.1103 15.9644 0.80934 -0.554899 -0.192498
-59.1964 83.5118 14.984 0.802941 -0.583104 -0.123595
-58.8215 84.1844 13.9759 0.758033 -0.648688 -0.0642698
-58.4483 84.6661 13.235 0.756369 -0.652709 -0.0433247
-58.0314 85.1165 12.4297 0.73663 -0.675732 0.0276246
-57.6169 85.5309 11.5422 0.655792 -0.750944 0.0651593
-57.1561 85.8227 10.7504 0.640079 -0.763022 0.0870673
-56.503 86.2102 9.74472 0.600673 -0.790587 0.119011
-55.7296 86.6241 8.86478 0.563983 -0.812056 0.149959
-54.8712 87.0116 7.90783 0.51285 -0.849755 0.122067
-54.2891 87.219 7.01532 0.477664 -0.869472 0.123914
-53.5925 87.489 6.04204 0.473557 -0.874354 0.105761
-52.8769 87.78 5.08364 0.467576 -0.881792 0.0617721
-52.257 88.093 4.18781 0.460233 -0.886521 0.0322863
-51.3843 88.5463 3.16824 0.471071 -0.876714 -0.0748286
-50.4541 89.1824 2.39097 0.480524 -0.869094 -0.116752
-49.7966 89.683 1.79407 0.481269 -0.851445 -0.208377
-49.1006 90.2766 1.10047 0.485511 -0.819862 -0.303489
-48.4516 90.8928 0.373665 0.405256 -0.817744 -0.408671
-47.856 91.5227 -0.344656 0.324361 -0.855792 -0.401045
-47.4586 92.0493 -1.21336 0.294091 -0.869198 -0.3975
-47.1992 92.7119 -2.58547 0.243579 -0.885476 -0.395729
-47.1277 93.1775 -3.69151 0.201827 -0.905837 -0.372459
-47.1197 93.5507 -4.60996 0.151003 -0.934326 -0.32285
-47.0694 93.9826 -5.71541 0.0554183 -0.920848 -0.385454
-47.0389 94.4096 -6.81419 0.00625626 -0.942911 -0.332346
-47.179 94.7498 -7.84935 -0.0101363 -0.949031 -0.314249
-47.3964 95.1071 -9.05301 -0.0656223 -0.965618 -0.251545
-47.4916 95.3966 -10.2878 -0.102258 -0.976475 -0.188405
-47.5639 95.5888 -11.1633 -0.119413 -0.971768 -0.20349
-47.6876 95.7284 -12.0646 -0.121752 -0.983819 -0.131442
-47.6616 95.8453 -13.0427 -0.1362 -0.98876 -0.0615956
-47.6671 95.9045 -14.0111 -0.133907 -0.989194 -0.0597038
-47.6628 95.9238 -14.9794 -0.136301 -0.990607 0.0103373
-47.1701 95.7838 -16.2432 -0.15495 -0.980834 0.117921
-46.6078 95.5818 -17.0582 -0.180881 -0.96918 0.167248
-45.9243 95.2991 -17.9571 -0.182943 -0.96939 0.163702
-45.3763 94.9406 -18.7593 -0.128173 -0.932145 0.338641
-45.0365 94.5467 -19.5588 -0.125628 -0.873516 0.470306
-44.8406 93.9735 -20.5709 -0.102572 -0.839299 0.529077
-44.7821 93.2806 -21.5124 -0.0981773 -0.807355 0.581498
-44.8426 92.4131 -22.5977 -0.0400581 -0.775603 0.629948
-44.8794 91.565 -23.453 0.02945 -0.712743 0.700806
-44.8088 90.7405 -24.2919 0.042298 -0.709948 0.702983
-44.5459 90.0834 -24.9546 0.0470101 -0.689938 0.722304
-43.4285 89.7363 -25.3796 0.0760965 -0.695526 0.714331
-42.366 89.8991 -25.347 0.0858006 -0.701789 0.707199
-41.562 90.2581 -25.0812 0.0802448 -0.703573 0.706077
-40.4948 90.8841 -24.5077 0.0723758 -0.743702 0.664582
-39.7717 91.4439 -23.96 0.0679397 -0.768079 0.635597
-39.2476 91.9832 -23.3023 0.0905312 -0.799495 0.592743
-38.7959 92.5729 -22.5237 0.0996643 -0.840883 0.531962
-38.4358 93.181 -21.509 0.0648187 -0.885011 0.461035
-38.3471 93.6631 -20.4961 0.00396004 -0.936329 0.3506
-38.349 94.0087 -19.5877 0.00461361 -0.948625 0.312641
-38.2864 94.265 -18.6964 -0.0326417 -0.957276 0.287327
-38.2318 94.5585 -17.5652 -0.0514818 -0.970795 0.234324
-38.3216 94.8031 -16.2244 -0.046251 -0.991902 0.118286
-38.4476 94.9479 -15.0452 -0.0540464 -0.994165 0.089466
-38.6766 95.0463 -13.7792 -0.0507888 -0.997343 0.0460753
-38.9555 95.0753 -12.5079 -0.0461019 -0.998917 0.00627875
-39.2355 95.0669 -11.6187 -0.0191124 -0.999374 -0.0297646
-39.6216 95.0086 -10.1051 -0.00404126 -0.998602 -0.0526974
-39.9285 94.9202 -9.0728 -0.000890828 -0.992897 -0.118971
-40.3235 94.7974 -8.04517 0.000244447 -0.992909 -0.118871
-40.8524 94.6314 -6.89577 0.039153 -0.991298 -0.125679
-41.2275 94.4596 -5.94907 0.0730428 -0.984782 -0.156861
-41.504 94.3065 -5.04071 0.0934627 -0.981294 -0.165924
-41.7546 94.0877 -3.97982 0.1346 -0.979676 -0.148722
-42.0731 93.8117 -2.79363 0.15921 -0.967912 -0.194312
-42.3539 93.524 -1.70489 0.231985 -0.953811 -0.190858
-42.5019 93.1959 -0.47105 0.28008 -0.926568 -0.251044
-42.3797 92.9452 0.639318 0.329809 -0.912189 -0.242574
-42.1009 92.7466 1.6734 0.326104 -0.904057 -0.276033
-41.6987 92.6041 2.57245 0.320417 -0.904046 -0.282862
-41.0702 92.5011 3.64406 0.327562 -0.90313 -0.277595
-40.1627 92.4492 4.75096 0.30564 -0.902424 -0.30367
-39.2376 92.5594 5.34335 0.29293 -0.906331 -0.304558
-38.3375 92.7404 5.70194 0.288239 -0.8951 -0.340168
-37.4829 92.9087 5.98343 0.289823 -0.901309 -0.321323
-36.5362 93.173 6.07729 0.282764 -0.895636 -0.343339
-35.2615 93.6692 5.79429 0.264071 -0.902197 -0.341037
-34.2183 94.1519 5.32774 0.28861 -0.903574 -0.316614
-33.4111 94.5907 4.82504 0.314466 -0.895468 -0.314849
-32.4272 95.1922 4.04725 0.320382 -0.899521 -0.296964
-31.5735 95.7167 3.38944 0.318443 -0.898519 -0.30209
-30.6317 96.2704 2.63575 0.292902 -0.914539 -0.278884
-29.9226 96.6577 2.08949 0.290672 -0.917218 -0.272435
-29.2779 97.0291 1.49681 0.281453 -0.92555 -0.25326
-28.7052 97.3826 0.843023 0.272612 -0.927949 -0.253938
-27.9686 97.7788 0.132603 0.264091 -0.93262 -0.245917
-27.3006 98.0894 -0.389605 0.24057 -0.943074 -0.229648
-26.2843 98.5297 -1.17588 0.23218 -0.947551 -0.219635
-25.3426 98.9589 -2.04072 0.225685 -0.9486 -0.221864
-24.4262 99.3109 -2.63575 0.209373 -0.953626 -0.216018
-23.3486 99.6896 -3.40716 0.182985 -0.964767 -0.189053
-22.2149 99.991 -4.08479 0.103297 -0.974007 -0.196239
-21.4373 100.16 -4.74109 0.0729914 -0.981741 -0.175034
-20.6907 100.297 -5.35758 0.0189962 -0.982407 -0.185781
-19.9443 100.401 -5.8538 0.00578446 -0.984831 -0.173422
-18.8043 100.501 -6.57763 -0.0541206 -0.979608 -0.192732
-17.9695 100.566 -7.07013 -0.0894379 -0.974117 -0.203298
-16.7971 100.55 -7.79135 -0.186051 -0.964213 -0.181093
-15.8982 100.406 -8.21429 -0.250468 -0.956582 -0.144614
-14.9508 100.181 -8.58788 -0.310457 -0.931821 -0.186386
-14.1071 99.89 -8.79529 -0.365234 -0.910152 -0.195518
-13.2631 99.5644 -8.83124 -0.392116 -0.888757 -0.237395
-12.1764 98.9734 -8.58827 -0.509968 -0.848289 -0.142477
-10.9952 98.3267 -8.1812 -0.481954 -0.873527 0.0610277
-9.84795 97.6909 -7.50449 -0.501072 -0.859486 0.0932064
-8.91641 97.2479 -6.86354 -0.531056 -0.827061 0.184257
-8.03137 96.8879 -6.08504 -0.52445 -0.82056 0.22723
-7.27597 96.703 -5.16592 -0.517298 -0.801673 0.298385
-6.81413 96.673 -4.39145 -0.525712 -0.781777 0.332412
-6.35508 96.8405 -3.3901 -0.547005 -0.75984 0.351283
-6.43086 97.2072 -2.52091 -0.452307 -0.845833 0.282608
-7.11419 97.7007 -2.14556 -0.331607 -0.89968 0.283923
-7.99107 98.04 -2.09473 -0.344766 -0.89903 0.269244
-9.04742 98.3643 -2.14829 -0.32659 -0.917409 0.224446
-10.1108 98.6962 -2.17256 -0.28849 -0.941727 0.172935
-10.9789 98.9645 -2.21764 -0.289071 -0.947474 0.135971
-12.173 99.2914 -2.24524 -0.240981 -0.96669 0.0857976
-13.2216 99.5619 -2.10309 -0.242257 -0.967299 0.0751218
-14.4022 99.7752 -1.89153 -0.127828 -0.989892 -0.0159264
-15.7256 99.8575 -1.51221 -0.0799185 -0.99601 -0.0383361
-16.8265 99.8556 -0.960747 -0.0195214 -0.99891 -0.042403
-17.74 99.7572 -0.224941 0.0576007 -0.994483 -0.0871792
-18.5834 99.6407 0.440685 0.0738461 -0.992561 -0.0960758
-19.4476 99.4637 1.1594 0.106734 -0.985328 -0.133177
-20.2118 99.2387 1.9419 0.181328 -0.970361 -0.159326
-20.8652 99.001 2.68412 0.184891 -0.9715 -0.148332
-21.8254 98.6429 3.65939 0.200464 -0.966386 -0.160975
-22.5685 98.3247 4.22726 0.262933 -0.945464 -0.19226
-23.4524 97.937 4.82349 0.27688 -0.939062 -0.203717
-24.1661 97.5828 5.34969 0.299114 -0.923123 -0.241607
-25.0014 97.1446 5.96856 0.308021 -0.917062 -0.253169
-26.1467 96.565 6.61154 0.321718 -0.907243 -0.270937
-27.0825 96.1038 7.00069 0.338765 -0.895713 -0.287988
-28.0602 95.5726 7.52141 0.328398 -0.895178 -0.301044
-29.0249 94.9766 8.17896 0.367801 -0.867076 -0.333262
-29.9843 94.3263 8.73235 0.349303 -0.858668 -0.375068
-30.5157 93.8368 9.3165 0.361357 -0.836396 -0.410909
-31.0811 92.9873 10.5637 0.298466 -0.856912 -0.420261
-31.285 92.2778 11.7369 0.223974 -0.86854 -0.434235
-31.2066 91.7009 13.0228 0.0892948 -0.90594 -0.413882
-31.1541 91.2587 13.9685 0.0559456 -0.916291 -0.393662
-31.1121 90.8944 14.873 0.0105371 -0.919722 -0.392429
-31 90.4856 15.834 -0.0269496 -0.934461 -0.350217
-30.9906 90.08 16.8815 -0.164544 -0.910487 -0.379394
-31.1189 89.7268 17.7847 -0.164017 -0.912054 -0.375819
-31.2256 89.2202 19.156 -0.21696 -0.911258 -0.349657
-31.4292 88.8019 20.3172 -0.249566 -0.907519 -0.335264
-31.8183 88.5535 21.3269 -0.29891 -0.884787 -0.357499
-32.0329 88.2297 22.2908 -0.29701 -0.883181 -0.363009
-32.2939 87.8756 23.2821 -0.332604 -0.855726 -0.396367
-32.715 87.4214 24.4639 -0.318523 -0.80775 -0.493893
-33.0517 87.0209 25.2477 -0.311193 -0.788438 -0.530475
-33.59 86.6564 26.0525 -0.292101 -0.743213 -0.601923
-34.3795 86.2207 27.0064 -0.329122 -0.710716 -0.619977
-35.0186 85.8708 27.6808 -0.312315 -0.684226 -0.658974
-35.7707 85.3257 28.5328 -0.287906 -0.650079 -0.703212
-36.5491 84.6736 29.4097 -0.259907 -0.630751 -0.731164
-37.4165 84.056 30.2453 -0.256491 -0.619389 -0.741921
-38.2543 83.4488 31.0429 -0.269632 -0.617663 -0.738777
-38.9869 82.8537 31.8139 -0.288582 -0.610049 -0.737943
-39.6012 82.2728 32.5455 -0.30568 -0.62462 -0.718448
-40.288 81.5353 33.4947 -0.294991 -0.647979 -0.701888
-40.7538 80.9519 34.2606 -0.278705 -0.6608 -0.69652
-41.197 80.3878 34.9884 -0.266226 -0.691673 -0.671257
-41.704 79.6055 36.0261 -0.270017 -0.709352 -0.651085
-42.1568 79.049 36.7986 -0.236479 -0.746675 -0.621735
-42.5801 78.6108 37.4921 -0.219909 -0.765638 -0.604344
-43.1874 78.2574 38.1517 -0.17084 -0.763041 -0.622006
-43.9149 77.7852 38.9898 -0.162281 -0.819862 -0.549082
-44.7545 77.2974 39.906 -0.072548 -0.87606 -0.476713
-45.6585 77.0434 40.5119 -0.0746565 -0.87645 -0.47567
-46.7361 76.7705 41.1557 -0.0144936 -0.891019 -0.453735
-47.5825 76.5805 41.4936 0.0665887 -0.912301 -0.403088
-48.5027 76.4238 41.7378 0.0690649 -0.921467 -0.382049
-49.7963 76.2181 41.8972 0.118037 -0.925267 -0.360469
-51.0096 76.1382 41.6587 0.163261 -0.929505 -0.330707
-52.1709 76.1251 41.1215 0.164207 -0.930904 -0.325028
-52.9719 76.1596 40.6235 0.214399 -0.921485 -0.32388
-53.71 76.1805 40.0754 0.213054 -0.915891 -0.339802
-54.5167 76.25 39.3145 0.231348 -0.91583 -0.328227
-55.3229 76.3384 38.3486 0.31535 -0.882856 -0.346416
-55.8392 76.4381 37.5374 0.329575 -0.886787 -0.323754
-56.5376 76.624 36.2641 0.387808 -0.856852 -0.33972
-57.0966 76.6663 35.328 0.464548 -0.839195 -0.282515
-57.6272 76.6964 34.3822 0.507706 -0.812963 -0.283559
-57.9149 76.8199 33.4477 0.532535 -0.792046 -0.298445
-58.1062 77.0713 32.3284 0.590232 -0.758822 -0.272977
-58.1104 77.1953 32.0175 0.597589 -0.741956 -0.303957
-59.003 76.681 31.518 0.601601 -0.746305 -0.284031
-58.9296 76.4376 32.3763 0.582876 -0.775689 -0.241998
-58.7344 76.2772 33.3824 0.570462 -0.793005 -0.212779
-58.4276 76.108 34.7237 0.485771 -0.840271 -0.24077
-57.7663 76.123 35.8392 0.473989 -0.83709 -0.273143
-57.2385 76.1386 36.7041 0.414578 -0.873566 -0.254429
-56.85 76.0188 37.6367 0.357846 -0.890472 -0.28108
-56.2782 75.9418 38.4798 0.317631 -0.891939 -0.321801
-55.6684 75.913 39.298 0.262634 -0.923926 -0.278181
-54.8645 75.8551 40.2725 0.242406 -0.932391 -0.267
-54.0788 75.8157 40.9815 0.179456 -0.936063 -0.302625
-53.1484 75.8181 41.5937 0.162893 -0.950042 -0.265182
-52.2145 75.7829 42.1742 0.133215 -0.944422 -0.300528
-50.7882 75.7968 42.6946 0.110892 -0.934441 -0.338398
-49.438 75.8983 42.8537 0.089276 -0.934233 -0.344997
-48.4162 76.0231 42.7361 0.0576601 -0.93151 -0.358351
-47.3519 76.1796 42.4792 0.0447732 -0.920094 -0.389131
-46.2667 76.3789 41.9512 -0.0495032 -0.914316 -0.400833
-45.3446 76.5973 41.3437 -0.0693485 -0.896516 -0.437549
-44.5168 76.7621 40.8269 -0.0956024 -0.881151 -0.462059
-43.8421 77.0052 40.2724 -0.0890351 -0.867845 -0.488793
-43.2876 77.2405 39.601 -0.180365 -0.841983 -0.504973
-42.7119 77.6119 38.8796 -0.20078 -0.815408 -0.542028
-42.003 77.9388 38.1136 -0.233345 -0.760647 -0.605777
-41.4976 78.4114 37.3355 -0.226283 -0.75692 -0.613081
-40.8991 79.052 36.3305 -0.226517 -0.746859 -0.625213
-40.4415 79.7788 35.3249 -0.280203 -0.693829 -0.663391
-39.9067 80.464 34.3604 -0.299827 -0.680621 -0.667923
-39.5289 80.9643 33.7133 -0.307949 -0.663134 -0.68216
-39.0138 81.5879 32.9041 -0.30941 -0.634594 -0.708206
-38.5156 82.095 32.2544 -0.291716 -0.608678 -0.737843
-37.9326 82.5173 31.6848 -0.273572 -0.603436 -0.749015
-37.2243 83.0956 30.9641 -0.258397 -0.623612 -0.737544
-36.5333 83.5315 30.359 -0.275339 -0.599194 -0.751768
-35.6542 84.2044 29.4874 -0.268602 -0.625505 -0.732528
-34.8259 84.9542 28.5076 -0.271588 -0.665202 -0.695519
-33.9831 85.4991 27.6141 -0.274172 -0.719899 -0.637632
-33.3629 85.8752 26.9622 -0.247285 -0.776075 -0.580136
-32.4415 86.4069 25.8723 -0.246256 -0.799951 -0.545137
-31.8923 86.924 24.7486 -0.288022 -0.817778 -0.497413
-31.6219 87.3089 23.8829 -0.297169 -0.837328 -0.458882
-31.236 87.6436 22.9455 -0.31359 -0.855362 -0.412117
-30.9891 87.9481 22.0973 -0.306535 -0.874792 -0.3752
-30.7647 88.2764 21.1557 -0.278111 -0.890714 -0.35956
-30.471 88.5549 20.3027 -0.24778 -0.8959 -0.368738
-30.2457 89.1456 18.7984 -0.195511 -0.898188 -0.393366
-30.1274 89.5915 17.6744 -0.198537 -0.907316 -0.370397
-30.0425 90.2744 16.1343 -0.0954899 -0.909214 -0.405231
-30.0633 90.7282 15.291 -0.0330721 -0.898963 -0.432246
-30.1449 91.0943 14.4306 0.00633726 -0.927101 -0.374217
-30.1378 91.4842 13.6008 -0.0110243 -0.895817 -0.444287
-30.235 91.99 12.7202 0.181807 -0.855295 -0.484618
-30.2239 92.4657 11.8593 0.1983 -0.8418 -0.500915
-30.1466 93.0775 10.9354 0.289344 -0.768948 -0.558692
-29.8811 93.6617 10.2347 0.504596 -0.790858 -0.346304
-29.4629 94.2034 9.59394 0.453146 -0.834106 -0.312683
-28.6528 94.7796 9.1143 0.397945 -0.863394 -0.307495
-27.7329 95.3814 8.45673 0.356838 -0.885379 -0.297945
-26.5181 96.0625 7.77536 0.334673 -0.894762 -0.295628
-25.2894 96.6522 7.3448 0.322875 -0.907849 -0.267511
-24.527 97.0757 6.82597 0.322635 -0.911381 -0.255203
-23.5725 97.5761 6.18394 0.31655 -0.917255 -0.241743
-22.8333 97.9789 5.55715 0.29814 -0.932982 -0.19999
-21.7775 98.4075 4.86347 0.249337 -0.950436 -0.185242
-21.0811 98.6865 4.31461 0.19944 -0.966361 -0.16239
-20.349 98.9794 3.51104 0.212324 -0.96812 -0.127846
-19.4074 99.3073 2.45036 0.17508 -0.972615 -0.152865
-18.466 99.5567 1.57026 0.14765 -0.985656 -0.0817366
-17.773 99.6628 0.971173 0.085787 -0.993939 -0.0687156
-16.765 99.7776 0.26438 0.0478202 -0.997621 -0.049648
-15.9626 99.8358 -0.299837 0.0360415 -0.999292 -0.0108275
-14.846 99.8046 -0.76384 -0.0706815 -0.99742 0.0125382
-13.98 99.7503 -1.07362 -0.101757 -0.991274 0.0578716
-12.5811 99.476 -1.24494 -0.225423 -0.971416 0.07323
-11.5314 99.2086 -1.33293 -0.249265 -0.964454 0.0877228
-10.584 98.9999 -1.29476 -0.247698 -0.956827 0.144059
-9.55595 98.6885 -1.27635 -0.238981 -0.946525 0.20715
-8.31027 98.4411 -1.09316 -0.306063 -0.913464 0.26773
-7.39866 98.1055 -1.14656 -0.269472 -0.89848 0.334898
-6.30534 97.6972 -1.18733 -0.370413 -0.834665 0.407488
-5.62873 97.2142 -1.57709 -0.368779 -0.839155 0.399776
-5.42287 96.5785 -2.54362 -0.508335 -0.779998 0.364964
-5.52907 96.1576 -3.56641 -0.56392 -0.734195 0.376965
-5.9929 96.0298 -4.53683 -0.564861 -0.747727 0.348484
-6.57851 96.0682 -5.47373 -0.574867 -0.750095 0.326933
-7.13414 96.2193 -6.2126 -0.572929 -0.77105 0.277689
-7.74036 96.4291 -6.84796 -0.578616 -0.779962 0.232921
-8.38527 96.7602 -7.48076 -0.534465 -0.822677 0.193777
-9.3915 97.283 -8.22847 -0.569365 -0.813205 0.120508
-10.2665 97.7914 -8.81996 -0.554873 -0.822772 0.123138
-11.1203 98.3341 -9.23847 -0.66041 -0.739263 0.131712
-11.8594 98.9419 -9.53275 -0.582645 -0.795422 -0.00469179
-12.8171 99.6123 -9.77912 -0.491357 -0.818792 -0.296658
-13.7946 100.07 -9.84665 -0.283445 -0.841811 -0.459362
-14.8316 100.345 -9.68066 -0.331456 -0.927031 -0.175358
-15.7459 100.587 -9.35029 -0.261482 -0.945268 -0.19292
-16.6471 100.722 -8.91632 -0.237338 -0.952246 -0.19201
-17.5401 100.824 -8.48102 -0.207057 -0.940669 -0.268829
-18.4975 100.764 -7.85568 -0.0259201 -0.961116 -0.268241
-19.3041 100.698 -7.36067 -0.0362171 -0.975381 -0.216844
-20.3983 100.568 -6.6803 -0.0189823 -0.97595 -0.217164
-21.1642 100.455 -6.20125 0.0119613 -0.978443 -0.205698
-22.1922 100.265 -5.46057 0.0618593 -0.971826 -0.227436
-22.9779 100.042 -4.85229 0.147378 -0.966599 -0.209683
-23.8889 99.7692 -4.25668 0.157791 -0.963969 -0.214089
-24.6674 99.488 -3.62684 0.207548 -0.949531 -0.235185
-25.7837 99.0537 -2.92838 0.240042 -0.944554 -0.223902
-26.5968 98.6983 -2.25948 0.234173 -0.948454 -0.213539
-27.4232 98.3098 -1.39835 0.207528 -0.94821 -0.239392
-28.4632 97.8649 -0.70107 0.226457 -0.936835 -0.266568
-29.2533 97.4604 -0.0519461 0.268235 -0.931625 -0.245204
-29.9855 97.0085 0.809315 0.276997 -0.924272 -0.262667
-30.5968 96.6664 1.36813 0.277683 -0.921935 -0.269497
-31.3232 96.2562 1.97442 0.289416 -0.912588 -0.288598
-32.1656 95.7582 2.63985 0.301444 -0.903902 -0.303467
-32.9218 95.3156 3.14945 0.322897 -0.897224 -0.301209
-33.7202 94.7991 3.85414 0.317864 -0.901814 -0.292736
-34.9851 94.177 4.54422 0.272984 -0.910412 -0.310229
-35.8331 93.8049 4.95229 0.226956 -0.917099 -0.325985
-36.9166 93.4476 5.1523 0.244658 -0.885029 -0.396063
-37.9072 93.2038 4.9088 0.330173 -0.874423 -0.354825
-39.0486 92.9262 4.51252 0.323209 -0.886833 -0.330247
-39.9099 92.863 3.82217 0.330408 -0.885403 -0.326945
-40.4844 92.9245 3.04631 0.344514 -0.885838 -0.310538
-41.0261 93.0315 2.09321 0.366974 -0.884342 -0.288564
-41.346 93.199 1.04602 0.337837 -0.907549 -0.248915
-41.5313 93.4134 -0.000159407 0.334394 -0.914876 -0.226237
-41.4694 93.63 -1.07548 0.282422 -0.940861 -0.18713
-41.263 93.8173 -1.94639 0.201406 -0.962043 -0.184147
-41.0185 94.0454 -2.95532 0.195076 -0.968384 -0.155489
-40.7824 94.2015 -3.90899 0.114876 -0.981558 -0.152797
-40.5174 94.4007 -4.89883 0.141181 -0.978399 -0.146906
-40.1819 94.5661 -5.89141 0.103687 -0.989769 -0.0795817
-39.7887 94.6608 -6.81597 0.0352135 -0.991406 -0.12599
-39.306 94.794 -7.81665 0.0192437 -0.995257 -0.0953581
-39.0094 94.8967 -8.82829 0.0555347 -0.992793 -0.099678
-38.7033 94.969 -9.74974 -0.00615247 -0.997097 -0.0758964
-38.4337 95.0354 -10.9028 -0.00338901 -0.999601 -0.0280323
-38.0427 95.0625 -12.2263 -0.00453088 -0.99982 -0.00125979
-37.8415 95.049 -13.161 -0.00631039 -0.999424 0.0288188
-37.5822 94.9609 -14.5749 -0.00657292 -0.997348 0.0724814
-37.4558 94.8958 -15.4732 0.00547902 -0.994708 0.0983495
-37.3737 94.7782 -16.4153 -0.00531857 -0.987624 0.152688
-37.2777 94.4616 -17.8589 -0.00795677 -0.970391 0.241408
-37.3333 94.2469 -18.741 0.0131541 -0.966226 0.256028
-37.391 93.9192 -19.8722 0.0550708 -0.967439 0.243132
-37.3497 93.509 -21.0767 0.0635291 -0.942877 0.327029
-37.5432 93.0865 -21.9027 0.131414 -0.876888 0.462384
-37.8835 92.4799 -22.8513 0.152278 -0.829562 0.53725
-38.2026 91.9645 -23.5457 0.114727 -0.770036 0.627284
-38.7834 91.3143 -24.2608 0.0951818 -0.77376 0.626288
-39.3793 90.7377 -24.8428 0.107034 -0.757218 0.644333
-40.4129 90.1111 -25.39 0.127852 -0.72134 0.680377
-41.1802 89.5879 -25.8211 0.106187 -0.725199 0.680302
-42.4759 89.1343 -26.0639 0.0995835 -0.675241 0.730714
-43.51 88.9945 -26.0644 0.0900029 -0.668657 0.738104
-44.4525 89.1232 -25.8618 0.0597487 -0.670487 0.739512
-45.5107 89.6174 -25.3492 0.024769 -0.681802 0.73094
-45.7785 90.2783 -24.7014 0.0360564 -0.706591 0.7066
-45.8985 90.8999 -24.0631 0.0441053 -0.710771 0.70204
-45.8648 91.5753 -23.389 0.0387582 -0.702011 0.711076
-45.7454 92.3419 -22.6434 0.0321731 -0.700445 0.712981
-45.7203 93.0303 -21.959 -0.0909291 -0.749595 0.655621
-45.7143 93.6758 -21.146 -0.117066 -0.809484 0.575353
-45.7778 94.328 -20.2559 -0.168847 -0.837071 0.512764
-46.2198 95.0193 -19.1635 -0.260154 -0.878186 0.389998
-46.9405 95.4411 -18.2713 -0.184993 -0.969604 0.160143
-47.5838 95.7396 -17.2717 -0.207898 -0.970225 0.116947
-48.1832 95.9169 -16.5524 -0.193106 -0.977875 0.0804408
-48.5955 96.0602 -15.6086 -0.197074 -0.980182 0.0195897
-48.6449 96.0907 -14.7129 -0.193821 -0.980773 0.0227432
-48.6144 96.0008 -13.3094 -0.147213 -0.987484 -0.0566021
-48.6854 95.8911 -11.9387 -0.214305 -0.96308 -0.16294
-48.531 95.6851 -11.0319 -0.165953 -0.961698 -0.215431
-48.4103 95.4601 -9.99788 -0.133211 -0.963907 -0.227942
-48.4076 95.0632 -8.46772 -0.0866642 -0.949823 -0.294494
-48.0716 94.5985 -7.30253 -0.053224 -0.941023 -0.332891
-48.0304 94.1088 -6.10463 -0.0182771 -0.894832 -0.436983
-48.0785 93.5774 -5.01509 0.164839 -0.900861 -0.401594
-48.0794 93.1115 -3.93795 0.146511 -0.908265 -0.391906
-48.1446 92.5459 -2.81427 0.220978 -0.865118 -0.445159
-48.2955 92.1033 -1.91662 0.258091 -0.883479 -0.390963
-48.5974 91.6335 -1.06884 0.249133 -0.87876 -0.40708
-49.0887 90.9945 -0.381627 0.41391 -0.728857 -0.537829
-49.601 90.3155 0.183061 0.539932 -0.762558 -0.356341
-50.3045 89.5692 1.00354 0.522163 -0.817175 -0.237118
-51.1414 88.9301 1.69753 0.478844 -0.860213 -0.175334
-51.8286 88.4155 2.31955 0.520102 -0.849599 -0.0876141
-52.6165 87.9007 3.11101 0.486481 -0.873573 -0.0144056
-53.2295 87.557 3.9329 0.47801 -0.878354 0.000201777
-53.703 87.2886 4.68762 0.513043 -0.854011 0.0863287
-54.278 87.0358 5.51991 0.498118 -0.860835 0.103618
-55.2276 86.646 6.92428 0.522579 -0.844692 0.114995
-55.8569 86.3694 7.7825 0.561477 -0.820643 0.105216
-56.7597 85.8908 8.74964 0.568751 -0.815219 0.109083
-57.2968 85.5816 9.38975 0.624372 -0.777949 0.0703957
-57.833 85.232 10.2823 0.624793 -0.777598 0.0705295
-58.3045 84.8563 11.2223 0.686684 -0.725025 0.0529536
-58.6639 84.5024 12.1038 0.699927 -0.713525 -0.0313792
-59.0329 84.0127 12.8483 0.757432 -0.650859 -0.0509766
-59.5306 83.3294 13.8142 0.785621 -0.607876 -0.109922
-59.8924 82.5232 15.1083 0.794686 -0.584911 -0.162247
-59.9565 82.1658 15.9739 0.798581 -0.561355 -0.217136
-59.938 81.722 17.2275 0.78679 -0.572302 -0.230153
-59.6141 81.4414 18.7288 0.797256 -0.524566 -0.298663
-59.3675 81.3081 19.6328 0.796814 -0.532278 -0.285665
-59.0339 81.0971 20.9354 0.78307 -0.544443 -0.300637
-58.8233 80.8669 21.8322 0.801321 -0.514455 -0.305321
-58.5222 80.546 23.18 0.799851 -0.522778 -0.294848
-58.4106 80.1964 24.1105 0.787527 -0.552804 -0.269424
-58.4411 79.6159 25.2611 0.761999 -0.578909 -0.290211
-58.5274 79.1178 26.1847 0.706232 -0.642173 -0.298078
-58.6817 78.5343 27.1353 0.683437 -0.678528 -0.269264
-58.801 77.9196 28.5625 0.652585 -0.716056 -0.245116
-58.867 77.5216 29.4302 0.636905 -0.720549 -0.274029
-58.9304 77.0721 30.5207 0.641494 -0.724669 -0.251675
-58.9579 76.7687 31.3722 0.605616 -0.750651 -0.264108
-56.9834 78.6494 30.8208 0.632579 -0.703636 -0.323636
-55.9903 79.3858 31.1584 0.597028 -0.70468 -0.383384
-55.1134 79.9918 31.4738 0.596334 -0.679765 -0.426973
-54.0677 80.6335 31.8464 0.592489 -0.657896 -0.464897
-53.0601 81.1632 32.1663 0.530669 -0.653925 -0.539233
-52.1948 81.5768 32.4447 0.461045 -0.64882 -0.605367
-51.1149 82.0288 32.7646 0.435912 -0.685449 -0.583215
-50.2271 82.3356 32.991 0.31826 -0.680645 -0.659873
-49.2947 82.5927 33.174 0.313903 -0.680323 -0.662288
-48.3763 82.8024 33.3166 0.251079 -0.692474 -0.676343
-47.4215 82.994 33.4347 0.126215 -0.725296 -0.676769
-46.1889 83.1007 33.47 0.0677289 -0.722592 -0.687949
-45.2248 83.0924 33.4269 -0.0728386 -0.697923 -0.712459
-44.1076 83.0395 33.3456 -0.109335 -0.67109 -0.733269
-43.0633 82.9539 33.2399 -0.224 -0.660306 -0.716813
-41.9893 82.7953 33.0592 -0.244514 -0.643791 -0.725083
-41.259 82.6547 32.8984 -0.289941 -0.63408 -0.716852
-40.7056 83.4001 32.0295 -0.287461 -0.626818 -0.7242
-41.8412 83.6182 32.2715 -0.270445 -0.644638 -0.715053
-43.0889 83.8088 32.488 -0.178063 -0.657059 -0.732507
-44.1666 83.9027 32.6015 -0.124794 -0.659994 -0.740833
-45.1411 83.9186 32.6375 -0.0271857 -0.670082 -0.741789
-46.2189 83.8802 32.6355 0.0548653 -0.679428 -0.731688
-47.5957 83.7308 32.5687 0.170302 -0.733337 -0.65819
-48.5838 83.5526 32.4715 0.2864 -0.700814 -0.653326
-49.6309 83.2522 32.2748 0.318732 -0.709538 -0.628464
-50.7232 82.9153 32.05 0.365228 -0.713257 -0.598224
-51.7188 82.5331 31.7811 0.460313 -0.64966 -0.605023
-52.7707 82.0462 31.4489 0.556848 -0.633813 -0.536845
-53.6137 81.5613 31.1408 0.582715 -0.631649 -0.511335
-54.5003 81.0032 30.798 0.587465 -0.645145 -0.488541
-55.5845 80.2281 30.3637 0.624933 -0.655242 -0.424401
-56.2888 79.6716 30.0862 0.652381 -0.666977 -0.359916
-56.6969 79.3539 29.9352 0.652384 -0.666975 -0.359916
-56.7448 79.806 28.9454 0.669594 -0.667529 -0.325653
-55.93 80.4979 29.2941 0.676313 -0.624761 -0.390223
-55.1058 81.1696 29.6479 0.663481 -0.627518 -0.407449
-54.0033 81.9768 30.1216 0.64124 -0.638591 -0.425457
-53.1781 82.5071 30.4519 0.56631 -0.633414 -0.527332
-52.2589 83.0444 30.8097 0.518031 -0.641554 -0.565731
-51.1156 83.5272 31.13 0.440517 -0.674945 -0.591941
-50.2116 83.8332 31.3267 0.359547 -0.681611 -0.637285
-48.8467 84.2591 31.5934 0.323254 -0.680435 -0.657658
-47.9308 84.4829 31.719 0.219229 -0.707659 -0.671683
-46.8628 84.6437 31.8063 0.152345 -0.708937 -0.688621
-45.858 84.7377 31.858 0.0325505 -0.714129 -0.699257
-44.7784 84.7537 31.847 -0.0522853 -0.721999 -0.689915
-43.8051 84.7033 31.7772 -0.139881 -0.689951 -0.710212
-42.8899 84.6144 31.6708 -0.1493 -0.695922 -0.702426
-41.6169 84.4225 31.4621 -0.247274 -0.661238 -0.708251
-40.371 84.1909 31.2065 -0.263878 -0.643862 -0.718199
-39.7511 84.0731 31.0759 -0.285025 -0.623914 -0.727662
-38.8514 84.7533 30.1397 -0.258604 -0.636794 -0.726373
-40.0528 84.9954 30.3949 -0.291768 -0.629582 -0.720068
-41.0488 85.1683 30.5798 -0.174505 -0.677517 -0.714506
-42.0429 85.316 30.7326 -0.224396 -0.679041 -0.698963
-43.0868 85.4425 30.8634 -0.136731 -0.727336 -0.672522
-44.1583 85.5202 30.9597 -0.030384 -0.74135 -0.670431
-45.271 85.5306 30.9986 -0.0339357 -0.744549 -0.666705
-46.2068 85.4957 30.9889 0.0441286 -0.748923 -0.661186
-47.2414 85.3735 30.9239 0.246452 -0.761901 -0.598973
-48.5455 85.0801 30.7636 0.244215 -0.762573 -0.599034
-49.459 84.8471 30.6399 0.367072 -0.731429 -0.574692
-50.3938 84.5193 30.4441 0.375022 -0.722885 -0.580341
-51.303 84.1562 30.22 0.448622 -0.708174 -0.545186
-52.4578 83.6322 29.8961 0.533731 -0.665088 -0.522293
-53.2198 83.1682 29.592 0.635404 -0.616402 -0.465093
-54.1484 82.4899 29.1854 0.653144 -0.599365 -0.462779
-55.2424 81.6223 28.6916 0.681123 -0.595392 -0.426122
-55.9218 81.0697 28.3927 0.691125 -0.61683 -0.376653
-56.6548 80.4089 28.0538 0.713135 -0.613261 -0.339631
-56.9157 80.1707 27.9361 0.721229 -0.607196 -0.333379
-56.7731 80.8173 27.0644 0.741719 -0.588301 -0.322109
-56.1425 81.4107 27.3801 0.727579 -0.585121 -0.358137
-55.4767 82.0257 27.7141 0.722633 -0.589942 -0.360236
-54.5785 82.7805 28.1343 0.680983 -0.595535 -0.426146
-53.8961 83.3338 28.4485 0.644324 -0.607932 -0.463967
-52.8968 84.049 28.8626 0.619186 -0.633696 -0.463722
-52.0989 84.4773 29.1252 0.487604 -0.673991 -0.554958
-51.2569 84.8483 29.3442 0.454708 -0.725021 -0.517286
-50.2541 85.2724 29.5851 0.364351 -0.746724 -0.556463
-49.2014 85.633 29.7805 0.304234 -0.753723 -0.582532
-47.9286 85.9251 29.9223 0.237912 -0.782186 -0.575833
-46.9641 86.1307 30.0424 0.212623 -0.788893 -0.576575
-46.0584 86.2766 30.1223 0.00161156 -0.764098 -0.645098
-44.5536 86.2658 30.0716 0.00429227 -0.777988 -0.628264
-43.5831 86.2672 30.0463 -0.121413 -0.754478 -0.644998
-42.6769 86.1881 29.9631 -0.168365 -0.749284 -0.640489
-41.664 86.0557 29.8394 -0.165558 -0.768335 -0.618265
-40.5953 85.9137 29.7007 -0.201681 -0.719093 -0.665004
-39.0628 85.6342 29.415 -0.231838 -0.66754 -0.707561
-38.1049 85.4672 29.2454 -0.225852 -0.64971 -0.725857
-36.9787 86.1046 28.2921 -0.276254 -0.658193 -0.700332
-37.9092 86.2796 28.4522 -0.230414 -0.659394 -0.715618
-39.0832 86.4681 28.628 -0.206072 -0.665678 -0.717222
-40.5835 86.6878 28.8325 -0.140893 -0.73541 -0.662813
-41.8216 86.8088 28.9507 -0.145485 -0.751214 -0.643825
-42.7297 86.9169 29.0518 -0.154099 -0.7899 -0.593558
-43.6748 87.0222 29.1483 -0.0687536 -0.812285 -0.579195
-45.0229 86.9743 29.153 0.0313735 -0.79984 -0.599392
-46.0696 86.8575 29.11 0.0721039 -0.83684 -0.542679
-46.9735 86.7543 29.0649 0.151843 -0.841379 -0.518676
-47.9146 86.613 28.9936 0.237905 -0.782191 -0.575828
-49.1013 86.3226 28.8568 0.262827 -0.798803 -0.541143
-50.0437 86.0117 28.7038 0.360959 -0.763252 -0.535869
-50.9001 85.6597 28.5153 0.45119 -0.728638 -0.515281
-51.8859 85.2287 28.2772 0.434425 -0.75202 -0.495723
-52.7868 84.7567 28.0194 0.593356 -0.665611 -0.452649
-53.5089 84.2605 27.7389 0.656155 -0.612578 -0.440691
-54.2829 83.629 27.4002 0.678483 -0.603558 -0.418783
-55.2886 82.7629 26.9202 0.718285 -0.58543 -0.375951
-56.2295 81.8766 26.4228 0.744775 -0.566929 -0.351996
-56.8779 81.2407 26.088 0.750793 -0.572819 -0.328919
-56.9138 81.7292 25.1546 0.75084 -0.572881 -0.328703
-56.2825 82.4002 25.508 0.742493 -0.557086 -0.371967
-55.461 83.1878 25.9505 0.726227 -0.573035 -0.379769
-54.7573 83.8216 26.304 0.709911 -0.588703 -0.386595
-53.8068 84.6159 26.7262 0.676362 -0.613544 -0.407552
-53.049 85.1828 27.0106 0.582979 -0.683055 -0.439968
-52.2851 85.665 27.2541 0.501677 -0.749378 -0.432149
-51.3226 86.1117 27.4858 0.453389 -0.732838 -0.507333
-50.4408 86.4748 27.6679 0.405861 -0.781771 -0.473404
-49.5798 86.7983 27.819 0.355352 -0.814 -0.459487
-48.692 87.0701 27.9366 0.256128 -0.80831 -0.530126
-47.6376 87.3049 28.0455 0.20903 -0.822535 -0.528906
-46.7112 87.4426 28.1045 0.115153 -0.830036 -0.545692
-45.5588 87.5873 28.1591 0.142181 -0.829627 -0.539911
-44.4786 87.6753 28.177 0.0417752 -0.859864 -0.50881
-43.5469 87.7035 28.1665 -0.135374 -0.794362 -0.592167
-42.4225 87.6037 28.0691 -0.122277 -0.785002 -0.607306
-40.9886 87.523 27.9916 -0.102468 -0.76232 -0.639038
-39.952 87.381 27.8845 -0.170764 -0.772417 -0.611729
-38.9956 87.2429 27.7776 -0.184906 -0.772188 -0.607894
-37.8985 87.0648 27.627 -0.205497 -0.742996 -0.636968
-36.8459 86.8557 27.4577 -0.299826 -0.731688 -0.612157
-36.2967 86.7132 27.3396 -0.294717 -0.7131 -0.636106
-35.3541 87.1829 26.3033 -0.29747 -0.763805 -0.572812
-36.5398 87.495 26.5259 -0.327541 -0.738097 -0.589856
-37.4875 87.686 26.6692 -0.154204 -0.812997 -0.561477
-38.4305 87.8302 26.77 -0.223573 -0.804275 -0.550596
-39.7871 88.0853 26.9484 -0.204394 -0.788802 -0.579668
-41.1887 88.1929 27.0272 -0.0997541 -0.827646 -0.552315
-42.1599 88.2454 27.07 -0.0515064 -0.878681 -0.474622
-43.3527 88.2915 27.1202 -0.023934 -0.876399 -0.480991
-44.6439 88.275 27.1476 0.00515449 -0.885857 -0.46393
-45.5696 88.1611 27.1208 0.125494 -0.902671 -0.411627
-46.5004 88.0649 27.1029 0.0813062 -0.903918 -0.419907
-47.4813 87.928 27.0517 0.221825 -0.860734 -0.458182
-48.7633 87.5879 26.9097 0.317912 -0.845022 -0.429965
-49.6388 87.3209 26.7953 0.324698 -0.825498 -0.461653
-50.6055 86.9949 26.6581 0.359232 -0.819317 -0.446846
-51.5019 86.6227 26.4848 0.490293 -0.741518 -0.458
-52.29 86.2076 26.2898 0.529352 -0.745361 -0.405246
-53.0828 85.7469 26.09 0.617183 -0.665608 -0.419585
-54.1702 84.9111 25.6824 0.659364 -0.610485 -0.438802
-54.8152 84.3548 25.3911 0.694172 -0.572817 -0.435896
-55.6192 83.621 24.9879 0.733374 -0.557946 -0.388405
-56.339 82.9145 24.6017 0.766787 -0.535761 -0.353551
-56.8581 82.3523 24.3106 0.771375 -0.529082 -0.353626
-57.1123 82.6161 23.3031 0.791043 -0.519358 -0.323293
-56.2767 83.5613 23.7629 0.766053 -0.510095 -0.391109
-55.5041 84.3521 24.1921 0.742245 -0.536236 -0.401899
-54.5226 85.2459 24.6494 0.676263 -0.601277 -0.425599
-53.7171 85.9 24.9707 0.586244 -0.689317 -0.425629
-52.5392 86.5789 25.2418 0.527173 -0.752844 -0.394099
-51.2875 87.2497 25.523 0.487159 -0.796759 -0.357563
-50.2471 87.6619 25.6892 0.374661 -0.833859 -0.40535
-49.2238 87.9946 25.8197 0.295651 -0.849526 -0.436916
-48.0128 88.2918 25.93 0.211271 -0.889957 -0.404154
-46.5012 88.5533 26.0106 0.115605 -0.91868 -0.377706
-45.0591 88.7229 26.0502 0.129283 -0.900895 -0.414337
-43.9912 88.8273 26.0706 -0.0118978 -0.900466 -0.434763
-43.0494 88.804 26.0468 -0.0307012 -0.908484 -0.416791
-41.987 88.7822 26.0232 -0.0220247 -0.908423 -0.417472
-40.8408 88.7588 25.992 -0.0726729 -0.872752 -0.482725
-39.751 88.647 25.9122 -0.132792 -0.871905 -0.471326
-38.6972 88.4844 25.8089 -0.196216 -0.852923 -0.483758
-37.6114 88.332 25.7158 -0.163138 -0.837073 -0.522202
-36.4935 88.1386 25.5947 -0.30281 -0.777089 -0.55176
-35.5728 87.9081 25.4479 -0.290584 -0.767951 -0.5708
-34.8336 87.7122 25.3256 -0.327697 -0.774746 -0.540725
-34.3597 88.1505 24.3106 -0.299681 -0.852451 -0.42839
-35.2957 88.4066 24.4441 -0.286345 -0.873078 -0.39464
-36.4608 88.6852 24.5911 -0.233802 -0.870035 -0.434023
-37.3925 88.8773 24.6919 -0.217141 -0.885402 -0.410991
-38.4051 89.0126 24.765 -0.112109 -0.916598 -0.383769
-39.4333 89.1058 24.8229 -0.0912871 -0.921552 -0.37737
-40.3846 89.1886 24.8771 -0.0950849 -0.927929 -0.360424
-41.5965 89.273 24.9373 -0.0498394 -0.920698 -0.387079
-42.9561 89.2925 24.9649 -0.0211416 -0.910988 -0.411892
-43.8905 89.2908 24.9715 0.0657138 -0.933456 -0.35262
-45.1192 89.1746 24.94 0.106243 -0.914917 -0.38941
-46.04 89.1004 24.9256 0.105034 -0.905709 -0.410682
-46.9728 88.98 24.8941 0.151556 -0.904148 -0.399434
-48.1134 88.7815 24.8387 0.178914 -0.905659 -0.384412
-49.4192 88.4518 24.7384 0.308533 -0.898969 -0.310905
-50.6662 87.9955 24.583 0.404945 -0.838317 -0.365025
-51.7581 87.4877 24.4008 0.451161 -0.789629 -0.41586
-53.0178 86.8318 24.1353 0.567731 -0.701795 -0.430309
-53.8817 86.289 23.9233 0.642551 -0.698624 -0.314726
-54.8517 85.5086 23.5847 0.691045 -0.63295 -0.349042
-55.8828 84.6113 23.1469 0.720026 -0.584268 -0.374424
-56.4654 83.9665 22.8188 0.788363 -0.504144 -0.352594
-57.3272 82.94 22.3383 0.795094 -0.494187 -0.351576
-57.3781 82.8788 22.3092 0.805151 -0.490383 -0.33355
-57.6119 83.1174 21.3321 0.813654 -0.493563 -0.307186
-56.8597 84.0603 21.747 0.788883 -0.526372 -0.317167
-56.2105 84.821 22.0808 0.785113 -0.528017 -0.323721
-55.3139 85.7 22.4835 0.674902 -0.615116 -0.407603
-54.193 86.5917 22.8709 0.629117 -0.651194 -0.424449
-53.4378 87.1027 23.0569 0.568544 -0.728298 -0.382544
-52.2252 87.7855 23.3008 0.443799 -0.844216 -0.30057
-51.0262 88.309 23.4697 0.426808 -0.833537 -0.350785
-49.9295 88.7101 23.5947 0.269811 -0.896021 -0.352632
-48.4979 89.0972 23.6967 0.267424 -0.907274 -0.32456
-47.1631 89.3933 23.7757 0.170099 -0.939056 -0.298731
-46.2658 89.533 23.806 0.118405 -0.958517 -0.259279
-45.0701 89.6215 23.8242 0.0602865 -0.944726 -0.32227
-44.1129 89.6832 23.8404 0.0627761 -0.942375 -0.328615
-42.9552 89.7255 23.8448 0.0171189 -0.949007 -0.314789
-42.0351 89.7072 23.8307 -0.0271053 -0.938435 -0.34439
-40.6275 89.6412 23.7857 -0.0865613 -0.924721 -0.370672
-39.693 89.5681 23.7464 -0.0898897 -0.924195 -0.371192
-38.6184 89.4763 23.6972 -0.113669 -0.924463 -0.363933
-37.411 89.3397 23.6332 -0.124287 -0.921104 -0.368946
-36.4138 89.1281 23.5383 -0.226449 -0.904917 -0.360343
-35.0442 88.7898 23.3814 -0.264563 -0.894727 -0.35982
-34.1189 88.5646 23.2724 -0.277175 -0.897675 -0.34257
-33.8779 88.497 23.2415 -0.311053 -0.889554 -0.334574
-33.5765 88.7937 22.1604 -0.286153 -0.895046 -0.342065
-34.5976 89.0822 22.2873 -0.252886 -0.913611 -0.318377
-35.9082 89.3746 22.411 -0.248064 -0.932296 -0.263228
-36.8784 89.567 22.49 -0.197689 -0.944361 -0.262874
-37.8602 89.7344 22.5565 -0.164401 -0.951893 -0.258598
-39.1377 89.8997 22.6219 -0.0714338 -0.964069 -0.255867
-40.523 89.9788 22.6598 -0.0824046 -0.973292 -0.214273
-41.442 90.0265 22.6811 -0.0257115 -0.976146 -0.215587
-42.6765 90.0551 22.6979 -0.0253185 -0.976199 -0.215395
-44.0091 90.0104 22.6963 0.0607157 -0.97983 -0.190387
-44.974 89.9609 22.6864 0.0359167 -0.979611 -0.197668
-46.0177 89.8732 22.6675 0.120703 -0.961319 -0.247582
-47.2161 89.7288 22.6435 0.153866 -0.971823 -0.178566
-48.3595 89.4909 22.5913 0.223067 -0.950285 -0.217253
-49.3305 89.2656 22.5325 0.251581 -0.929215 -0.270678
-50.3941 88.9529 22.4461 0.295819 -0.91276 -0.28171
-51.4561 88.5374 22.3249 0.427717 -0.84782 -0.313463
-52.7627 87.9288 22.1457 0.443799 -0.837728 -0.318206
-54.0683 87.1747 21.9012 0.559143 -0.755835 -0.340695
-54.9649 86.5444 21.6725 0.656631 -0.671881 -0.342653
-55.6509 85.9308 21.4197 0.749067 -0.580323 -0.319569
-56.3522 85.1992 21.1118 0.764895 -0.557285 -0.323062
-56.9339 84.4895 20.8327 0.792606 -0.524696 -0.310594
-57.5598 83.7119 20.515 0.814692 -0.493147 -0.305095
-57.8279 83.3631 20.3604 0.815724 -0.49273 -0.303004
-58.1746 83.4315 19.3093 0.821115 -0.492599 -0.2883
-57.5981 84.1821 19.6232 0.793137 -0.530693 -0.298829
-56.7795 85.1875 20.0079 0.790509 -0.53391 -0.300059
-56.1704 85.9364 20.2706 0.764896 -0.557286 -0.323058
-55.4347 86.6347 20.5297 0.66727 -0.681019 -0.301603
-54.5674 87.3234 20.7658 0.618826 -0.72844 -0.293989
-53.6502 87.8415 20.9245 0.503285 -0.823499 -0.261827
-52.3458 88.479 21.1005 0.416016 -0.886238 -0.203746
-51.2039 88.9791 21.2338 0.370194 -0.90415 -0.213234
-50.0418 89.3768 21.3349 0.311921 -0.922199 -0.228591
-49.0147 89.6135 21.3978 0.222765 -0.948555 -0.224989
-47.9544 89.815 21.4491 0.165227 -0.962668 -0.214406
-47.0417 89.969 21.4864 0.153866 -0.971823 -0.178566
-45.5916 90.181 21.5244 0.0857339 -0.984431 -0.153442
-44.3879 90.2135 21.5288 0.0284895 -0.987102 -0.157539
-43.0456 90.2993 21.5397 0.0646588 -0.981102 -0.182367
-42.0294 90.2871 21.532 -0.0418004 -0.986036 -0.161199
-41.0038 90.2393 21.5142 -0.0604898 -0.980769 -0.185559
-39.7203 90.1509 21.488 -0.0697195 -0.984486 -0.161017
-38.7758 90.1012 21.4669 -0.0851518 -0.987188 -0.134938
-37.7359 89.9746 21.4273 -0.1495 -0.964791 -0.216398
-36.5673 89.8032 21.3641 -0.209076 -0.943087 -0.258599
-35.4447 89.5883 21.2823 -0.200561 -0.939929 -0.276241
-34.4354 89.3884 21.2037 -0.215165 -0.937849 -0.272294
-33.2219 89.0849 21.0835 -0.274768 -0.918003 -0.285958
-32.9958 89.3689 20.0104 -0.256904 -0.916715 -0.305998
-34.2189 89.6294 20.1052 -0.213937 -0.955777 -0.201795
-35.354 89.8424 20.1773 -0.171876 -0.970319 -0.170115
-36.4775 90.042 20.248 -0.147955 -0.977885 -0.147816
-37.8446 90.1877 20.299 -0.0938329 -0.985047 -0.144489
-39.1216 90.2923 20.3272 -0.0898021 -0.985265 -0.145566
-40.3239 90.4051 20.3476 -0.0786981 -0.988386 -0.129997
-41.7103 90.4218 20.3552 -0.0346859 -0.990782 -0.130947
-42.9061 90.4758 20.3654 -0.00527385 -0.9966 -0.0822248
-44.1533 90.4103 20.3486 0.0557626 -0.986326 -0.155086
-45.5123 90.3723 20.3304 0.0284938 -0.987101 -0.157542
-46.7713 90.1925 20.2924 0.146852 -0.978351 -0.145821
-47.9583 90.0402 20.2517 0.123833 -0.981811 -0.14392
-49.0555 89.8607 20.2106 0.284278 -0.947086 -0.149042
-49.922 89.6085 20.1601 0.284307 -0.947056 -0.14918
-50.8722 89.314 20.0941 0.348001 -0.924226 -0.157167
-52.0519 88.8581 19.9858 0.359599 -0.915362 -0.18111
-53.3415 88.2902 19.8384 0.422442 -0.887871 -0.182287
-54.3138 87.8832 19.7326 0.438407 -0.862754 -0.251903
-55.3381 87.1546 19.5346 0.576859 -0.807961 -0.120132
-56.0292 86.4279 19.3109 0.746001 -0.643018 -0.173233
-56.6208 85.7516 19.1023 0.748945 -0.621976 -0.228534
-57.4926 84.7604 18.75 0.788875 -0.569276 -0.23152
-58.1548 83.9255 18.4409 0.823873 -0.516533 -0.233296
-58.3571 83.6495 18.3373 0.823873 -0.516533 -0.233296
-58.3197 84.1 17.4513 0.828047 -0.528482 -0.187204
-57.7371 84.8388 17.687 0.788432 -0.581691 -0.200025
-57.038 85.6803 17.9501 0.762586 -0.608536 -0.219423
-56.3999 86.3705 18.1741 0.717491 -0.653983 -0.239818
-55.4704 87.2736 18.4146 0.649678 -0.74483 -0.152145
-54.5162 87.8873 18.5535 0.576859 -0.807962 -0.120132
-53.6415 88.3682 18.6552 0.485456 -0.853478 -0.189491
-52.6861 88.8391 18.767 0.433257 -0.879807 -0.195523
-51.7819 89.2316 18.8538 0.325271 -0.928332 -0.179997
-50.8724 89.5109 18.9151 0.299358 -0.943431 -0.14256
-49.7829 89.8352 18.9838 0.286884 -0.946855 -0.145474
-48.834 90.0712 19.0328 0.211933 -0.970189 -0.117547
-47.779 90.23 19.0715 0.0984022 -0.988887 -0.111445
-46.7061 90.3584 19.1083 0.147828 -0.982579 -0.11263
-45.7143 90.4549 19.1421 0.0357376 -0.996684 -0.0731032
-44.5891 90.5042 19.1644 0.0490698 -0.997332 -0.0540403
-43.4745 90.5504 19.1814 0.0361284 -0.997859 -0.0545177
-42.241 90.5555 19.1916 -0.0269211 -0.995482 -0.0910525
-41.1565 90.5499 19.1942 0.0267025 -0.99608 -0.0843319
-40.0443 90.5181 19.1898 -0.0604044 -0.996891 -0.0505993
-38.4878 90.4039 19.1698 -0.091174 -0.986855 -0.133434
-37.3377 90.2929 19.1426 -0.113854 -0.984141 -0.13603
-36.1169 90.1629 19.104 -0.104382 -0.980524 -0.166367
-34.8735 89.9913 19.0477 -0.154078 -0.961415 -0.227907
-33.6877 89.8002 18.9853 -0.15331 -0.957157 -0.245654
-32.7697 89.6316 18.9241 -0.205173 -0.933494 -0.294097
-32.9611 90.0083 17.8739 -0.125065 -0.947056 -0.295708
-33.893 90.1232 17.9123 -0.134674 -0.957968 -0.253298
-35.3695 90.2752 17.9621 -0.0985674 -0.972425 -0.211364
-36.5629 90.397 17.9959 -0.0864565 -0.985755 -0.144262
-37.5078 90.4645 18.0125 -0.0728543 -0.98992 -0.12145
-38.4075 90.5038 18.0221 -0.0580451 -0.993384 -0.0990893
-39.3742 90.5554 18.0333 -0.0378069 -0.996928 -0.0685874
-40.8157 90.5954 18.0365 -0.017913 -0.999491 -0.0264097
-41.9131 90.6086 18.0259 -0.00324492 -0.999695 -0.024482
-43.3419 90.5986 18.0091 0.0166794 -0.999391 -0.0306637
-44.6355 90.5674 17.9879 0.0356902 -0.998774 -0.0343169
-45.8556 90.5156 17.9561 0.0676599 -0.99687 -0.0408874
-47.2699 90.3858 17.9079 0.0912631 -0.994421 -0.0528996
-48.2038 90.297 17.8781 0.104414 -0.992044 -0.0703254
-49.4864 90.0443 17.82 0.226835 -0.970263 -0.0844773
-50.5106 89.7732 17.7542 0.276819 -0.958194 -0.0723644
