-48.1193 78.4269 40.9108 0.0552523 -0.887523 -0.457439
-49.465 78.2322 41.0625 0.0966377 -0.877992 -0.468818
-50.3976 78.1332 40.937 0.17151 -0.886671 -0.429417
-51.7356 78.1387 40.3805 0.179394 -0.898381 -0.400183
-52.6535 78.2002 39.7983 0.242451 -0.890446 -0.385126
-53.449 78.2965 39.1055 0.259448 -0.853094 -0.451055
-54.4236 78.3314 38.2502 0.345584 -0.84612 -0.405643
-55.1142 78.3634 37.5262 0.379014 -0.840194 -0.387843
-55.9668 78.5067 36.3132 0.437269 -0.818354 -0.37295
-56.4434 78.6406 35.4674 0.486838 -0.796432 -0.358727
-57.0237 78.7364 34.5299 0.515029 -0.772222 -0.369824
-57.4302 78.8007 33.6962 0.589127 -0.728253 -0.350112
-57.6917 78.9906 32.8297 0.60531 -0.730704 -0.315707
-57.9275 79.3396 31.619 0.635166 -0.70745 -0.306995
-58.0084 79.6365 30.6365 0.675633 -0.670025 -0.302272
-58.0594 80.082 29.5548 0.712068 -0.645549 -0.27609
-58.0814 80.5733 28.4501 0.757377 -0.591532 -0.274984
-58.0548 80.997 27.5693 0.772727 -0.571717 -0.274935
-58.1478 81.5055 26.4121 0.786866 -0.529271 -0.317266
-58.2896 82.041 25.1985 0.793803 -0.509195 -0.331888
-58.4649 82.4999 24.0556 0.828743 -0.464427 -0.312239
-58.6585 82.7708 23.1918 0.825385 -0.456231 -0.332556
-58.9557 83.2262 21.8166 0.849245 -0.420877 -0.31882
-59.1411 83.5979 20.8389 0.848484 -0.417948 -0.324644
-59.3537 83.9541 19.8003 0.863865 -0.41601 -0.28283
-59.6159 84.1586 18.5921 0.863793 -0.430293 -0.262113
-59.7646 84.2977 17.6832 0.848575 -0.48534 -0.21063
-59.8437 84.6078 16.5903 0.839519 -0.512235 -0.181171
-59.8411 84.9286 15.737 0.853563 -0.500716 -0.128532
-59.5221 85.5855 14.7193 0.827901 -0.55698 -0.051056
-59.1468 86.1395 13.8936 0.807597 -0.589178 -0.0214674
-58.7814 86.5676 13.1619 0.770606 -0.636165 0.0382216
-58.2756 87.0311 12.1226 0.703567 -0.705782 0.0771301
-57.6616 87.4746 10.9998 0.643675 -0.755049 0.124833
-57.0219 87.7911 10.0662 0.557917 -0.81095 0.176321
-56.2528 88.1139 9.11883 0.557699 -0.811009 0.176738
-55.6019 88.384 8.4348 0.524323 -0.821541 0.223956
-54.9856 88.605 7.80542 0.489815 -0.844216 0.217619
-54.3343 88.792 6.99389 0.486452 -0.851995 0.193572
-54.334 88.7921 6.99347 0.494942 -0.850836 0.175216
-54.9885 88.3043 6.44811 0.504945 -0.849318 0.153878
-55.6786 88.0442 7.18375 0.507493 -0.839978 0.192007
-56.594 87.706 8.32345 0.556574 -0.811134 0.179656
-57.5381 87.2465 9.41137 0.606622 -0.776567 0.169519
-58.1203 86.9513 10.2076 0.643926 -0.754641 0.126002
-58.5405 86.7003 10.9848 0.685808 -0.722452 0.079663
-59.1405 86.1769 12.3092 0.710249 -0.703591 0.0136368
-59.5906 85.6563 13.1379 0.790346 -0.604289 -0.100936
-59.877 85.161 13.8604 0.787847 -0.607367 -0.101913
-60.2243 84.5023 14.7374 0.828805 -0.552522 -0.0883263
-60.4462 84.0278 15.4437 0.838919 -0.512839 -0.182237
-60.4158 83.7518 16.3603 0.833735 -0.522203 -0.179068
-60.3558 83.4891 17.2283 0.825613 -0.519766 -0.219558
-60.1052 83.2951 18.4598 0.810317 -0.516688 -0.276442
-59.867 83.1893 19.3558 0.836498 -0.474066 -0.27017
-59.6453 82.8582 20.4541 0.845437 -0.439277 -0.303763
-59.4771 82.4929 21.3783 0.848089 -0.416734 -0.327082
-59.3545 82.0668 22.2536 0.855107 -0.416068 -0.309095
-59.066 81.8497 23.389 0.852015 -0.433838 -0.29259
-58.8981 81.5451 24.3603 0.819529 -0.483943 -0.306875
-58.7802 81.0726 25.4473 0.822736 -0.489053 -0.289713
-58.7077 80.6884 26.4172 0.792326 -0.54784 -0.268373
-58.6984 80.2394 27.334 0.773214 -0.579564 -0.253872
-58.7401 79.73 28.4432 0.754841 -0.606204 -0.250466
-58.7331 79.2728 29.6296 0.735827 -0.62365 -0.263853
-58.7373 78.9777 30.5496 0.671049 -0.692815 -0.264008
-58.6248 78.6043 31.906 0.63598 -0.720647 -0.272129
-58.4311 78.3585 32.8488 0.608291 -0.736037 -0.29586
-58.1106 78.131 34.0633 0.573573 -0.755735 -0.316035
-57.6539 78.0783 35.0045 0.50899 -0.802291 -0.311862
-57.0764 78.0292 35.9956 0.468214 -0.812338 -0.347683
-56.3639 77.9268 37.189 0.404934 -0.845203 -0.348798
-55.7751 77.8956 38.0104 0.330204 -0.878823 -0.344434
-54.7718 77.8657 39.0905 0.311821 -0.89053 -0.330203
-54.04 77.8556 39.768 0.268167 -0.900294 -0.338548
-53.3651 77.7758 40.3699 0.228457 -0.908969 -0.347621
-52.5322 77.7631 40.9456 0.152326 -0.923228 -0.35277
-51.6419 77.7188 41.446 0.155862 -0.931443 -0.327741
-50.4052 77.7353 41.8873 0.1335 -0.92886 -0.345539
-49.4509 77.7854 42.003 0.0954935 -0.918216 -0.384396
-48.5543 77.8842 41.9637 0.0384667 -0.91344 -0.405139
-47.5646 78.04 41.714 0.0454937 -0.899194 -0.433983
-46.5211 78.2002 41.3706 -0.0615681 -0.906529 -0.413235
-45.5807 78.2528 41.0556 -0.101308 -0.848713 -0.519059
-44.8316 78.462 40.5718 -0.0981143 -0.847701 -0.521322
-44.1074 78.7343 39.8809 -0.223043 -0.811762 -0.539634
-43.3452 78.8949 39.3399 -0.226958 -0.780296 -0.581005
-42.6945 79.1386 38.7677 -0.279444 -0.730794 -0.622776
-42.0261 79.6581 37.888 -0.282481 -0.703859 -0.651757
-41.4945 80.2489 37.0319 -0.281283 -0.693957 -0.6628
-40.8832 80.9839 35.9961 -0.305017 -0.67131 -0.675505
-40.4589 81.4197 35.3143 -0.369177 -0.639678 -0.672407
-40.0801 81.9341 34.6695 -0.378132 -0.60251 -0.70285
-39.7197 82.4856 34.0466 -0.341541 -0.580727 -0.73899
-39.0819 83.1871 33.2058 -0.332633 -0.580968 -0.742851
-38.4017 83.892 32.3768 -0.311569 -0.558033 -0.769106
-37.6057 84.3409 31.7503 -0.280798 -0.571345 -0.771179
-36.9635 84.7269 31.2223 -0.293373 -0.581465 -0.758835
-36.3131 85.1901 30.6143 -0.295026 -0.576228 -0.762155
-35.6588 85.7256 29.9629 -0.301735 -0.583346 -0.75391
-34.8853 86.5901 29.0034 -0.223156 -0.640028 -0.732117
-34.4125 87.0616 28.3739 -0.230529 -0.691023 -0.68507
-33.7461 87.5751 27.5523 -0.26162 -0.718868 -0.643989
-33.2462 88.0454 26.7481 -0.29282 -0.76584 -0.570584
-32.6368 88.3934 25.8774 -0.326498 -0.778437 -0.536129
-32.2261 88.71 24.9975 -0.373192 -0.825132 -0.424128
-31.8622 88.9952 24.1093 -0.378005 -0.837503 -0.394589
-31.4778 89.2504 23.2336 -0.321458 -0.863636 -0.384638
-30.9777 89.6132 21.8159 -0.306501 -0.893248 -0.328535
-30.7854 89.8508 20.9569 -0.301398 -0.900107 -0.314582
-30.5299 90.1185 19.9571 -0.273677 -0.902953 -0.330018
-30.4541 90.418 19.0968 -0.247247 -0.910042 -0.332706
-30.4635 90.7688 18.1443 -0.207165 -0.911208 -0.353206
-30.6336 91.2633 16.9266 -0.115465 -0.926581 -0.357933
-30.6312 91.6047 16.0451 -0.0787956 -0.942032 -0.321513
-30.7832 92.0992 14.6574 -0.0146541 -0.921796 -0.387399
-31.0346 92.6622 13.383 0.112013 -0.897277 -0.427021
-31.3382 93.095 12.4851 0.137758 -0.864382 -0.478739
-31.5367 93.5656 11.4464 0.191942 -0.882546 -0.429267
-31.5769 94.034 10.6771 0.333633 -0.816034 -0.465912
-31.2939 94.6953 9.54503 0.370145 -0.847029 -0.379888
-30.7 95.1925 8.95207 0.36839 -0.863609 -0.344194
-29.9867 95.6817 8.50827 0.3994 -0.864384 -0.30452
-29.0912 96.1765 8.15656 0.334215 -0.900206 -0.279159
-28.0492 96.7008 7.70403 0.330724 -0.896302 -0.295145
-27.1614 97.1146 7.44073 0.333844 -0.900166 -0.279729
-25.948 97.7463 6.865 0.34279 -0.900143 -0.268719
-24.8275 98.336 6.29799 0.338144 -0.906337 -0.253047
-23.9444 98.7948 5.83835 0.348501 -0.908558 -0.228223
-22.8011 99.2606 5.47063 0.287891 -0.935585 -0.204449
-21.7538 99.6911 4.95554 0.280314 -0.937573 -0.205869
-20.9385 100.081 4.17107 0.259392 -0.950473 -0.171223
-20.1316 100.389 3.57304 0.23114 -0.95747 -0.172703
-19.1571 100.744 2.78072 0.195852 -0.965623 -0.170706
-18.4375 101.02 1.95597 0.168228 -0.975457 -0.14207
-17.8754 101.189 1.25876 0.123049 -0.984169 -0.127498
-17.1751 101.355 0.475294 0.091513 -0.990487 -0.102771
-16.5724 101.463 -0.230051 0.0484215 -0.994536 -0.0924858
-15.7079 101.548 -0.878467 0.0163063 -0.994371 -0.103251
-14.9115 101.62 -1.55851 -0.0412057 -0.99653 -0.072321
-14.0397 101.61 -2.19584 -0.101908 -0.993786 -0.0375582
-13.2803 101.566 -2.677 -0.149803 -0.985967 -0.0476441
-12.3098 101.377 -2.84533 -0.25893 -0.961269 -0.0618902
-11 100.96 -3.24374 -0.288343 -0.954731 -0.0244134
-10.0235 100.676 -3.37697 -0.291193 -0.953395 0.079023
-8.96888 100.329 -3.37841 -0.346496 -0.935299 0.0718042
-8.04825 99.9862 -3.396 -0.33818 -0.936466 0.0907589
-6.98172 99.6868 -3.39692 -0.259184 -0.936073 0.23789
-6.06043 99.4116 -3.38591 -0.327809 -0.905709 0.268762
-5.15126 99.0959 -3.35356 -0.330327 -0.902034 0.277664
-4.14064 98.7557 -3.26113 -0.328277 -0.874061 0.352282
-3.37337 98.2953 -3.4298 -0.461269 -0.765146 0.449203
-2.89271 97.7177 -3.89939 -0.566491 -0.730339 0.381697
-3.06861 97.22 -5.11239 -0.582369 -0.728724 0.359224
-3.60789 97.205 -6.04958 -0.57025 -0.743557 0.349196
-4.26954 97.3442 -6.96872 -0.590195 -0.745383 0.309958
-4.83509 97.5751 -7.64124 -0.542596 -0.798458 0.260872
-6.05276 98.1904 -8.57518 -0.56665 -0.808401 0.158093
-6.85726 98.6092 -9.19405 -0.555724 -0.818414 0.145262
-7.81734 99.1377 -9.85335 -0.509487 -0.857443 0.0722119
-8.98408 99.8856 -10.2019 -0.586408 -0.804675 0.0822363
-9.99301 100.831 -10.6014 -0.642096 -0.742156 -0.146035
-11.1278 101.659 -10.7613 -0.533657 -0.812803 -0.225055
-11.9877 102.148 -10.7544 -0.514695 -0.807835 -0.280166
-12.8998 102.519 -10.6588 -0.349202 -0.904336 -0.245426
-13.9699 102.759 -10.309 -0.203886 -0.941555 -0.26815
-14.9846 102.838 -9.9058 -0.154309 -0.955946 -0.249713
-15.9648 102.852 -9.33813 -0.159528 -0.95665 -0.243662
-16.8039 102.828 -8.80768 -0.114574 -0.966087 -0.231408
-17.6632 102.736 -8.27783 8.71962e-05 -0.962725 -0.268259
-18.793 102.597 -7.70512 0.0139049 -0.969674 -0.244007
-19.6451 102.449 -7.17441 0.0501102 -0.980051 -0.192326
-20.8593 102.128 -6.11089 0.0891806 -0.971523 -0.219126
-21.7332 101.869 -5.38369 0.145854 -0.961839 -0.225669
-22.6686 101.57 -4.8125 0.174164 -0.961067 -0.214515
-23.4033 101.306 -4.25057 0.184373 -0.957543 -0.221469
-24.1261 101.029 -3.68973 0.196473 -0.952033 -0.234553
-25.2828 100.53 -2.84929 0.256457 -0.934831 -0.245525
-26.0093 100.191 -2.30784 0.260441 -0.934264 -0.243557
-26.6594 99.8423 -1.6672 0.265174 -0.931619 -0.248448
-27.5533 99.3684 -0.898093 0.280978 -0.92644 -0.250465
-28.5258 98.8646 -0.0973613 0.271271 -0.929443 -0.250017
-29.5528 98.3524 0.675853 0.267276 -0.927753 -0.260459
-30.4967 97.6947 1.86114 0.297882 -0.911392 -0.283939
-31.1822 97.238 2.58262 0.310736 -0.906016 -0.287365
-31.7798 96.8382 3.17212 0.320803 -0.900619 -0.293209
-32.3941 96.4035 3.84056 0.316891 -0.898432 -0.303973
-33.1967 95.8361 4.70059 0.309218 -0.898436 -0.311594
-33.7745 95.4088 5.33927 0.302376 -0.899133 -0.316432
-34.253 94.9614 6.15123 0.303471 -0.902006 -0.306866
-34.8963 94.5064 6.92562 0.242184 -0.915836 -0.319227
-35.7121 94.1264 7.33773 0.257246 -0.904227 -0.34077
-36.7104 93.8388 7.33932 0.254961 -0.911488 -0.322775
-37.7797 93.6056 7.13364 0.263715 -0.908926 -0.322967
-38.6768 93.4788 6.71359 0.233042 -0.92879 -0.288168
-39.8598 93.3891 6.00534 0.251939 -0.931529 -0.262099
-40.6382 93.3436 5.38946 0.260827 -0.929437 -0.260992
-41.7045 93.3898 4.10672 0.281087 -0.925521 -0.253773
-42.1904 93.5179 3.15282 0.307291 -0.915947 -0.258094
-42.5194 93.7203 2.0834 0.304778 -0.912124 -0.274118
-42.7416 93.9748 0.982004 0.302986 -0.913698 -0.270842
-42.6646 94.309 -0.137034 0.29894 -0.923868 -0.238961
-42.5823 94.5555 -1.1259 0.239487 -0.945879 -0.218997
-42.3148 94.8036 -2.09625 0.207532 -0.967675 -0.143303
-41.9154 94.9802 -3.03662 0.0966866 -0.985309 -0.132951
-41.5731 95.1701 -3.96026 0.081155 -0.979722 -0.182867
-41.156 95.4159 -5.14061 0.104619 -0.982248 -0.155704
-40.7928 95.5506 -5.97742 0.0550048 -0.984823 -0.157336
-40.3308 95.7676 -7.06208 0.0162579 -0.988277 -0.151802
-40.0185 95.9151 -8.00031 0.0111055 -0.988896 -0.148185
-39.5934 96.0781 -9.06933 0.0206829 -0.988546 -0.149149
-39.2916 96.2148 -10.2222 0.0294595 -0.996135 -0.069411
-38.9143 96.2903 -11.2889 -0.0182245 -0.997222 -0.0712621
-38.5303 96.3657 -12.5867 -0.0291332 -0.997333 -0.0669192
-38.1898 96.3852 -13.7676 -0.0766504 -0.996513 -0.0329526
-37.9553 96.4285 -14.6363 -0.00231911 -0.99951 0.0312078
-37.7185 96.3808 -15.7075 -0.0326275 -0.997649 0.060179
-37.4999 96.2307 -17.3838 -0.0545933 -0.991852 0.114516
-37.4485 96.0834 -18.6249 -0.0270598 -0.985116 0.157894
-37.3428 95.8855 -19.5039 -0.0173089 -0.974848 0.222129
-37.3022 95.6663 -20.3961 0.0339608 -0.935367 0.352043
-37.3548 95.0913 -21.91 0.0442177 -0.925438 0.375473
-37.4271 94.7264 -22.7472 0.0504764 -0.91078 0.409413
-37.5516 94.2893 -23.5802 0.078589 -0.880504 0.46748
-37.7004 93.8086 -24.3665 0.0790144 -0.844031 0.530442
-38.0277 93.1588 -25.2914 0.0828184 -0.813095 0.57621
-38.4428 92.5978 -25.983 0.123076 -0.765184 0.631097
-38.8779 91.9726 -26.6843 0.106512 -0.750263 0.651662
-39.5524 91.3454 -27.2449 0.130278 -0.730692 0.670109
-40.4247 90.6657 -27.8008 0.131679 -0.713457 0.687935
-41.23 90.1313 -28.1948 0.104586 -0.691064 0.715187
-42.2935 89.64 -28.5166 0.100426 -0.691929 0.714946
-43.3406 89.4973 -28.5035 0.0924093 -0.682909 0.724509
-44.5928 89.6453 -28.2526 0.0810243 -0.669046 0.738589
-45.2789 90.3226 -27.5588 0.0492582 -0.691336 0.720852
-45.3232 90.9959 -26.9126 0.0429682 -0.695331 0.717356
-45.2754 91.9188 -26.0065 0.046623 -0.699731 0.712854
-45.2741 92.7484 -25.2243 0.112874 -0.681743 0.722832
-45.1816 93.5366 -24.6477 -0.157456 -0.667999 0.727313
-45.1569 94.2105 -24.0252 -0.204033 -0.748395 0.63109
-45.4534 95.2102 -22.9481 -0.235231 -0.780273 0.574559
-45.8348 95.7591 -22.1764 -0.196321 -0.880766 0.430941
-46.2634 96.3241 -21.4377 -0.342316 -0.857525 0.37134
-47.1726 96.9781 -20.316 -0.267289 -0.9366 0.215693
-48.1792 97.4051 -19.1103 -0.206255 -0.969337 0.133333
-48.7319 97.6449 -18.1572 -0.19695 -0.972683 0.122568
-49.0216 97.8429 -16.9731 -0.218572 -0.969871 0.10759
-48.8962 97.7978 -15.531 -0.203511 -0.978062 -0.0438553
-48.6929 97.6015 -13.8534 -0.191904 -0.972634 -0.130936
-48.5739 97.331 -12.3841 -0.164866 -0.967365 -0.190754
-48.3197 97.0235 -10.9722 -0.148123 -0.970064 -0.192445
-48.1866 96.7886 -10.0515 -0.134363 -0.963582 -0.231165
-48.1289 96.5572 -9.18675 -0.117177 -0.942863 -0.311897
-47.9387 96.231 -8.2719 -0.102087 -0.948557 -0.298983
-47.8623 95.8535 -7.19843 -0.0617932 -0.935172 -0.347945
-47.6785 95.4326 -6.09591 -0.00704881 -0.937155 -0.348841
-47.5858 94.9672 -4.97234 0.0227533 -0.930134 -0.363785
-47.5769 94.5863 -4.05003 0.0721729 -0.921259 -0.382195
-47.5502 94.0707 -2.88867 0.177026 -0.904878 -0.387115
-47.5947 93.6702 -1.99771 0.205864 -0.889166 -0.407427
-47.7763 93.2439 -1.09494 0.222815 -0.895843 -0.384422
-47.996 92.8037 -0.197659 0.228728 -0.89632 -0.37986
-48.539 92.2724 0.585309 0.285422 -0.874144 -0.392946
-49.2095 91.7189 1.11895 0.439643 -0.802934 -0.393703
-49.8305 91.1783 1.57044 0.490575 -0.834678 -0.250296
-50.5655 90.6065 1.98249 0.528619 -0.842405 -0.104479
-51.2997 90.1344 2.4143 0.482239 -0.874268 -0.055269
-52.0598 89.6548 3.24867 0.523269 -0.850235 -0.0343654
-52.7734 89.2436 3.88819 0.513806 -0.85526 0.0673341
-53.4616 88.8971 4.60818 0.484992 -0.867933 0.105302
-54.1173 88.6281 5.25409 0.492078 -0.862098 0.119989
-54.8777 88.3416 6.29449 0.50255 -0.850379 0.155881
-32.7277 94.852 7.8391 0.301625 -0.887709 -0.347842
-32.01 95.2502 7.46406 0.333252 -0.879904 -0.338563
-31.374 95.6701 7.00972 0.342455 -0.880824 -0.326915
-30.5957 96.1262 6.54916 0.325913 -0.891997 -0.313244
-29.4589 96.7163 6.04899 0.327316 -0.89793 -0.294254
-28.6003 97.1316 5.72535 0.312761 -0.905701 -0.28615
-27.5429 97.591 5.43432 0.317392 -0.905685 -0.281008
-26.6554 98.0006 5.11481 0.324277 -0.909213 -0.261105
-25.4269 98.6096 4.45352 0.308427 -0.918012 -0.249253
-24.6007 99.0089 4.01935 0.308247 -0.924209 -0.225308
-23.3865 99.5325 3.49566 0.29269 -0.930539 -0.21967
-22.6464 99.8506 3.01969 0.268482 -0.942127 -0.200785
-21.6822 100.27 2.26117 0.230915 -0.950491 -0.207954
-20.9548 100.56 1.70181 0.213216 -0.958972 -0.186794
-20.0056 100.93 0.777136 0.193446 -0.96763 -0.162083
-19.4026 101.147 0.0671004 0.157081 -0.975911 -0.151404
-18.6888 101.373 -0.772609 0.0998167 -0.984752 -0.14248
-17.9575 101.531 -1.54845 0.0606114 -0.991471 -0.115372
-17.2654 101.665 -2.22048 0.0295665 -0.990477 -0.134469
-16.2538 101.828 -3.15137 0.0034969 -0.990081 -0.136981
-15.2994 101.895 -3.86252 -0.0284832 -0.992288 -0.120302
-14.4482 101.856 -4.31924 -0.13158 -0.984737 -0.113931
-13.6052 101.756 -4.62001 -0.195285 -0.976978 -0.0858922
-12.5682 101.564 -4.85675 -0.247172 -0.965902 -0.0566345
-11.31 101.164 -5.1009 -0.338353 -0.940525 -0.0304854
-10.2245 100.734 -5.2688 -0.396647 -0.917581 0.00458661
-9.34593 100.355 -5.30389 -0.439282 -0.897183 0.045756
-8.48724 99.9606 -5.28271 -0.355837 -0.930018 0.0912449
-7.50059 99.5586 -5.27533 -0.375389 -0.91974 0.111884
-6.66601 99.216 -5.28492 -0.385123 -0.911988 0.141274
-5.73916 98.7904 -5.29185 -0.442769 -0.860512 0.246872
-5.40052 98.5157 -5.68466 -0.465118 -0.86193 0.201847
-6.19426 98.731 -6.5521 -0.450403 -0.867551 0.210884
-7.02029 99.0639 -7.09203 -0.472644 -0.865616 0.161024
-7.99715 99.481 -7.75263 -0.492832 -0.862132 0.117665
-8.81446 99.913 -8.17223 -0.547504 -0.835459 0.0445724
-9.83555 100.54 -8.5493 -0.526278 -0.849712 0.0239787
-10.6504 101.046 -8.73525 -0.520657 -0.848819 -0.0917798
-11.5586 101.527 -8.78547 -0.431104 -0.898656 -0.0810308
-12.5974 101.907 -8.62612 -0.276858 -0.942768 -0.168884
-13.8226 102.226 -8.26133 -0.247722 -0.940827 -0.221547
-14.7027 102.311 -7.89354 -0.180986 -0.970946 -0.156551
-15.6007 102.381 -7.40121 -0.093154 -0.98058 -0.172584
-16.6801 102.359 -6.69453 -0.0602813 -0.981839 -0.176906
-17.8605 102.257 -5.95608 -0.0297709 -0.984506 -0.172649
-19.0132 102.057 -5.10092 0.0537782 -0.982857 -0.176306
-19.7817 101.869 -4.38176 0.0737676 -0.980778 -0.180645
-20.7209 101.628 -3.63859 0.145741 -0.96952 -0.196955
-21.7683 101.342 -3.02975 0.168335 -0.963492 -0.207577
-22.4845 101.096 -2.52288 0.184128 -0.961044 -0.206133
-23.3507 100.766 -1.87011 0.200616 -0.952282 -0.230027
-24.4223 100.306 -1.06086 0.250907 -0.938794 -0.236032
-25.0916 99.9777 -0.470446 0.266018 -0.934986 -0.234564
-25.8306 99.5955 0.220317 0.275247 -0.931527 -0.237452
-26.6368 99.1771 0.877254 0.286523 -0.926105 -0.245387
-27.5245 98.7076 1.57337 0.290304 -0.922587 -0.254081
-28.3249 98.2421 2.34289 0.289169 -0.919994 -0.264561
-28.8786 97.8534 3.07279 0.295395 -0.915986 -0.271476
-29.6979 97.2882 4.04223 0.310361 -0.905999 -0.287822
-30.5103 96.7467 4.83275 0.322025 -0.897984 -0.299845
-31.254 96.2539 5.48964 0.326665 -0.893525 -0.308062
-32.0994 95.5887 6.4827 0.325145 -0.884239 -0.335266
-32.4579 95.1633 7.2787 0.302957 -0.892243 -0.334543
-32.5536 94.966 7.69918 0.301626 -0.88771 -0.347841
-33.956 93.555 10.1097 0.231892 -0.904842 -0.357052
-35.2597 93.2973 10.0205 0.165613 -0.95203 -0.257315
-36.2278 93.143 9.97245 0.144744 -0.96377 -0.224046
-37.5725 92.9222 9.91132 0.146157 -0.974199 -0.171973
-39.0005 92.7279 9.85735 0.146978 -0.976396 -0.158267
-40.2822 92.5698 9.81724 0.140184 -0.982889 -0.119487
-41.2127 92.4844 9.78871 0.0693786 -0.995821 -0.0593818
-42.2146 92.4059 9.75215 0.0713647 -0.996892 -0.0333704
-43.3536 92.3177 9.7052 0.104095 -0.994536 -0.00786354
-44.915 92.1471 9.64852 0.112543 -0.993582 0.0113541
-46.4611 91.9304 9.58947 0.162047 -0.985258 0.0548344
-47.4166 91.7701 9.53789 0.193706 -0.976334 0.0961783
-48.3321 91.5606 9.49286 0.215202 -0.968144 0.128003
-49.2613 91.3375 9.45158 0.249989 -0.958898 0.134241
-50.1699 91.0786 9.42503 0.290818 -0.945358 0.147391
-51.5424 90.6199 9.38879 0.337643 -0.929499 0.148419
-52.7297 90.1346 9.35972 0.396057 -0.900521 0.179444
-53.617 89.7282 9.34979 0.442264 -0.876718 0.189126
-54.4687 89.2937 9.36141 0.46656 -0.863239 0.192718
-53.4565 89.5606 8.23271 0.441274 -0.872669 0.209109
-52.2197 90.1275 8.24084 0.37997 -0.905565 0.188614
-51.2211 90.5378 8.26247 0.322537 -0.931486 0.168239
-49.9858 90.9644 8.28247 0.303895 -0.944462 0.125055
-48.6297 91.3608 8.32704 0.246482 -0.962189 0.115924
-47.3671 91.6785 8.39741 0.247076 -0.965346 0.0840274
-46.0278 91.955 8.46258 0.172917 -0.984216 0.0376544
-44.5482 92.1847 8.51947 0.127087 -0.991891 -0.00101691
-43.3652 92.3357 8.56041 0.132044 -0.990367 -0.0416936
-42.0253 92.4789 8.61538 0.0924693 -0.994918 -0.0398448
-41.028 92.5786 8.65377 0.161647 -0.979238 -0.122327
-39.8014 92.7791 8.70335 0.16279 -0.977249 -0.135952
-41.8627 92.6284 7.49207 0.158764 -0.974636 -0.157732
-42.8415 92.473 7.44607 0.197118 -0.971961 -0.128203
-44.2806 92.2381 7.39198 0.150026 -0.987621 -0.0457838
-45.2605 92.0725 7.35478 0.170931 -0.985156 0.015785
-46.5336 91.8211 7.30166 0.227963 -0.972303 0.0515698
-47.8672 91.4879 7.23487 0.270163 -0.961246 0.0549425
-48.855 91.1854 7.17671 0.292612 -0.953689 0.0696874
-49.8474 90.8728 7.13288 0.32365 -0.942073 0.0880253
-50.7818 90.5313 7.1283 0.351541 -0.926458 0.134514
-52.155 89.962 7.10764 0.403863 -0.900903 0.158962
-52.5386 89.78 7.1095 0.422596 -0.88897 0.17648
-51.1384 90.2361 5.98462 0.374367 -0.922425 0.0947678
-50.1194 90.642 5.9935 0.34805 -0.931914 0.101968
-49.2572 90.9915 6.01438 0.368308 -0.929655 0.00956955
-47.8296 91.4695 6.10659 0.312691 -0.949594 -0.0222657
-46.7871 91.7616 6.16045 0.252932 -0.967352 -0.0159661
-45.751 92.0098 6.20382 0.224226 -0.974436 -0.0140153
-44.501 92.262 6.25495 0.179346 -0.982439 -0.051473
-43.3153 92.5007 6.30805 0.227882 -0.964103 -0.136288
-43.1639 92.5354 6.31589 0.227805 -0.966487 -0.118353
-43.8557 92.5529 5.17512 0.229618 -0.961177 -0.153019
-45.1639 92.2446 5.10921 0.23964 -0.962511 -0.127064
-46.1661 91.9891 5.0622 0.255368 -0.96174 -0.0992162
-47.2169 91.6923 5.01053 0.289048 -0.952665 -0.0942355
-48.525 91.2396 4.92862 0.351428 -0.935617 -0.0334495
-49.6565 90.8095 4.86906 0.393412 -0.919361 -0.00125728
-50.3357 90.5238 4.84509 0.388021 -0.921605 -0.00918736
-48.694 91.2705 3.79054 0.359482 -0.929369 -0.0839396
-47.8126 91.6005 3.85045 0.34885 -0.934381 -0.0723588
-46.4669 92.0406 3.93354 0.285022 -0.940696 -0.183995
-45.5999 92.2939 3.98228 0.270868 -0.942697 -0.194817
-44.7794 92.5057 4.02837 0.260786 -0.95368 -0.149949
-44.9943 92.6841 2.93618 0.270872 -0.942696 -0.194816
-46.2946 92.3042 2.85258 0.285785 -0.940388 -0.184383
-47.1115 92.0259 2.79429 0.333679 -0.931927 -0.142021
-46.1426 92.6405 1.79153 0.309021 -0.917523 -0.250315
-45.1145 92.9419 1.86192 0.276887 -0.922225 -0.269878
-45.313 93.2279 0.790251 0.277991 -0.910852 -0.305071
-45.3962 93.2039 0.783988 0.28435 -0.90995 -0.301888
-44.5543 94.7571 -3.43841 0.121907 -0.953581 -0.275357
-44.5391 94.7587 -3.43799 0.118741 -0.96407 -0.237633
-44.32 95.0622 -4.52593 0.105639 -0.963098 -0.247552
-44.8844 95.0106 -4.54067 0.0946893 -0.963602 -0.250011
-44.892 95.3295 -5.62487 0.044809 -0.965707 -0.25574
-43.9443 95.3608 -5.61399 0.0161956 -0.967276 -0.253209
-43.7817 95.3632 -5.61295 0.037236 -0.970394 -0.23864
-43.2318 95.6391 -6.70599 0.0299998 -0.974848 -0.220843
-44.2511 95.6386 -6.70963 -0.00394051 -0.971314 -0.237769
-45.1861 95.6369 -6.71369 0.00941801 -0.954912 -0.296739
-45.0709 95.9323 -7.80471 -0.0298193 -0.964125 -0.263768
-44.075 95.915 -7.80433 -0.0170349 -0.973299 -0.228906
-43.1984 95.8923 -7.80507 -0.0272485 -0.977083 -0.21111
-42.5931 96.1079 -8.90569 -0.0326655 -0.982921 -0.181104
-43.5105 96.1388 -8.90743 -0.042783 -0.981257 -0.187897
-44.6778 96.1901 -8.90307 -0.0436667 -0.97212 -0.230382
-45.3349 96.22 -8.89984 -0.0479746 -0.970512 -0.236231
-45.1152 96.4609 -10.0048 -0.0741138 -0.975774 -0.205844
-44.1865 96.3947 -10.0114 -0.0522082 -0.9794 -0.195062
-42.7389 96.3168 -10.0131 -0.0427775 -0.981255 -0.187905
-42.1252 96.2747 -10.0143 -0.0715907 -0.985191 -0.155801
-41.5954 96.3893 -11.1283 -0.0736546 -0.99028 -0.117986
-42.825 96.4814 -11.1271 -0.086999 -0.986892 -0.135927
-44.2427 96.6006 -11.1223 -0.0867549 -0.980271 -0.1776
-45.212 96.6824 -11.1178 -0.0872005 -0.976983 -0.194682
-45.8933 96.7511 -11.1107 -0.100312 -0.974076 -0.202766
-46.0913 96.9631 -12.2311 -0.113347 -0.980548 -0.160245
-45.0212 96.8402 -12.2385 -0.11792 -0.982003 -0.147527
-43.9273 96.725 -12.2417 -0.102847 -0.986974 -0.123715
-42.7815 96.6116 -12.2448 -0.0943558 -0.989599 -0.10859
-41.6912 96.5238 -12.2434 -0.0678994 -0.991969 -0.106712
-41.3226 96.4984 -12.2428 -0.0786428 -0.99255 -0.0930626
-41.0617 96.564 -13.357 -0.0795793 -0.993683 -0.0791338
-42.2419 96.6601 -13.362 -0.0958665 -0.993955 -0.0535117
-43.2262 96.7772 -13.3644 -0.106184 -0.991041 -0.081016
-44.2482 96.8845 -13.3652 -0.1097 -0.988033 -0.108432
-45.5866 97.0391 -13.3649 -0.135106 -0.984666 -0.110359
-45.7523 97.0645 -13.3641 -0.150944 -0.981499 -0.117794
-46.0379 97.2388 -14.4969 -0.164264 -0.982344 -0.0895433
-44.6883 97.0181 -14.4958 -0.133524 -0.989039 -0.0630357
-43.5976 96.8823 -14.4887 -0.118429 -0.991495 -0.05396
-42.4469 96.7444 -14.4806 -0.118105 -0.991557 -0.0535372
-41.0489 96.6264 -14.4722 -0.0790845 -0.995744 -0.0473329
-40.7294 96.6022 -14.4705 -0.0719408 -0.996351 -0.0459259
-40.2358 96.5614 -15.5824 -0.0953872 -0.9948 0.0356998
-41.5776 96.6724 -15.5927 -0.0814433 -0.996676 0.00216918
-42.6161 96.7787 -15.603 -0.117203 -0.993087 -0.00649472
-44.0745 96.9781 -15.62 -0.152392 -0.988304 -0.00572131
-45.4683 97.213 -15.6316 -0.145785 -0.989098 0.0207598
-46.2136 97.3411 -15.6373 -0.167407 -0.984597 -0.050424
-46.2563 97.3024 -16.7791 -0.19809 -0.978158 0.0629942
-45.1758 97.1244 -16.7651 -0.125315 -0.99109 0.0451348
-44.2484 97.0016 -16.7517 -0.148533 -0.978439 0.143512
-43.1768 96.8082 -16.7299 -0.181399 -0.977852 0.104398
-42.1744 96.6831 -16.7147 -0.104255 -0.990311 0.0917388
-40.9688 96.5712 -16.7009 -0.0790865 -0.994293 0.0716072
-39.9989 96.4765 -16.6899 -0.1163 -0.990467 0.0738161
-40.2114 96.3819 -17.7983 -0.104375 -0.985503 0.133755
-41.5322 96.5045 -17.8182 -0.0896665 -0.990042 0.108521
-42.9126 96.6456 -17.8398 -0.100697 -0.989801 0.100766
-44.0071 96.8033 -17.866 -0.145326 -0.979033 0.142744
-44.9941 96.9493 -17.8904 -0.171662 -0.977395 0.123412
-45.9386 97.132 -17.9141 -0.19834 -0.974637 0.103655
-44.9139 96.7305 -19.0058 -0.214611 -0.952244 0.217195
-43.4304 96.4946 -18.9559 -0.139685 -0.970287 0.197563
-42.5296 96.3864 -18.9314 -0.10062 -0.97464 0.199881
-41.1878 96.2591 -18.9042 -0.111907 -0.966431 0.231274
-40.3785 96.1925 -18.8909 -0.0874479 -0.965528 0.24517
-40.1608 95.8789 -19.9559 -0.0836902 -0.94998 0.30089
-41.3061 95.9755 -19.9795 -0.0974653 -0.947405 0.304835
-42.5916 96.0896 -20.0082 -0.0962608 -0.936733 0.33655
-43.9568 96.2741 -20.0615 -0.172353 -0.927703 0.331151
-44.1168 96.3028 -20.0691 -0.181768 -0.924418 0.335277
-43.5271 95.7976 -21.0894 -0.164215 -0.885775 0.434092
-42.4212 95.661 -21.0445 -0.0872736 -0.889165 0.449187
-41.2511 95.5836 -21.0215 -0.0476732 -0.892092 0.449331
-39.9891 95.5276 -21.0097 -0.0475179 -0.902459 0.428147
-39.7729 95.5173 -21.0073 -0.0633577 -0.92958 0.363135
-40.1871 95.0602 -22.0193 -0.020889 -0.890215 0.455061
-41.0995 95.0846 -22.0217 -0.0291737 -0.870182 0.491867
-42.7532 95.2063 -22.0639 -0.118266 -0.834381 0.53835
-42.869 95.2191 -22.0695 -0.118262 -0.834381 0.538351
-42.8454 94.607 -23.013 -0.0971163 -0.8461 0.524103
-41.7213 94.5265 -22.9811 -0.0372312 -0.856641 0.514569
-40.6687 94.5224 -22.9907 -0.0138494 -0.862709 0.50551
-40.3322 94.5182 -22.9925 -0.00540343 -0.864177 0.503159
-40.1444 93.9179 -23.9395 0.0177897 -0.838144 0.545159
-41.0463 93.9161 -23.9276 0.00633338 -0.827038 0.562111
-42.4725 93.9402 -23.9246 -0.0382685 -0.785046 0.618254
-42.6261 93.9429 -23.9239 -0.010596 -0.771245 0.63645
-42.2312 93.2153 -24.7897 -0.0135638 -0.764917 0.643986
-41.0886 93.2458 -24.828 0.0341363 -0.799543 0.599637
-40.7508 93.258 -24.8406 0.0511809 -0.802292 0.594733
-41.512 92.5227 -25.6856 0.0691426 -0.749404 0.658493
-42.2983 92.4765 -25.637 0.0660795 -0.729063 0.681249
-42.2842 91.7089 -26.4598 0.0660832 -0.729067 0.681245
-42.2522 91.7108 -26.4618 0.0850536 -0.728038 0.68024
-25.0659 99.7948 0.299841 0.267772 -0.935384 -0.230985
-23.7613 100.146 0.387421 0.272189 -0.936198 -0.222366
-22.3829 100.498 0.468183 0.252968 -0.942833 -0.216963
-21.3128 100.72 0.5155 0.202822 -0.956041 -0.211776
-20.459 100.878 0.546719 0.193446 -0.96763 -0.162083
-19.9866 101.168 -0.550017 0.145023 -0.974104 -0.173464
-20.9539 101.019 -0.577634 0.164161 -0.972318 -0.166281
-21.9096 100.829 -0.615774 0.205731 -0.962515 -0.176746
-22.9772 100.602 -0.664291 0.233192 -0.952239 -0.197137
-23.7605 100.405 -0.711206 0.255898 -0.941095 -0.221036
-22.687 100.879 -1.75908 0.200619 -0.95228 -0.230031
-21.0884 101.18 -1.6962 0.177731 -0.968391 -0.175015
-19.8108 101.372 -1.66072 0.110643 -0.979829 -0.166411
-18.8762 101.48 -1.64323 0.111262 -0.98362 -0.141819
-18.7172 101.496 -1.641 0.0802403 -0.988397 -0.128966
-17.6191 101.726 -2.74834 0.0478108 -0.98904 -0.139693
-18.9302 101.652 -2.75765 0.0532214 -0.986165 -0.156994
-20.3128 101.505 -2.78203 0.0962278 -0.978757 -0.181039
-21.1285 101.394 -2.80392 0.152542 -0.965941 -0.209019
-19.0793 101.827 -3.86976 0.0645266 -0.9815 -0.180263
-17.8482 101.899 -3.85985 0.0601308 -0.982832 -0.174429
-16.8247 101.913 -3.86138 0.0219014 -0.987295 -0.157379
-16.4474 101.926 -3.86131 0.00350136 -0.990559 -0.137039
-17.9022 102.092 -4.96717 0.0102838 -0.9855 -0.169363
-16.8233 102.076 -4.97366 -0.00384192 -0.991372 -0.131021
-15.884 102.045 -4.9828 -0.0451973 -0.990642 -0.128788
-14.6736 101.956 -5.00258 -0.121228 -0.987233 -0.103316
-14.0136 101.872 -5.0169 -0.162567 -0.983667 -0.0772772
-14.6859 102.201 -7.22666 -0.166937 -0.975919 -0.140405
-13.3744 101.956 -7.27029 -0.232905 -0.965058 -0.120075
-12.2873 101.69 -7.31342 -0.326719 -0.939073 -0.106755
-11.0255 101.165 -7.37453 -0.409856 -0.911064 -0.0445032
-9.93126 100.605 -7.4034 -0.492928 -0.870066 0.00280602
-9.09384 100.119 -7.39395 -0.488492 -0.870246 0.0636203
-8.33265 99.725 -7.36952 -0.492836 -0.86213 0.117663
-6.97182 99.1877 -6.15806 -0.417223 -0.896059 0.151668
-8.06638 99.7003 -6.22448 -0.413673 -0.905767 0.0919826
-9.20394 100.237 -6.25793 -0.452099 -0.891476 0.0296219
-10.0589 100.668 -6.25972 -0.420626 -0.907219 0.00516007
-10.8821 101.048 -6.24584 -0.375734 -0.926442 -0.0230247
-12.0001 101.482 -6.20551 -0.365531 -0.928803 -0.060931
-13.2147 101.797 -6.16255 -0.208858 -0.975857 -0.063888
-14.5687 102.046 -6.12188 -0.157194 -0.981063 -0.113161
-15.7168 102.175 -6.0976 -0.0477186 -0.991644 -0.119853
-16.6339 102.245 -6.08202 -0.0603212 -0.982359 -0.17701
-21.6285 100.425 1.60895 0.224233 -0.954324 -0.197448
-22.8088 100.14 1.54617 0.251652 -0.94487 -0.209505
-24.2925 99.7457 1.4533 0.278796 -0.935272 -0.218035
-25.2481 99.4682 1.38376 0.292054 -0.927039 -0.235165
-25.9592 99.2656 1.32928 0.282892 -0.928391 -0.24096
-27.5037 98.5147 2.29252 0.292706 -0.920299 -0.259562
-26.6347 98.7758 2.36645 0.298779 -0.919601 -0.255078
-25.1914 99.2136 2.48491 0.30098 -0.922376 -0.242144
-23.9928 99.5687 2.57504 0.280748 -0.933728 -0.222111
-23.304 99.761 2.6206 0.257925 -0.940562 -0.220948
-25.0882 98.9576 3.58831 0.304742 -0.920515 -0.244508
-26.0939 98.6427 3.50336 0.30849 -0.918631 -0.246881
-26.9726 98.3716 3.42789 0.297506 -0.920086 -0.254816
-27.7285 98.1457 3.36215 0.302164 -0.914854 -0.267841
-27.0007 98.0504 4.51258 0.324276 -0.909212 -0.26111
-28.4052 97.6223 4.38588 0.308072 -0.909954 -0.277626
-29.1291 97.3962 4.31553 0.310359 -0.905998 -0.287827
-29.203 97.032 5.38612 0.310904 -0.90623 -0.286508
-30.1484 96.7233 5.28451 0.321306 -0.896905 -0.303847
-34.2822 93.1153 11.1487 0.158898 -0.942453 -0.294166
-35.5359 92.9879 11.106 0.135447 -0.957454 -0.254824
-36.9088 92.8171 11.0565 0.116376 -0.975273 -0.187881
-38.0995 92.6783 11.0176 0.131949 -0.979267 -0.153708
-39.0975 92.5771 10.9895 0.094048 -0.988574 -0.117797
-40.1749 92.4813 10.9628 0.0493669 -0.996962 -0.0602528
-41.2912 92.4184 10.9358 0.0535437 -0.997693 -0.0417435
-42.2835 92.3829 10.9021 0.0369588 -0.998755 -0.0334948
-43.3748 92.3064 10.8595 0.0943109 -0.995542 -0.0011701
-44.8883 92.1776 10.7967 0.0785313 -0.996608 0.0246221
-46.047 92.0621 10.7602 0.123108 -0.990645 0.0588817
-47.3119 91.8642 10.6986 0.162945 -0.984522 0.0645329
-48.5461 91.6484 10.6385 0.18675 -0.979465 0.0759825
-49.837 91.333 10.5895 0.241478 -0.963387 0.116506
-51.0412 90.9553 10.543 0.298915 -0.947271 0.115447
-51.9793 90.6386 10.5146 0.30982 -0.938605 0.151763
-53.0668 90.2322 10.4778 0.416501 -0.889247 0.189119
-53.8931 89.8232 10.4737 0.44231 -0.878428 0.180902
-55.0188 89.2548 10.4681 0.482047 -0.848438 0.218596
-55.729 88.8033 10.4945 0.55466 -0.802742 0.218991
-56.549 88.4622 11.5854 0.611003 -0.773745 0.167312
-55.7279 89.0625 11.5621 0.580875 -0.792773 0.18465
-54.5293 89.7053 11.5984 0.435157 -0.89082 0.130687
-53.3991 90.2897 11.6093 0.386931 -0.912197 0.134835
-52.5263 90.607 11.6441 0.322569 -0.940524 0.106599
-51.3561 91.0124 11.6884 0.327079 -0.935942 0.13051
-50.3864 91.318 11.7214 0.280654 -0.948739 0.145355
-49.3284 91.5635 11.7721 0.209947 -0.975267 0.0691106
-48.1243 91.7994 11.8218 0.152216 -0.987615 0.0380372
-47.0872 91.9574 11.87 0.152358 -0.987372 0.0434106
-45.7614 92.1456 11.9326 0.10416 -0.994549 -0.00475239
-44.6514 92.2442 11.9687 0.0856464 -0.996318 -0.00379684
-43.5986 92.3093 12.0092 0.0601543 -0.998161 0.00754337
-42.3459 92.3597 12.0569 0.0263546 -0.999646 0.00369659
-41.2989 92.3965 12.0917 0.0351693 -0.999331 -0.0100305
-40.0947 92.4428 12.1135 0.0392331 -0.998705 -0.0323812
-39.1274 92.4685 12.1311 0.0621748 -0.996188 -0.061191
-38.2199 92.5369 12.151 0.0444785 -0.993416 -0.10558
-37.0281 92.588 12.1724 0.0801563 -0.985892 -0.146944
-36.1038 92.6698 12.196 0.0780355 -0.969939 -0.230497
-34.6984 92.7871 12.232 0.0745677 -0.96288 -0.259426
-34.0943 92.8158 12.2423 0.0503156 -0.958561 -0.280408
-33.9551 92.5458 13.3443 0.0155626 -0.976826 -0.213467
-34.8807 92.5186 13.3341 0.0241494 -0.982659 -0.183843
-36.2441 92.474 13.3191 0.0278883 -0.992107 -0.122252
-37.4243 92.4808 13.3106 0.0229763 -0.995983 -0.0865398
-38.577 92.4416 13.2929 0.0141727 -0.999469 -0.0293302
-39.5605 92.4257 13.277 0.0178926 -0.999431 -0.0285885
-40.6065 92.4004 13.2584 0.0284013 -0.999487 -0.0148124
-41.5384 92.3769 13.2399 0.0226027 -0.999686 -0.0108457
-42.5862 92.3564 13.2129 0.0263391 -0.999481 -0.0185683
-43.8737 92.2944 13.1653 0.0448405 -0.998862 -0.0162267
-44.9417 92.2187 13.1299 0.0813394 -0.99648 0.0202724
-46.216 92.1015 13.0868 0.108953 -0.992725 0.0512452
-47.5442 91.9542 13.0256 0.133664 -0.988702 0.0678356
-48.4354 91.8042 12.9827 0.161515 -0.983404 0.0826382
-49.6291 91.5863 12.9304 0.19992 -0.97691 0.0753619
-50.766 91.3333 12.8758 0.254334 -0.963074 0.0883331
-51.8053 91.0061 12.8341 0.313026 -0.944811 0.0966818
-52.8014 90.6546 12.7976 0.325784 -0.937636 0.121257
-53.8899 90.1998 12.7542 0.454097 -0.885347 0.0997827
-54.7487 89.7526 12.72 0.466951 -0.880023 0.0866964
-55.6481 89.2681 12.6813 0.468663 -0.879908 0.0782165
-56.6422 88.6156 12.6579 0.584928 -0.80238 0.118515
-57.3105 88.0406 12.6363 0.674318 -0.732265 0.0953049
-57.4604 87.9973 13.6661 0.653449 -0.75612 0.0358795
-56.7107 88.6268 13.7525 0.592056 -0.805129 0.0351684
-55.9021 89.2391 13.8002 0.546626 -0.830888 0.104039
-54.6842 89.8996 13.8645 0.466951 -0.880022 0.0867067
-53.4074 90.5316 13.9391 0.433149 -0.900336 0.0421592
-52.0165 91.0518 13.9984 0.338589 -0.940315 0.0341426
-50.5545 91.447 14.0745 0.257115 -0.966234 0.0168243
-49.5726 91.6518 14.1171 0.209073 -0.977233 0.0361102
-48.1763 91.9408 14.1745 0.15455 -0.987738 0.0220724
-47.2058 92.0434 14.2261 0.104708 -0.994473 -0.00767714
-45.9143 92.1683 14.2795 0.0758925 -0.996886 0.0214065
-44.8768 92.2393 14.3086 0.0394406 -0.999164 -0.010801
-43.9125 92.2768 14.3387 0.0394667 -0.999146 -0.0122226
-42.768 92.3203 14.3711 0.0343911 -0.9992 -0.020408
-41.6439 92.3603 14.4 0.0321823 -0.999369 -0.0150459
-40.3396 92.3949 14.4246 0.0170413 -0.999791 -0.0112882
-39.1413 92.4026 14.4407 -0.00638954 -0.999702 -0.0235737
-37.9522 92.4008 14.4499 -0.0128791 -0.998062 -0.0608758
-36.9262 92.3675 14.4524 -0.0185359 -0.996512 -0.08137
-35.9243 92.3367 14.4532 -0.0336189 -0.991969 -0.12193
-34.9294 92.3227 14.4537 -0.0471381 -0.982016 -0.182817
-33.8557 92.2724 14.4472 -0.0234847 -0.977011 -0.21189
-33.6873 92.2722 14.4478 -0.0134342 -0.96979 -0.243572
-33.3031 91.9788 15.5448 -0.112707 -0.970135 -0.214793
-34.596 92.084 15.5694 -0.0864274 -0.984072 -0.155349
-35.5481 92.2001 15.5871 -0.122368 -0.986297 -0.110654
-36.885 92.2754 15.594 -0.0487121 -0.994986 -0.0873515
-38.3429 92.3485 15.596 -0.0521645 -0.997204 -0.0535034
-39.5755 92.367 15.5923 0.00501625 -0.99867 -0.051305
-40.9708 92.348 15.579 0.0152836 -0.998877 -0.044839
-41.918 92.3329 15.5654 0.03287 -0.999207 -0.0224908
-42.8521 92.2991 15.5453 0.0365165 -0.999209 -0.015754
-43.8341 92.2645 15.5207 0.0351671 -0.999259 -0.0156663
-45.1257 92.2166 15.4827 0.0398198 -0.999146 -0.0110701
-46.2178 92.1407 15.4495 0.106389 -0.994147 -0.0187956
-47.159 92.0391 15.417 0.107918 -0.994141 -0.00618612
-48.0749 91.9388 15.3754 0.110203 -0.993848 -0.0109756
-49.0481 91.8262 15.3256 0.193021 -0.981183 0.00482269
-50.046 91.5999 15.2885 0.21969 -0.97479 0.0389837
-51.0719 91.3409 15.2402 0.250862 -0.967541 0.0305472
-52.4339 90.9283 15.1716 0.327195 -0.944566 0.027196
-53.6878 90.4398 15.1026 0.429885 -0.902804 0.0120087
-54.5885 90.002 15.0403 0.4115 -0.910844 0.0321059
-55.621 89.5326 14.9573 0.43906 -0.895649 0.0709864
-56.3957 88.9706 14.9012 0.673925 -0.738701 -0.0120573
-57.2916 88.2083 14.7656 0.632832 -0.77388 0.0251701
-57.9777 87.6181 14.6486 0.718185 -0.694678 0.0403939
-58.3148 87.1902 14.5854 0.783194 -0.62113 0.0283642
-58.6506 86.7128 15.537 0.801783 -0.596442 -0.0374388
-57.9019 87.6381 15.745 0.725751 -0.669369 -0.158841
-57.1941 88.2826 15.9048 0.654368 -0.75176 -0.0816083
-56.4846 88.8714 16.006 0.648682 -0.759753 -0.0445698
-55.611 89.5561 16.1351 0.524608 -0.85062 -0.0351014
-54.7047 89.9726 16.2047 0.415053 -0.909797 -0.000310406
-53.8747 90.3275 16.2575 0.401125 -0.915521 -0.0303215
-52.821 90.7812 16.3297 0.335372 -0.937944 -0.0882379
-51.919 91.0761 16.3817 0.319607 -0.946452 -0.0456179
-50.6733 91.453 16.4585 0.270772 -0.962332 -0.024489
-49.4042 91.7275 16.5232 0.174741 -0.98305 -0.0554754
-48.3817 91.89 16.5716 0.116537 -0.993173 -0.00518344
-47.3326 92.0198 16.6121 0.122668 -0.992446 0.00186431
-46.3301 92.1216 16.6411 0.0933131 -0.99562 0.00581769
-45.079 92.2014 16.6704 0.0423589 -0.998632 -0.0306602
-43.8088 92.246 16.7042 0.0307032 -0.999247 -0.023726
-42.6218 92.2776 16.7302 0.0303192 -0.999041 -0.0315738
-41.6178 92.3071 16.747 0.0179408 -0.999433 -0.0285059
-40.4809 92.3115 16.7544 0.00291161 -0.999354 -0.0358128
-38.8902 92.3095 16.7548 -0.00262577 -0.99938 -0.0351088
-37.8979 92.2427 16.7495 -0.0674705 -0.995092 -0.0723788
-36.5955 92.1636 16.7401 -0.0714918 -0.99232 -0.100946
-35.3871 92.0286 16.7188 -0.148976 -0.978576 -0.142108
-34.4353 91.9047 16.6922 -0.146464 -0.975109 -0.166463
-33.3684 91.7409 16.6543 -0.148395 -0.9728 -0.177876
-33.0574 91.6955 16.6428 -0.162335 -0.966985 -0.196435
-33.1883 91.4829 17.756 -0.199401 -0.96336 -0.17938
-34.252 91.6731 17.8048 -0.162033 -0.970592 -0.178038
-35.4767 91.8921 17.8541 -0.168235 -0.975488 -0.141845
-36.6483 92.0438 17.8849 -0.0896903 -0.991663 -0.0925253
-37.7889 92.1341 17.9036 -0.0766569 -0.992035 -0.0999521
-38.7142 92.206 17.9153 -0.0705406 -0.991756 -0.106977
-40.1029 92.2542 17.9217 -0.00250687 -0.997644 -0.0685611
-41.3803 92.2428 17.9191 0.0130882 -0.997982 -0.06214
-42.7653 92.2293 17.9095 0.0105973 -0.998324 -0.0568927
-43.9868 92.1999 17.8897 0.02894 -0.998858 -0.0380218
-44.8907 92.1574 17.8698 0.0502296 -0.997787 -0.0435782
-46.1287 92.0907 17.846 0.0708601 -0.995723 -0.0592836
-47.2729 92.0001 17.8175 0.0809364 -0.993981 -0.0738246
-48.2526 91.896 17.7853 0.162205 -0.986553 -0.0200913
-49.378 91.6712 17.7342 0.201214 -0.978608 -0.042878
-50.2801 91.4642 17.6839 0.231812 -0.968959 -0.0859154
-51.6104 91.1243 17.5897 0.296786 -0.952381 -0.0699154
-52.7228 90.7392 17.5166 0.34426 -0.937902 -0.0427214
-53.585 90.4168 17.4541 0.365868 -0.929511 -0.046367
-54.9879 89.7779 17.3399 0.458345 -0.883947 -0.0925106
-56.0096 89.1332 17.2093 0.621238 -0.780051 -0.0747253
-56.7907 88.5263 17.0621 0.672384 -0.737864 -0.0587998
-57.7896 87.4986 16.84 0.70399 -0.702795 -0.10236
-58.6409 86.536 16.5707 0.76196 -0.630086 -0.149698
-58.7298 86.4295 16.5429 0.801494 -0.583175 -0.132343
-58.7854 86.0935 17.5152 0.835064 -0.512194 -0.200813
-58.2378 86.8458 17.7641 0.789072 -0.61213 -0.0515957
-57.4838 87.7219 17.9993 0.732868 -0.677431 -0.0631751
-56.6771 88.4722 18.203 0.610834 -0.763665 -0.209038
-55.858 89.0674 18.36 0.600731 -0.776499 -0.19019
-54.4107 89.8915 18.561 0.473203 -0.858312 -0.198444
-53.4577 90.3578 18.6601 0.349808 -0.928213 -0.126712
-52.066 90.8365 18.7635 0.299919 -0.940405 -0.160269
-50.8559 91.1958 18.8568 0.292758 -0.943075 -0.157802
-49.9417 91.4501 18.9117 0.266694 -0.951933 -0.150656
-48.9957 91.6811 18.9577 0.178081 -0.98034 -0.0849772
-47.922 91.8416 18.9926 0.120067 -0.987149 -0.105459
-46.777 91.9628 19.0217 0.105401 -0.992639 -0.0596509
-45.336 92.0542 19.0546 0.0428722 -0.996274 -0.0748284
-44.3138 92.1128 19.079 0.0573345 -0.994959 -0.0822805
-43.4114 92.1485 19.0903 0.0166366 -0.997183 -0.0731377
-42.3808 92.1653 19.0965 0.00857264 -0.996536 -0.0827253
-41.4145 92.1706 19.0965 0.00499677 -0.998112 -0.0612101
-40.5011 92.175 19.0946 -0.0252484 -0.995572 -0.090551
-39.5407 92.1223 19.0869 -0.062438 -0.991181 -0.116886
-37.9696 92.0199 19.0652 -0.0734525 -0.989986 -0.12055
-36.4194 91.8691 19.0245 -0.142306 -0.977821 -0.153672
-35.1098 91.6421 18.9687 -0.198518 -0.962417 -0.185322
-34.0573 91.4419 18.9166 -0.210425 -0.956445 -0.202322
-33.1811 91.2225 18.8549 -0.246543 -0.937216 -0.246665
-33.0554 91.1919 18.8455 -0.246543 -0.937216 -0.246664
-33.0417 90.9233 19.9398 -0.317272 -0.910992 -0.2635
-34.1299 91.2067 20.0287 -0.233465 -0.952609 -0.195014
-35.0225 91.4044 20.0872 -0.20423 -0.957019 -0.205923
-36.018 91.6024 20.1436 -0.203299 -0.957671 -0.203801
-37.3104 91.802 20.2036 -0.127966 -0.981575 -0.1419
-38.4793 91.9208 20.2381 -0.0680466 -0.99238 -0.102719
-39.9017 92.0085 20.2652 -0.0599444 -0.992366 -0.107783
-40.9411 92.0575 20.277 -0.00180602 -0.993509 -0.113742
-41.8974 92.0587 20.2822 0.00588595 -0.994536 -0.104232
-42.8676 92.053 20.2836 0.00901 -0.992734 -0.119989
-44.111 92.0062 20.2735 0.0604917 -0.988843 -0.136123
-45.2918 91.9279 20.2489 0.0665155 -0.985573 -0.155636
-46.3292 91.8781 20.2254 0.0672163 -0.983332 -0.168936
-47.6202 91.7361 20.1926 0.132561 -0.982817 -0.128444
-48.5591 91.566 20.16 0.172834 -0.97362 -0.148972
-49.4475 91.3791 20.127 0.249294 -0.953018 -0.172076
-50.9964 90.9584 20.0428 0.288528 -0.950611 -0.11441
-51.8733 90.677 19.9803 0.356953 -0.914447 -0.190711
-53.2457 90.2397 19.8587 0.362397 -0.902079 -0.234352
-54.3935 89.6635 19.7112 0.479227 -0.863944 -0.154731
-55.2002 89.21 19.5931 0.520026 -0.841248 -0.147899
-56.3122 88.4369 19.3864 0.640909 -0.747132 -0.176152
-57.3099 87.5455 19.1111 0.726634 -0.626465 -0.282035
-58.0727 86.6799 18.7925 0.819772 -0.510708 -0.259135
-58.6364 85.9117 18.5055 0.816304 -0.533757 -0.220796
-58.7771 85.7257 18.4352 0.816306 -0.533755 -0.220794
-58.7389 85.3562 19.4002 0.831898 -0.492537 -0.255642
-58.0348 86.2755 19.761 0.813914 -0.528341 -0.24166
-57.255 87.2132 20.147 0.768837 -0.586115 -0.255653
-56.2245 88.1879 20.4844 0.656897 -0.710576 -0.252128
-55.2164 88.9156 20.7193 0.504662 -0.804476 -0.313264
-54.3106 89.4095 20.8589 0.473101 -0.825074 -0.308913
-53.3783 89.8642 21 0.432555 -0.857087 -0.279818
-52.1314 90.3661 21.1328 0.398904 -0.90388 -0.154523
-51.2275 90.7339 21.2184 0.300595 -0.914451 -0.270963
-50.0422 91.0885 21.2911 0.270538 -0.921667 -0.278099
-49.1392 91.2549 21.328 0.163991 -0.969284 -0.183289
-48.25 91.4225 21.3624 0.194522 -0.964115 -0.180674
-47.0995 91.5947 21.403 0.0943042 -0.974689 -0.202703
-46.0827 91.6887 21.4241 0.0888697 -0.978239 -0.187484
-45.1386 91.7584 21.4395 0.074966 -0.975971 -0.204599
-44.2401 91.8353 21.4536 0.0960856 -0.981145 -0.167695
-42.7513 91.8989 21.4591 0.00208117 -0.986248 -0.165259
-41.8251 91.8985 21.4544 0.00316674 -0.98947 -0.1447
-40.7736 91.9002 21.4498 0.000898278 -0.988876 -0.148742
-39.7872 91.8604 21.4337 -0.0660064 -0.979713 -0.189224
-38.8786 91.776 21.4046 -0.105849 -0.973077 -0.204735
-37.6972 91.6489 21.3607 -0.123651 -0.970172 -0.208509
-36.7093 91.5057 21.3142 -0.205693 -0.959237 -0.193792
-35.6241 91.2811 21.2439 -0.214205 -0.953726 -0.211004
-34.3146 91.0186 21.1589 -0.248065 -0.932182 -0.26363
-33.417 90.7339 21.0591 -0.32135 -0.91067 -0.259641
-33.6455 90.4462 22.1494 -0.316918 -0.898458 -0.303867
-34.6201 90.7381 22.2599 -0.289644 -0.905211 -0.310967
-35.7886 91.0565 22.3731 -0.231885 -0.934472 -0.270169
-36.7975 91.28 22.4555 -0.194026 -0.939838 -0.281175
-38.0638 91.4459 22.5246 -0.131006 -0.969653 -0.206424
-39.4271 91.5639 22.575 -0.0843955 -0.97396 -0.210425
-40.7592 91.6671 22.612 -0.0823282 -0.967739 -0.238126
-41.8038 91.6568 22.6154 0.01727 -0.973024 -0.230055
-42.7187 91.66 22.6212 -0.0173236 -0.971 -0.238451
-44.0094 91.6238 22.6266 0.103676 -0.964014 -0.244803
-45.5223 91.4775 22.6125 0.0834973 -0.97355 -0.21267
-46.5507 91.3903 22.602 0.0870031 -0.97334 -0.212226
-47.6426 91.2697 22.5787 0.175237 -0.953944 -0.243481
-48.7007 91.0782 22.5293 0.183661 -0.955219 -0.232002
-49.5837 90.8814 22.4758 0.267439 -0.941462 -0.205246
-50.7087 90.5662 22.397 0.312944 -0.923544 -0.221661
-51.7095 90.2411 22.3194 0.361539 -0.902644 -0.233505
-52.6726 89.8397 22.215 0.394089 -0.882051 -0.258225
-53.9655 89.1715 22.0166 0.460264 -0.837563 -0.294357
-54.9384 88.6462 21.8538 0.528417 -0.802681 -0.276548
-55.7095 88.1884 21.7093 0.597522 -0.726123 -0.340165
-56.4359 87.5802 21.4604 0.673104 -0.669227 -0.314747
-57.2553 86.7128 21.0673 0.782596 -0.547891 -0.295565
-57.8558 85.9928 20.772 0.79393 -0.516226 -0.321225
-58.4545 85.2318 20.4455 0.836285 -0.441781 -0.324741
-58.3406 84.7847 21.3404 0.833428 -0.444585 -0.328241
-57.666 85.674 21.7535 0.785053 -0.521842 -0.333726
-56.9956 86.4246 22.1129 0.781981 -0.517367 -0.347615
-56.2853 87.1102 22.4585 0.692308 -0.566159 -0.447408
-55.4176 87.8299 22.7652 0.657855 -0.638904 -0.398784
-54.2944 88.5926 23.0447 0.452897 -0.798224 -0.397144
-53.1962 89.1732 23.2332 0.492963 -0.803239 -0.334356
-52.3672 89.6184 23.3665 0.440558 -0.830713 -0.340329
-51.3839 90.0473 23.4831 0.362991 -0.861082 -0.356054
-50.482 90.3113 23.5583 0.283114 -0.888506 -0.361113
-49.0964 90.6761 23.6641 0.223461 -0.929789 -0.292503
-47.9843 90.8914 23.7202 0.185237 -0.933178 -0.308002
-46.94 91.0412 23.7552 0.100879 -0.949769 -0.296247
-45.8971 91.1645 23.7789 0.136316 -0.94859 -0.285647
-44.5424 91.2913 23.7952 0.0858307 -0.971042 -0.222957
-43.2599 91.3547 23.7912 -0.00390557 -0.960538 -0.278122
-42.2033 91.3441 23.7767 0.00143433 -0.965514 -0.260348
-41.1879 91.3545 23.7686 -0.0107174 -0.9561 -0.292845
-40.1148 91.334 23.7495 -0.0328062 -0.956026 -0.291442
-38.9313 91.2479 23.7079 -0.132564 -0.940204 -0.313756
-37.7436 91.0961 23.641 -0.142382 -0.938143 -0.315618
-36.4124 90.8601 23.5321 -0.217975 -0.933116 -0.285975
-35.4347 90.6437 23.4344 -0.281171 -0.913162 -0.295091
-34.4586 90.3559 23.3203 -0.30122 -0.913694 -0.272819
-33.9199 90.172 23.2462 -0.331086 -0.895352 -0.297871
-34.49 89.9897 24.3852 -0.331853 -0.868647 -0.367866
-35.4376 90.262 24.5148 -0.292433 -0.879707 -0.374965
-36.3406 90.4777 24.6228 -0.196111 -0.920462 -0.338069
-37.5345 90.6558 24.7195 -0.163344 -0.916467 -0.365249
-38.6287 90.8324 24.8044 -0.137304 -0.934898 -0.327281
-39.7698 90.9292 24.857 -0.0826983 -0.934763 -0.345512
-40.8688 90.984 24.8967 -0.0592421 -0.938675 -0.339677
-42.0474 90.9911 24.9221 -0.00956555 -0.947153 -0.320639
-43.1697 90.9909 24.9465 -0.00530924 -0.947622 -0.31935
-44.6067 90.9348 24.9513 0.0826221 -0.942156 -0.324832
-46.0177 90.7872 24.928 0.123625 -0.940712 -0.315877
-47.4623 90.5848 24.8738 0.159375 -0.932413 -0.324354
-48.6446 90.37 24.8116 0.225254 -0.909857 -0.348455
-49.5909 90.1573 24.7506 0.321026 -0.88125 -0.346901
-50.5924 89.8273 24.6448 0.327726 -0.870682 -0.366753
-51.7006 89.4712 24.5354 0.316001 -0.87098 -0.376213
-53.0488 88.8071 24.3226 0.490213 -0.781157 -0.386632
-54.0188 88.225 24.1163 0.554563 -0.747125 -0.366421
-54.9523 87.6574 23.8818 0.599304 -0.686111 -0.412416
-55.9316 86.8489 23.526 0.669077 -0.640465 -0.377015
-56.9839 85.838 23.0178 0.75814 -0.536401 -0.370807
-57.9046 84.7669 22.4587 0.820886 -0.451874 -0.349223
-57.9323 84.7291 22.4397 0.832868 -0.441562 -0.333698
-57.892 84.1355 23.2782 0.805722 -0.459263 -0.374018
