-45.4431 95.8379 -24.0107 -0.475076 -0.606308 0.62785
-45.9023 96.5456 -23.2296 -0.504498 -0.778049 0.374328
-46.3981 97.0275 -22.5107 -0.350177 -0.887602 0.29842
-46.856 97.4204 -21.8285 -0.327758 -0.907004 0.262425
-47.6181 97.8232 -21.0999 -0.259009 -0.945052 0.198434
-48.3644 98.1232 -20.3789 -0.213378 -0.965803 0.146787
-49.0188 98.3733 -19.4852 -0.201697 -0.973429 0.108419
-49.1014 98.5133 -18.4632 -0.243183 -0.964402 0.103882
-48.9782 98.5729 -17.113 -0.208508 -0.977072 0.0403327
-48.8687 98.5736 -16.0824 -0.193851 -0.979074 -0.0619316
-48.7761 98.4703 -14.9036 -0.201932 -0.974557 -0.0965837
-48.6689 98.3247 -13.8164 -0.18705 -0.968444 -0.164707
-48.5175 98.105 -12.7726 -0.175866 -0.965744 -0.190813
-48.317 97.7942 -11.465 -0.159773 -0.963324 -0.215588
-48.1457 97.553 -10.5169 -0.149832 -0.960136 -0.234981
-47.9519 97.2916 -9.65342 -0.159041 -0.950765 -0.265993
-47.7632 96.962 -8.66513 -0.110906 -0.941675 -0.315319
-47.5686 96.6633 -7.7846 -0.0787966 -0.940711 -0.328996
-47.3422 96.0752 -6.19186 -0.0243436 -0.935003 -0.353228
-47.2342 95.7472 -5.28446 -0.0160536 -0.94428 -0.328545
-47.22 95.3738 -4.34119 0.0596286 -0.930494 -0.361421
-47.1448 95.0014 -3.33106 0.100815 -0.917649 -0.384392
-47.156 94.5586 -2.33125 0.166511 -0.902186 -0.397377
-47.246 94.1673 -1.43921 0.19732 -0.893399 -0.402243
-47.6833 93.5042 -0.187079 0.23695 -0.898284 -0.370055
-47.9653 93.0558 0.580943 0.343223 -0.86757 -0.35424
-48.4712 92.575 1.39107 0.381751 -0.872024 -0.305517
-49.107 92.128 1.85131 0.413865 -0.891562 -0.183936
-50.1958 91.4978 2.63576 0.384519 -0.910524 -0.151959
-51.3829 90.7486 3.37525 0.45843 -0.888418 -0.0235522
-52.4197 90.1656 4.07268 0.471413 -0.879566 0.0642832
-53.2137 89.7639 4.5873 0.482707 -0.869069 0.100656
-54.0028 89.4344 5.23756 0.483775 -0.864607 0.135706
-54.7959 89.1201 5.99852 0.495552 -0.853903 0.15899
-55.3572 88.9779 6.83367 0.48653 -0.843975 0.225819
-55.9658 88.8161 7.65508 0.508602 -0.837062 0.201622
-56.5566 88.6004 8.33471 0.529221 -0.823531 0.204258
-57.6045 88.1398 9.50793 0.60828 -0.773342 0.178551
-58.2534 87.7861 10.2814 0.647373 -0.74892 0.140316
-58.8264 87.4204 11.1135 0.666794 -0.734442 0.1257
-59.2058 87.1691 11.9157 0.703098 -0.705836 0.0841747
-59.6095 86.8794 12.7597 0.722392 -0.687633 0.0453115
-59.8413 86.5525 13.6683 0.789083 -0.612524 -0.0422526
-60.1837 85.9612 14.6521 0.834275 -0.54335 -0.093572
-60.4096 85.3566 15.7221 0.858568 -0.492357 -0.142985
-60.5339 84.8243 16.7455 0.857363 -0.483261 -0.175741
-60.3037 84.4923 18.344 0.864889 -0.439482 -0.242497
-60.1538 84.2999 19.2452 0.859968 -0.435458 -0.264279
-60.0126 83.9889 20.1083 0.860707 -0.401935 -0.310686
-59.8183 83.6993 20.9679 0.866817 -0.379232 -0.323747
-59.6995 83.2781 21.7873 0.86688 -0.384755 -0.316989
-59.4421 82.8998 22.949 0.870976 -0.385949 -0.303707
-59.2497 82.5818 23.8963 0.845272 -0.423691 -0.325579
-59.0171 82.2998 24.8613 0.844398 -0.423402 -0.328211
-58.8768 81.9887 25.6947 0.839652 -0.452637 -0.300071
-58.8019 81.5423 26.5976 0.8301 -0.487524 -0.266603
-58.8207 81.1327 27.4034 0.801427 -0.533397 -0.270561
-58.8064 80.6704 28.4596 0.78103 -0.576426 -0.238355
-58.7923 80.1703 29.7141 0.729049 -0.637416 -0.245954
-58.6563 79.8756 30.8147 0.685631 -0.683675 -0.249998
-58.4926 79.6934 31.8274 0.658385 -0.704634 -0.260295
-58.199 79.4105 33.1051 0.621698 -0.715083 -0.318883
-57.7079 79.2829 34.2663 0.570041 -0.729936 -0.373971
-57.1389 79.1393 35.3863 0.514304 -0.779939 -0.353375
-56.6231 79.0444 36.2193 0.477533 -0.800872 -0.360005
-55.8271 78.9586 37.356 0.407295 -0.82928 -0.382629
-55.1621 78.9317 38.1653 0.342384 -0.863997 -0.369163
-54.4234 78.9481 38.812 0.345095 -0.871865 -0.346679
-53.489 78.9437 39.6328 0.327957 -0.864804 -0.380209
-52.708 78.9473 40.1785 0.256157 -0.875571 -0.409299
-51.6624 78.8149 41.0398 0.166021 -0.880914 -0.439493
-50.389 78.8846 41.248 0.11271 -0.897033 -0.426743
-49.2321 78.9355 41.4363 0.123076 -0.88165 -0.455572
-48.2738 79.0166 41.3835 0.0329487 -0.887759 -0.459129
-47.3464 79.1522 41.151 -0.0135537 -0.894168 -0.447526
-46.2007 79.3093 40.7619 -0.121331 -0.881811 -0.454017
-45.3385 79.391 40.4411 -0.120547 -0.798979 -0.589152
-44.594 79.5995 40.025 -0.171091 -0.787117 -0.589045
-44.1654 79.7051 39.7103 -0.208219 -0.771478 -0.601221
-31.841 95.9086 7.40602 0.348962 -0.873136 -0.340382
-30.8253 96.4175 7.08894 0.342881 -0.885728 -0.312788
-30.0359 96.835 6.79462 0.344145 -0.889106 -0.301474
-28.9911 97.3363 6.44137 0.326548 -0.897956 -0.295029
-28.0685 97.7429 6.20243 0.331715 -0.90105 -0.279419
-27.0358 98.2152 5.87824 0.326759 -0.907068 -0.265311
-26.1976 98.6355 5.49564 0.334158 -0.905216 -0.26253
-24.97 99.2394 4.91929 0.329148 -0.913122 -0.240246
-23.7699 99.7573 4.52902 0.319321 -0.918987 -0.231295
-22.9601 100.104 4.21622 0.289655 -0.92966 -0.227667
-21.929 100.54 3.71109 0.268783 -0.939703 -0.211198
-21.1089 100.885 3.17734 0.258333 -0.942783 -0.210767
-20.2226 101.249 2.51631 0.22274 -0.952549 -0.207453
-19.2859 101.606 1.72091 0.183677 -0.966567 -0.178915
-18.3715 101.945 0.755988 0.172569 -0.971764 -0.160921
-17.5305 102.203 -0.230097 0.104309 -0.984324 -0.141376
-16.7864 102.413 -1.12774 0.0873852 -0.985909 -0.14264
-16.1571 102.563 -1.84199 0.0393268 -0.987701 -0.151309
-15.4683 102.712 -2.61241 0.032712 -0.985668 -0.165493
-14.7391 102.791 -3.24786 -0.0493719 -0.99237 -0.112978
-13.6939 102.82 -3.92208 -0.124532 -0.981738 -0.119742
-12.5034 102.654 -4.62172 -0.246147 -0.96123 -0.117386
-11.2337 102.307 -5.09996 -0.344762 -0.935257 -0.0759414
-10.3578 101.977 -5.31809 -0.38375 -0.921024 -0.0627702
-9.38815 101.543 -5.4413 -0.422489 -0.904798 -0.0533237
-8.30258 101.034 -5.43881 -0.428805 -0.903241 0.016775
-7.2508 100.575 -5.41119 -0.371207 -0.927941 0.0336226
-6.24259 100.156 -5.45295 -0.365471 -0.921308 0.132748
-5.25704 99.7148 -5.43976 -0.40983 -0.884299 0.215659
-4.09191 99.2761 -5.3298 -0.419117 -0.862238 0.274848
-3.20574 98.8238 -5.22045 -0.428071 -0.825966 0.366792
-2.98783 98.389 -5.98804 -0.499679 -0.811357 0.303092
-3.42522 98.3604 -6.78914 -0.560461 -0.787521 0.256308
-4.19679 98.6341 -7.5881 -0.533604 -0.826032 0.181488
-4.96292 99.0097 -8.23894 -0.559724 -0.815915 0.144882
-5.76777 99.443 -8.81102 -0.532824 -0.832071 0.154132
-6.74378 100.016 -9.37815 -0.545376 -0.832014 0.101578
-7.86243 100.769 -9.75972 -0.595004 -0.800829 0.0681351
-8.63904 101.325 -10.0151 -0.620429 -0.782137 0.0315191
-9.34679 101.864 -10.3548 -0.570898 -0.815826 -0.0922142
-10.2598 102.471 -10.4885 -0.518326 -0.84723 -0.116359
-11.1985 102.991 -10.3677 -0.407893 -0.893027 -0.186445
-12.0693 103.298 -10.1084 -0.360818 -0.911419 -0.196763
-13.0562 103.507 -9.7356 -0.230839 -0.952723 -0.197565
-14.2323 103.615 -9.08656 -0.1461 -0.972061 -0.183716
-15.3766 103.627 -8.38324 -0.0986516 -0.978403 -0.181645
-16.2618 103.59 -7.86465 -0.018068 -0.980036 -0.197999
-17.2558 103.487 -7.28239 0.00488413 -0.978506 -0.205413
-18.2084 103.332 -6.64562 0.0243124 -0.977696 -0.208579
-19.1554 103.105 -5.93671 0.099681 -0.972031 -0.212648
-19.9752 102.885 -5.36751 0.1487 -0.965402 -0.214213
-20.9652 102.577 -4.62965 0.156302 -0.967052 -0.200219
-21.9749 102.231 -3.8824 0.189002 -0.957875 -0.216227
-22.7527 101.921 -3.21796 0.20233 -0.952578 -0.22716
-23.4957 101.619 -2.6341 0.245817 -0.94124 -0.231606
-24.3189 101.273 -2.10773 0.259567 -0.936599 -0.235083
-25.2985 100.783 -1.3122 0.283831 -0.92731 -0.243781
-26.3194 100.231 -0.468151 0.294422 -0.921771 -0.252294
-27.0592 99.8209 0.172353 0.294901 -0.920489 -0.256339
-27.9437 99.3264 0.92956 0.285184 -0.92211 -0.261503
-28.6909 98.8652 1.77662 0.28116 -0.925097 -0.255236
-29.3808 98.4409 2.48987 0.282527 -0.91924 -0.274185
-30.182 97.9345 3.28395 0.296815 -0.91094 -0.286482
-30.942 97.3338 4.33915 0.317038 -0.903834 -0.287352
-31.4325 96.8854 5.11262 0.33149 -0.891746 -0.308059
-31.9357 96.3866 5.99437 0.335027 -0.888421 -0.31379
-31.9662 96.0467 6.92332 0.341703 -0.880673 -0.327695
-30.5385 97.0843 5.49541 0.327266 -0.892415 -0.310632
-29.9617 97.574 4.64637 0.306163 -0.907106 -0.288825
-29.3616 98.0336 3.82761 0.296568 -0.913578 -0.278249
-28.6825 98.4566 3.1692 0.301118 -0.91445 -0.270264
-27.9742 98.9132 2.39068 0.287219 -0.920698 -0.263994
-27.2065 99.3862 1.5531 0.30254 -0.919329 -0.251598
-26.1932 99.9557 0.683663 0.299333 -0.919256 -0.255615
-25.5071 100.337 0.0994584 0.299538 -0.920958 -0.249225
-24.8455 100.696 -0.463084 0.27631 -0.929972 -0.24249
-24.1568 101.042 -1.01141 0.262296 -0.935326 -0.236934
-23.3696 101.376 -1.51974 0.248241 -0.939975 -0.234144
-22.4373 101.75 -2.16947 0.212399 -0.953209 -0.215125
-21.7759 102.02 -2.7282 0.194603 -0.960178 -0.20047
-21.0708 102.285 -3.31057 0.18044 -0.962158 -0.203663
-20.2912 102.523 -3.89182 0.149286 -0.970957 -0.186966
-19.1363 102.847 -4.74751 0.120847 -0.974803 -0.187497
-18.0517 103.105 -5.57802 0.0401696 -0.98009 -0.192997
-17.2702 103.247 -6.13937 0.024319 -0.977697 -0.20857
-16.1548 103.38 -6.82189 -0.0257097 -0.982375 -0.182798
-15.3235 103.411 -7.31718 -0.0640018 -0.984621 -0.162556
-14.1072 103.403 -8.08232 -0.176524 -0.962634 -0.205364
-13.2974 103.338 -8.56579 -0.237151 -0.956309 -0.170972
-11.9963 103.052 -9.1578 -0.331573 -0.931867 -0.147254
-10.8895 102.646 -9.45713 -0.425421 -0.894377 -0.138231
-9.97289 102.164 -9.502 -0.512287 -0.850781 -0.117189
-9.1888 101.654 -9.23957 -0.558116 -0.828326 -0.0488126
-8.15909 100.942 -8.81568 -0.539113 -0.841208 -0.0109945
-7.06264 100.303 -8.50186 -0.510452 -0.857857 0.0530166
-6.05503 99.7659 -7.88962 -0.473639 -0.87436 0.105641
-5.11262 99.3067 -7.27429 -0.547154 -0.818109 0.176973
-4.41355 99.0525 -6.44905 -0.476165 -0.830133 0.289794
-5.37064 99.5831 -6.3477 -0.457844 -0.869887 0.183509
-6.84746 100.32 -6.37241 -0.431106 -0.899471 0.0714163
-7.70614 100.741 -6.39526 -0.461596 -0.8867 -0.00246069
-8.7591 101.276 -6.38926 -0.445297 -0.894955 -0.0262954
-9.82328 101.797 -6.33623 -0.421999 -0.905112 -0.0447368
-11.0256 102.309 -6.12384 -0.398689 -0.915809 -0.0483486
-11.8693 102.583 -5.88924 -0.317833 -0.945904 -0.0651799
-13.0666 102.857 -5.38961 -0.185674 -0.979773 -0.0746337
-13.8728 102.955 -4.94187 -0.0713506 -0.990923 -0.109952
-14.8272 102.929 -4.337 -0.0641094 -0.98844 -0.137337
-15.6179 102.884 -3.7986 -0.0446454 -0.98357 -0.174921
-16.5084 102.724 -2.96776 0.0608456 -0.985583 -0.157875
-17.3356 102.499 -1.96561 0.0744586 -0.981903 -0.174136
-18.1652 102.251 -0.962007 0.111487 -0.982192 -0.151228
-19.1035 101.929 0.118193 0.159397 -0.968688 -0.19036
-20.2133 101.495 1.27222 0.212814 -0.960559 -0.178986
-20.9143 101.227 1.87638 0.217781 -0.956554 -0.193215
-21.9726 100.775 2.61874 0.254871 -0.941672 -0.219707
-23.0161 100.338 3.19581 0.279365 -0.93176 -0.231388
-23.8445 99.9748 3.54853 0.303602 -0.921402 -0.242577
-24.891 99.5296 3.89721 0.316148 -0.916537 -0.24497
-25.8244 99.1167 4.23436 0.321518 -0.913787 -0.24818
-26.7283 98.6711 4.68236 0.316472 -0.913911 -0.254039
-27.5176 98.2948 5.03453 0.319179 -0.908816 -0.268661
-28.7451 97.754 5.40112 0.317062 -0.905117 -0.283258
-30.0407 97.1826 5.73742 0.327265 -0.892415 -0.310632
-45.2712 94.3139 -0.563664 0.247273 -0.91938 -0.305272
-45.4126 94.4182 -0.979524 0.226366 -0.919914 -0.320148
-45.2374 94.3901 -0.773458 0.229499 -0.923693 -0.306703
-45.0244 94.7493 -1.66485 0.222075 -0.921253 -0.319336
-45.2283 94.9718 -2.54805 0.212966 -0.942844 -0.256301
-45.2771 94.7607 -1.87332 0.222071 -0.921253 -0.319339
-45.1655 95.109 -3.00029 0.161963 -0.940512 -0.292089
-44.4087 95.4232 -3.72722 0.1163 -0.967512 -0.22007
-43.976 95.7537 -4.80805 0.0925858 -0.961938 -0.257106
-43.4527 96.0032 -5.89765 0.0169534 -0.96811 -0.24995
-42.9762 96.2869 -7.04422 -0.00587237 -0.974243 -0.224447
-42.5335 96.5521 -8.22872 -0.0375778 -0.979313 -0.198831
-42.1409 96.7239 -9.14497 -0.028219 -0.982687 -0.182158
-41.6171 96.895 -10.2455 -0.0434325 -0.983768 -0.174108
-41.2256 97.0476 -11.5494 -0.0648068 -0.988697 -0.134892
-40.67 97.1705 -13.0852 -0.0870821 -0.991419 -0.0964381
-40.296 97.235 -14.463 -0.0993779 -0.993033 -0.0623433
-40.0457 97.2549 -15.5081 -0.110204 -0.993018 -0.0420681
-39.771 97.2315 -16.4772 -0.123908 -0.992058 0.0216315
-39.5019 97.162 -17.5886 -0.126397 -0.989117 0.071593
-39.3103 96.9871 -18.7795 -0.0792949 -0.978574 0.189814
-39.1647 96.7851 -19.805 -0.0633533 -0.976258 0.205472
-39.1214 96.5153 -20.7956 -0.0945672 -0.955164 0.28057
-39.1965 96.1792 -21.6369 -0.0520492 -0.919715 0.389054
-39.2351 95.7737 -22.464 -0.0500886 -0.88516 0.462583
-39.2814 95.146 -23.6185 -0.0265774 -0.870697 0.491102
-39.4707 94.5697 -24.5746 0.00479992 -0.832835 0.553473
-39.7147 94.0882 -25.3027 0.00803794 -0.835319 0.549707
-40.4435 93.254 -26.3789 0.0189965 -0.800488 0.598776
-40.9522 92.7394 -26.9357 0.0687699 -0.761356 0.644676
-41.5668 92.2303 -27.4552 0.0840923 -0.711684 0.697385
-42.4003 91.7096 -27.8909 0.0806616 -0.707092 0.702489
-43.1856 91.7295 -27.7782 0.0575742 -0.697039 0.714718
-43.2501 92.4083 -27.1111 0.048324 -0.712744 0.699351
-43.2179 93.1735 -26.2979 0.0145228 -0.710781 0.702372
-43.206 93.8087 -25.6192 -0.0545288 -0.753845 0.654785
-43.2757 94.5594 -24.7931 -0.121499 -0.744597 0.65305
-43.4756 95.4021 -23.7518 -0.117961 -0.816018 0.562457
-43.8347 95.918 -23.0155 -0.144991 -0.838608 0.525084
-44.4361 96.5403 -22.0391 -0.22439 -0.881042 0.410246
-45.0179 97.1077 -21.1465 -0.237231 -0.920335 0.306847
-45.5565 97.4415 -20.4357 -0.238585 -0.935985 0.258861
-46.1781 97.7593 -19.8028 -0.213351 -0.955416 0.198011
-47.0588 98.0826 -18.7873 -0.17272 -0.975823 0.13393
-47.1458 98.1874 -17.7124 -0.177363 -0.980399 0.0852199
-46.9775 98.2212 -16.519 -0.174669 -0.983408 0.0489752
-46.8519 98.1644 -15.3926 -0.171549 -0.984439 -0.036709
-46.774 98.0455 -14.2264 -0.157784 -0.982339 -0.10057
-46.6575 97.837 -12.9759 -0.147799 -0.977836 -0.14778
-46.5451 97.6512 -12.044 -0.115133 -0.974033 -0.194949
-46.34 97.416 -10.9673 -0.0929295 -0.973406 -0.207349
-46.1132 97.1808 -10.0588 -0.0773702 -0.969689 -0.23177
-45.8473 96.929 -9.1389 -0.0755046 -0.962098 -0.262044
-45.6 96.6565 -8.20949 -0.0550994 -0.966108 -0.251091
-45.481 96.3752 -7.21719 -0.0166144 -0.961538 -0.274169
-45.3896 96.0937 -6.29138 0.00137524 -0.956995 -0.288985
-45.2414 95.7964 -5.27507 0.0360593 -0.948454 -0.314858
-45.1623 95.4647 -4.11465 0.0695054 -0.962888 -0.260797
-45.1158 95.2681 -3.43893 0.112441 -0.940626 -0.320176
-44.1911 95.9479 -5.73352 0.00578544 -0.966047 -0.2583
-44.1904 96.213 -6.69186 -0.00537401 -0.963792 -0.266601
-44.1841 96.4865 -7.78128 -0.021935 -0.967021 -0.25375
-44.1716 96.7438 -8.76868 -0.0491983 -0.972433 -0.227933
-44.1567 96.9468 -9.69017 -0.0615571 -0.976391 -0.207056
-44.1399 97.1471 -10.6826 -0.0770106 -0.980334 -0.181698
-44.1236 97.2999 -11.6386 -0.0915882 -0.983618 -0.155266
-44.1025 97.478 -12.8324 -0.121571 -0.983494 -0.134016
-44.0854 97.6054 -13.8359 -0.121329 -0.986068 -0.113798
-44.0696 97.712 -14.8881 -0.124782 -0.987747 -0.0937269
-44.0593 97.7679 -15.9609 -0.131738 -0.991247 -0.0086262
-44.0563 97.7535 -17.0727 -0.129701 -0.991019 0.0325585
-44.0624 97.6523 -18.2327 -0.187582 -0.974103 0.126241
-44.085 97.4753 -19.288 -0.191649 -0.956761 0.218815
-44.1202 97.2133 -20.2596 -0.156045 -0.939427 0.305168
-44.1693 96.8389 -21.3258 -0.174101 -0.900773 0.397866
-45.223 97.4541 -20.083 -0.19766 -0.938724 0.282362
-45.1966 97.68 -19.1513 -0.117126 -0.979054 0.166535
-45.1783 97.8476 -18.0625 -0.151679 -0.979196 0.134792
-45.1743 97.9165 -17.1552 -0.154606 -0.98779 0.0191971
-45.1819 97.9142 -16.0104 -0.155957 -0.987044 -0.0376971
-45.1917 97.8726 -15.0819 -0.133712 -0.987224 -0.0866637
-45.2063 97.7909 -14.1222 -0.148308 -0.980196 -0.131228
-45.2275 97.6566 -13.1089 -0.138768 -0.978672 -0.151475
-45.253 97.4639 -11.8766 -0.10845 -0.981716 -0.156437
-45.2707 97.3002 -10.9568 -0.0920721 -0.979146 -0.181099
-45.2902 97.1083 -10.0237 -0.0753162 -0.97021 -0.230261
-45.3005 96.987 -9.50936 -0.0754298 -0.966284 -0.246183
-43.0286 96.6696 -8.71363 -0.0409931 -0.977911 -0.20496
-43.0162 96.8772 -9.677 -0.0557139 -0.979497 -0.193603
-43.003 97.0462 -10.7106 -0.0565146 -0.986507 -0.153656
-42.9831 97.2482 -12.0554 -0.107372 -0.984959 -0.13538
-42.9658 97.4001 -13.1879 -0.111324 -0.986869 -0.117031
-42.9508 97.5212 -14.3697 -0.116183 -0.987869 -0.103036
-42.9402 97.6013 -15.4625 -0.147076 -0.988107 -0.0448604
-42.9363 97.625 -16.542 -0.127853 -0.991788 0.00307874
-42.9507 97.4876 -18.077 -0.152588 -0.975433 0.158892
-42.9863 97.2325 -19.4253 -0.103823 -0.968153 0.227819
-43.0217 96.9981 -20.375 -0.115401 -0.93618 0.332039
-43.0902 96.5009 -21.6371 -0.101076 -0.918411 0.382498
-43.1761 95.8967 -22.8676 -0.157227 -0.860732 0.48417
-43.1935 95.7946 -23.0354 -0.129862 -0.845175 0.518473
-39.8286 95.2198 -23.5174 -0.0392779 -0.862631 0.504307
-39.7606 95.8578 -22.3769 -0.0675152 -0.885694 0.459333
-39.7096 96.3055 -21.4088 -0.0717836 -0.922525 0.379203
-39.6568 96.7359 -20.1254 -0.0515746 -0.972164 0.228556
-40.6939 97.3041 -15.0371 -0.0983348 -0.993828 -0.0513434
-40.6955 97.3336 -16.2327 -0.114594 -0.993404 -0.00410621
-40.7031 97.3183 -17.1325 -0.105085 -0.99254 0.0618155
-40.734 97.1445 -18.6074 -0.0852674 -0.9766 0.19744
-40.7673 96.9405 -19.6238 -0.109221 -0.964872 0.238941
-40.8103 96.6079 -20.7918 -0.0646682 -0.938279 0.339781
-40.8724 96.0898 -22.0606 -0.0831189 -0.89572 0.436781
-40.9366 95.5792 -23.0314 -0.0463529 -0.855534 0.515668
-41.0013 94.9236 -24.0764 -0.0320237 -0.821371 0.569495
-41.0374 94.3576 -24.9011 0.00391434 -0.803734 0.594976
-41.0469 93.5574 -25.9734 0.0010066 -0.799898 0.600136
-41.047 93.5503 -25.9829 0.0214329 -0.785557 0.618418
-42.1657 92.6671 -26.9212 0.075102 -0.733506 0.675521
-42.2125 93.2888 -26.2315 0.0272652 -0.768834 0.638867
-42.2238 94.1301 -25.2449 -0.0114359 -0.777425 0.628872
-42.1678 94.9067 -24.1655 -0.0310279 -0.821157 0.569859
-42.066 95.6687 -22.9953 -0.112684 -0.850385 0.513953
-41.9732 96.3749 -21.6145 -0.110877 -0.911702 0.395607
-41.9142 96.8478 -20.3335 -0.101879 -0.951817 0.28925
-41.8783 97.1061 -19.4575 -0.115474 -0.971244 0.20821
-41.8496 97.2743 -18.5689 -0.127055 -0.973821 0.188495
-41.825 97.433 -17.407 -0.143085 -0.988159 0.0553951
-41.8171 97.4688 -16.0426 -0.112547 -0.993347 -0.0244076
-41.8202 97.4323 -15.121 -0.115713 -0.991578 -0.0581623
-41.8309 97.3298 -13.7906 -0.100873 -0.990561 -0.0928068
-41.8452 97.1868 -12.2987 -0.0792936 -0.989857 -0.117879
-41.857 97.0543 -11.2728 -0.071885 -0.987483 -0.140391
-46.3198 98.0178 -14.6872 -0.1669 -0.981575 -0.0930272
-46.3038 98.0883 -15.8377 -0.162833 -0.986139 -0.0318591
-46.296 98.0901 -17.0084 -0.140484 -0.989749 0.0257034
-46.2976 98.019 -18.1534 -0.138452 -0.985272 0.100347
-46.3034 97.9432 -18.792 -0.19458 -0.96717 0.163463
-45.9539 93.1845 2.40897 0.317706 -0.917381 -0.239739
-45.8625 92.9041 3.85886 0.315445 -0.935197 -0.16094
-45.8205 92.7748 4.83521 0.242805 -0.968261 -0.0593045
-45.7959 92.7009 5.94695 0.22081 -0.974179 -0.0470978
-45.7841 92.6793 7.20281 0.203044 -0.979019 0.0171683
-45.7835 92.7067 8.22456 0.148125 -0.988546 0.0288988
-45.788 92.7728 9.66279 0.135246 -0.989438 0.0521707
-45.7893 92.8515 10.9474 0.129913 -0.989508 0.0632213
-45.7806 92.9017 12.3387 0.0762389 -0.996927 0.0180196
-45.7704 92.9259 13.4365 0.0746271 -0.996526 0.0369783
-45.7596 92.9612 14.7192 0.0658133 -0.997709 -0.0156406
-45.7505 92.9467 15.9044 0.0863677 -0.99626 0.00264304
-45.7414 92.9395 17.0145 0.0480822 -0.998415 -0.0292442
-45.6872 92.8651 18.5822 0.0236727 -0.997755 -0.0626505
-45.6311 92.7395 19.9036 0.0616228 -0.991626 -0.113488
-45.5779 92.5618 21.1176 0.0287155 -0.985479 -0.167354
-45.5214 92.3996 22.082 0.0426493 -0.986514 -0.158023
-45.414 92.1161 23.4901 0.119365 -0.970617 -0.208936
-45.3439 91.8468 24.3878 0.0894062 -0.945545 -0.31297
-45.2294 91.4567 25.5937 0.089429 -0.944718 -0.315453
-45.0926 91.0025 26.7274 0.0539516 -0.901772 -0.428831
-44.988 90.5763 27.6265 0.0291987 -0.89528 -0.444546
-44.8593 89.9847 28.8476 -0.00819413 -0.878437 -0.477787
-44.7514 89.4734 29.6558 -0.0299804 -0.844649 -0.53448
-44.6414 88.8427 30.6014 0.035227 -0.795369 -0.6051
-44.5545 88.2112 31.3978 -0.0314292 -0.773861 -0.632575
-44.473 87.5712 32.2282 -0.0775494 -0.753132 -0.653283
-44.4173 86.7082 33.1229 -0.138416 -0.724666 -0.675055
-44.4313 85.8996 33.9297 -0.138575 -0.687879 -0.712474
-44.4377 84.9311 34.8119 -0.11757 -0.646545 -0.753762
-44.4037 84.2049 35.4012 -0.122091 -0.623651 -0.772109
-44.4036 83.3422 36.0997 -0.118585 -0.648882 -0.751591
-44.4176 82.3992 36.9144 -0.192726 -0.650614 -0.734546
-44.4317 81.9774 37.3166 -0.184377 -0.669438 -0.719624
-45.3888 81.3885 38.1182 -0.136662 -0.698243 -0.702695
-45.3979 82.1534 37.3517 -0.0814468 -0.71236 -0.697072
-45.4115 82.8708 36.6728 -0.0822072 -0.657072 -0.749332
-45.4103 83.6016 36.0496 -0.0845977 -0.635539 -0.76742
-45.4184 84.3563 35.4175 -0.0939161 -0.646524 -0.757091
-45.4614 85.1823 34.7367 -0.0969878 -0.626844 -0.773085
-45.4958 86.0542 33.949 -0.00372027 -0.711067 -0.703114
-45.5493 86.7294 33.2394 0.00817183 -0.750506 -0.660813
-45.6465 87.564 32.2388 0.0204689 -0.781134 -0.624027
-45.7607 88.3306 31.1739 0.0495369 -0.826549 -0.560681
-45.8669 88.8955 30.3781 0.10087 -0.816695 -0.568186
-46.0179 89.5789 29.338 0.088431 -0.846676 -0.52471
-46.1612 90.1604 28.3228 0.167043 -0.870788 -0.462412
-46.2757 90.6389 27.2679 0.0798397 -0.90366 -0.420743
-46.4258 91.129 26.0257 0.163009 -0.917139 -0.363709
-46.5659 91.5861 24.7724 0.139484 -0.920159 -0.365858
-46.6651 91.9152 23.7062 0.120132 -0.969845 -0.212059
-46.7518 92.1397 22.6275 0.112593 -0.969027 -0.219794
-46.8382 92.4618 21.2339 0.119889 -0.965906 -0.229461
-46.8758 92.5942 20.295 0.161677 -0.977986 -0.131922
-46.9174 92.7138 19.3739 0.130719 -0.985613 -0.107139
-46.9507 92.7725 18.3182 0.11082 -0.992141 -0.0580964
-46.9714 92.8221 17.3617 0.11055 -0.992602 -0.0501997
-46.9828 92.847 16.1781 0.0760675 -0.997049 0.010384
-46.9877 92.8407 14.9152 0.114851 -0.993321 -0.0110333
-46.9928 92.822 13.7063 0.1106 -0.992482 0.052411
-46.9971 92.7549 12.2469 0.131366 -0.990875 0.0301716
-46.9897 92.7204 11.2255 0.126923 -0.990605 0.0509142
-46.9765 92.6327 10.1029 0.133551 -0.987068 0.0886579
-46.9599 92.5523 8.98397 0.157998 -0.98411 0.0810142
-46.9428 92.4794 7.85004 0.18244 -0.980774 0.0692721
-46.9335 92.4336 6.67496 0.245551 -0.96922 0.0178241
-46.9344 92.4364 5.557 0.24232 -0.969828 -0.026754
-46.9478 92.4889 4.51128 0.307392 -0.949546 -0.0622356
-46.9734 92.5751 3.60009 0.302139 -0.940646 -0.154584
-46.9851 92.6119 3.36643 0.3136 -0.935475 -0.162915
-48.0605 92.1628 4.03119 0.341049 -0.933218 -0.113091
-48.0465 92.0965 5.37566 0.301034 -0.95322 -0.0274061
-48.0618 92.1218 6.48007 0.274694 -0.961301 0.0210433
-48.0833 92.1775 7.46765 0.238021 -0.967604 0.0841942
-48.1229 92.3014 8.79418 0.222483 -0.968422 0.112514
-48.1592 92.4224 10.0763 0.201551 -0.973955 0.103872
-48.2005 92.5476 11.4503 0.192094 -0.976656 0.0961372
-48.2236 92.6134 12.9172 0.145756 -0.987526 0.0595638
-48.2336 92.6703 13.8542 0.14885 -0.987153 0.0580706
-48.2341 92.6902 14.9794 0.131077 -0.99134 -0.00795735
-48.2194 92.6949 15.8978 0.160331 -0.986903 0.017781
-48.2068 92.6834 16.8898 0.198739 -0.979953 -0.0139578
-48.2 92.6138 18.2836 0.14925 -0.988202 -0.0343807
-48.1787 92.4784 19.6936 0.143595 -0.977666 -0.153457
-48.1068 92.2634 21.1017 0.145676 -0.976353 -0.159731
-48.0353 92.0509 22.2753 0.154195 -0.96159 -0.227089
-47.9716 91.8273 23.2672 0.168357 -0.956327 -0.238944
-47.8829 91.5595 24.2736 0.181745 -0.931281 -0.315728
-47.7151 91.0505 25.6408 0.167211 -0.922182 -0.348743
-47.5493 90.5439 27.0806 0.137955 -0.904346 -0.403889
-47.4077 89.9957 28.1827 0.170584 -0.85492 -0.489911
-47.2465 89.4337 29.1909 0.193736 -0.844938 -0.498543
-47.1294 89.03 29.9888 0.134013 -0.847542 -0.51353
-46.9744 88.2694 31.111 0.0798294 -0.82001 -0.566754
-46.8419 87.6218 32.0947 0.0754972 -0.835221 -0.544708
-46.7272 86.9184 32.9277 0.11029 -0.727901 -0.676754
-46.6265 86.2634 33.7167 0.139876 -0.737145 -0.661098
-46.525 85.4334 34.615 -0.0367786 -0.684832 -0.727772
-46.4469 84.4283 35.4329 0.0342097 -0.69053 -0.722494
-46.427 83.6789 36.0977 -0.0890328 -0.641855 -0.76164
-46.3886 82.5638 37.0491 -0.0878402 -0.65261 -0.752585
-46.3415 81.685 37.8936 -0.0465754 -0.711869 -0.700766
-46.3219 81.2405 38.3595 0.00195834 -0.707736 -0.706474
-47.2023 80.6913 38.927 -0.0178385 -0.776683 -0.629639
-47.2796 81.6982 37.8338 0.0645348 -0.734792 -0.675216
-47.3183 82.641 36.8924 0.0634199 -0.697162 -0.714103
-47.3659 83.3345 36.3117 0.102361 -0.62884 -0.770767
-47.4615 84.3241 35.4526 0.0924817 -0.666308 -0.73992
-47.5686 85.109 34.6769 0.194112 -0.685867 -0.70136
-47.6855 85.8178 33.9349 0.165654 -0.72465 -0.66891
-47.8262 86.6884 32.9542 0.260008 -0.727553 -0.634872
-47.978 87.317 32.1504 0.268277 -0.758553 -0.593823
-48.1112 87.8855 31.3177 0.242266 -0.77729 -0.580627
-48.3038 88.6258 30.2204 0.240932 -0.820448 -0.518475
-48.438 89.1074 29.2833 0.240422 -0.852041 -0.464998
-48.5692 89.5895 28.4327 0.226087 -0.826541 -0.515475
-48.7051 90.0677 27.5151 0.225465 -0.873131 -0.432212
-48.8195 90.4249 26.6718 0.23276 -0.899264 -0.370333
-48.9576 90.8147 25.6334 0.245954 -0.90054 -0.358518
-49.0908 91.2123 24.4856 0.228908 -0.912146 -0.339987
-49.175 91.4918 23.6007 0.227598 -0.922061 -0.313053
-49.2484 91.763 22.5446 0.230173 -0.947052 -0.223858
-49.3405 92.0132 21.3352 0.253889 -0.941183 -0.222967
-49.4156 92.1977 20.1095 0.199667 -0.96447 -0.173007
-49.4558 92.371 18.7997 0.185245 -0.978862 -0.0866784
-49.4495 92.4204 17.7745 0.1747 -0.983497 -0.0470514
-49.4532 92.4665 16.7133 0.175486 -0.983602 -0.0416223
-49.4754 92.5015 15.4598 0.154102 -0.987595 -0.0301441
-49.4705 92.485 14.1412 0.197857 -0.978077 0.0649496
-49.4435 92.4142 13.1104 0.210742 -0.974741 0.0739477
-49.4183 92.3587 12.1992 0.217202 -0.973806 0.0672749
-49.3743 92.2567 10.9126 0.210674 -0.971207 0.111238
-49.3191 92.1114 9.58795 0.238449 -0.963374 0.122687
-49.2551 91.9461 8.23272 0.262114 -0.958218 0.114522
-49.1968 91.8053 6.97234 0.299584 -0.950487 0.0826015
-49.1618 91.7366 5.81391 0.317663 -0.947723 0.0301872
-49.1507 91.7254 5.16434 0.314652 -0.948958 0.0217621
-50.2469 91.3098 5.65268 0.364504 -0.928729 0.0678109
-50.2851 91.3759 6.63692 0.349358 -0.929477 0.118409
-50.375 91.5594 7.99966 0.326847 -0.933326 0.148572
-50.439 91.6986 8.94461 0.297146 -0.9449 0.137365
-50.5209 91.8941 10.2596 0.26019 -0.953427 0.15257
-50.586 92.0496 11.5895 0.23675 -0.966723 0.0969287
-50.6314 92.1326 12.8744 0.227435 -0.970608 0.0786978
-50.6644 92.2062 13.7938 0.233839 -0.968919 0.0807131
-50.6853 92.2543 14.6923 0.219111 -0.974641 0.0454405
-50.6908 92.2497 15.7116 0.214407 -0.97607 -0.0362827
-50.6941 92.2215 16.781 0.213455 -0.976718 -0.0214387
-50.6916 92.1862 17.7063 0.284961 -0.954672 -0.086017
-50.6623 92.0525 18.9669 0.263378 -0.958145 -0.112206
-50.6185 91.892 20.2989 0.286528 -0.942057 -0.174442
-50.5689 91.6979 21.2919 0.240837 -0.942019 -0.233661
-50.4693 91.4294 22.5957 0.284509 -0.93672 -0.203988
-50.3891 91.202 23.5291 0.29877 -0.894691 -0.332062
-50.2894 90.8697 24.4961 0.284084 -0.900056 -0.330446
-50.1948 90.5719 25.3888 0.265456 -0.901835 -0.340919
-50.0565 90.1777 26.4053 0.297566 -0.867009 -0.399688
-49.9272 89.8176 27.2736 0.280031 -0.85122 -0.443855
-49.8003 89.4299 28.0972 0.30631 -0.829541 -0.466942
-49.5886 88.7637 29.2964 0.239639 -0.838174 -0.489936
-49.4369 88.2898 30.1744 0.278509 -0.797207 -0.535625
-49.242 87.6185 31.1811 0.267632 -0.768579 -0.581085
-49.1073 87.1019 31.9122 0.269821 -0.740443 -0.615581
-48.9414 86.4866 32.7251 0.265563 -0.739747 -0.618265
-48.7677 85.6262 33.8409 0.189691 -0.766971 -0.613003
-48.6111 84.8815 34.6321 0.186646 -0.693323 -0.696036
-48.4908 84.2532 35.3048 0.155237 -0.713327 -0.683422
-48.3555 83.4657 36.0435 0.178864 -0.613854 -0.76889
-48.2539 82.6882 36.716 0.160405 -0.674967 -0.720201
-48.2075 81.8538 37.5307 0.156888 -0.71432 -0.682007
-48.1399 80.9344 38.5392 0.109903 -0.722845 -0.682214
-48.1182 80.609 38.9489 0.0940283 -0.804017 -0.587125
-49.0108 80.4006 39.0834 0.118446 -0.794223 -0.59597
-49.0821 81.3696 37.8889 0.144295 -0.743591 -0.652879
-49.1391 82.1559 37.0176 0.16041 -0.674965 -0.720202
-49.2514 82.9413 36.2781 0.209873 -0.665299 -0.716471
-49.4255 83.6897 35.5713 0.271189 -0.613697 -0.741507
-49.5948 84.3127 34.9378 0.212275 -0.728516 -0.651309
-49.7303 84.9423 34.244 0.20814 -0.684717 -0.698455
-49.9144 85.6849 33.3428 0.313951 -0.741183 -0.593366
-50.0945 86.4078 32.3196 0.266064 -0.743143 -0.613961
-50.2475 86.9436 31.5808 0.336088 -0.748017 -0.57229
-50.4256 87.5246 30.7026 0.342228 -0.749556 -0.566609
-50.5977 88.0442 29.7574 0.390811 -0.791768 -0.469436
-50.8329 88.6801 28.6337 0.349789 -0.787126 -0.508016
-51.0011 89.1429 27.7266 0.374986 -0.799722 -0.468861
-51.161 89.5517 26.8033 0.398041 -0.820754 -0.409788
-51.3191 89.9744 25.7035 0.373863 -0.851684 -0.367235
-51.4489 90.3561 24.6669 0.354749 -0.867093 -0.349718
-51.6282 90.8793 23.223 0.331351 -0.879697 -0.341087
-51.7045 91.099 22.1553 0.325291 -0.922779 -0.206553
-51.7895 91.3571 21.2425 0.336536 -0.892592 -0.300038
-51.8422 91.5479 20.1559 0.299145 -0.944596 -0.135096
-51.8737 91.687 19.1117 0.297676 -0.944973 -0.1357
-51.9084 91.7717 18.0233 0.306836 -0.9496 -0.064126
-51.9183 91.85 16.7523 0.300961 -0.951685 -0.0609741
-51.905 91.9257 15.7085 0.296493 -0.952801 -0.0652839
-51.879 91.927 14.4058 0.311139 -0.948543 0.0588166
-51.8237 91.826 13.0913 0.329952 -0.939007 0.0969378
-51.782 91.7589 12.1481 0.3455 -0.933371 0.0972056
-51.7074 91.6194 10.8921 0.335704 -0.932688 0.131895
-51.6257 91.437 9.56456 0.293308 -0.935948 0.194864
-51.5238 91.2237 8.31169 0.317632 -0.933296 0.167537
-51.4243 91.0404 7.10392 0.359808 -0.92054 0.152134
-51.3839 90.9643 6.56883 0.345422 -0.925111 0.157647
-52.5437 90.6384 7.44941 0.408219 -0.897639 0.166135
-52.6394 90.8201 8.44753 0.384701 -0.899834 0.205678
-52.7258 90.9946 9.4103 0.382969 -0.903952 0.190276
-52.8049 91.1464 10.478 0.370511 -0.919205 0.133354
-52.8826 91.261 11.4945 0.357404 -0.927015 0.113605
-52.9733 91.3905 12.6948 0.322766 -0.937393 0.130831
-53.0427 91.4914 13.738 0.333901 -0.939746 0.0733948
-53.1014 91.5218 15.0655 0.356348 -0.933554 0.0386403
-53.1367 91.4617 16.6312 0.311049 -0.948566 -0.0589077
-53.1331 91.3942 17.8563 0.302982 -0.951142 -0.0594226
-53.1128 91.3241 18.8194 0.421799 -0.897655 -0.127679
-53.053 91.163 19.8659 0.355247 -0.919242 -0.169685
-52.9848 90.9611 20.9922 0.380565 -0.889048 -0.254487
-52.8837 90.6231 22.1601 0.362998 -0.887449 -0.28402
-52.8045 90.3376 23.2176 0.405677 -0.866433 -0.291066
-52.7096 90.0774 24.0909 0.352935 -0.866508 -0.352988
-52.5367 89.6678 25.2833 0.343232 -0.86703 -0.361179
-52.3362 89.1879 26.3318 0.408347 -0.792237 -0.453446
-52.1681 88.7635 27.3761 0.471125 -0.771188 -0.428148
-51.9666 88.3141 28.2963 0.403981 -0.768175 -0.496695
-51.7929 87.8816 29.0803 0.406164 -0.743402 -0.531399
-51.6263 87.439 29.8548 0.458111 -0.76878 -0.446219
-51.4967 87.0431 30.6688 0.439761 -0.750407 -0.493457
-51.2957 86.442 31.6209 0.336089 -0.74802 -0.572285
-51.0624 85.7569 32.5547 0.391101 -0.685277 -0.614357
-50.9097 85.2279 33.2868 0.376942 -0.703596 -0.602385
-50.7425 84.5628 34.0961 0.390702 -0.645376 -0.656386
-50.5055 83.7274 35.0456 0.384594 -0.636974 -0.668096
-50.2986 83.0319 35.824 0.294308 -0.638536 -0.711094
-50.1446 82.3246 36.5202 0.259483 -0.670185 -0.695356
-50.0104 81.5165 37.4224 0.248148 -0.729124 -0.637809
-49.9611 80.8767 38.1502 0.235609 -0.72195 -0.650597
-49.942 80.4754 38.7266 0.190528 -0.803993 -0.563288
-50.8788 80.2094 38.7612 0.244177 -0.817732 -0.52124
-50.911 80.8005 37.9133 0.264613 -0.799511 -0.539223
-51.0103 81.5515 36.9641 0.256296 -0.707754 -0.658329
-51.1412 82.1911 36.2022 0.334012 -0.671455 -0.661502
-51.3401 82.9144 35.4013 0.4002 -0.664077 -0.631539
-51.5998 83.7759 34.346 0.40222 -0.649339 -0.645428
-51.8788 84.7031 33.2521 0.410465 -0.643724 -0.645862
-52.1306 85.4774 32.1349 0.415383 -0.719123 -0.557063
-52.328 85.9914 31.377 0.454829 -0.682804 -0.571761
-52.5509 86.5941 30.335 0.553136 -0.700789 -0.450484
-52.7619 87.1953 29.2023 0.504499 -0.707273 -0.495223
-52.991 87.7157 28.1581 0.518463 -0.732518 -0.44115
-53.2141 88.1974 27.1329 0.483851 -0.737558 -0.471059
-53.421 88.657 26.1314 0.506582 -0.755889 -0.414737
-53.5884 89.0197 25.2633 0.495215 -0.758293 -0.423973
-53.805 89.4719 24.0748 0.469652 -0.816948 -0.334698
-53.9293 89.7689 23.1496 0.452016 -0.834119 -0.316114
-54.0505 90.1263 22.0508 0.45127 -0.83171 -0.32344
-54.1369 90.3929 21.1496 0.480068 -0.851406 -0.211286
-54.2006 90.564 20.2161 0.45151 -0.871653 -0.190681
-54.262 90.758 18.9548 0.42003 -0.890409 -0.175347
-54.312 90.9306 17.7566 0.389853 -0.909929 -0.141577
-54.3296 91.0165 16.7575 0.347382 -0.933554 -0.0883303
-54.3129 91.0926 15.3001 0.323526 -0.945283 0.0420849
-54.2304 91.0453 13.8821 0.358937 -0.932754 0.0336673
-54.1289 90.9386 12.5867 0.424719 -0.89351 0.145783
-54.0397 90.8276 11.6468 0.427978 -0.891351 0.149426
-53.9443 90.6911 10.7569 0.44831 -0.874737 0.183992
-53.8476 90.5473 9.81984 0.449383 -0.87774 0.166213
-53.7473 90.3875 8.75784 0.472143 -0.85736 0.204974
-53.6812 90.2742 8.18469 0.42955 -0.870125 0.241596
-54.8951 89.9571 9.67891 0.472317 -0.8608 0.189578
-55.0268 90.136 10.6467 0.463319 -0.854567 0.23463
-55.1785 90.3228 11.9227 0.431224 -0.889166 0.153067
-55.2704 90.4246 12.8453 0.531269 -0.840787 0.104071
-55.3525 90.4874 13.9263 0.53907 -0.837418 0.0901938
-55.4387 90.5674 14.8199 0.526518 -0.837223 0.147772
-55.4929 90.5763 15.7983 0.44685 -0.888495 -0.104411
-55.4836 90.4799 16.7144 0.467125 -0.88012 -0.0847469
-55.4748 90.3942 17.6188 0.466774 -0.879201 -0.0955394
-55.4654 90.2729 18.7805 0.430046 -0.894905 -0.119185
-55.3584 89.9972 20.0428 0.458178 -0.85436 -0.245239
-55.2355 89.7022 21.2153 0.507315 -0.823192 -0.254923
-55.0902 89.3209 22.5442 0.548108 -0.768018 -0.331248
-54.9313 88.9925 23.5636 0.608352 -0.733582 -0.302927
-54.7733 88.6849 24.4856 0.551656 -0.736913 -0.390685
-54.4669 88.1315 25.6273 0.554736 -0.652122 -0.516725
-54.3226 87.803 26.5063 0.628241 -0.674652 -0.387503
-54.1173 87.3906 27.351 0.524698 -0.676653 -0.516558
-53.903 86.9417 28.264 0.587541 -0.674451 -0.447115
-53.6542 86.413 29.315 0.539141 -0.685709 -0.489008
-53.447 85.8311 30.4216 0.545308 -0.700846 -0.459841
-53.2656 85.3887 31.1848 0.547942 -0.644393 -0.533401
-52.9884 84.6342 32.4018 0.556331 -0.649539 -0.518261
-52.7858 84.085 33.2459 0.462947 -0.618935 -0.634507
-52.5755 83.4986 33.9772 0.46324 -0.628972 -0.624342
-52.3808 82.8126 34.8245 0.461961 -0.648118 -0.605422
-52.2032 82.2177 35.586 0.43218 -0.653511 -0.621405
-52.0531 81.6354 36.3302 0.363805 -0.708041 -0.605247
-51.9223 81.0077 37.1197 0.323259 -0.710991 -0.624496
-51.8658 80.4055 38.0054 0.284173 -0.807302 -0.517213
-52.8224 80.4298 37.3531 0.350058 -0.778342 -0.521194
-52.966 81.1845 36.2447 0.40285 -0.703086 -0.585989
-53.132 81.7892 35.3996 0.438971 -0.698446 -0.565224
-53.3745 82.642 34.2489 0.461958 -0.648115 -0.605427
-53.6135 83.3612 33.2588 0.588327 -0.594537 -0.548085
-53.8056 83.8776 32.4389 0.591372 -0.621091 -0.51432
-54.0143 84.3645 31.616 0.581647 -0.632851 -0.511064
-54.2254 84.8995 30.7269 0.599391 -0.631901 -0.491358
-54.5308 85.6095 29.3603 0.625901 -0.6366 -0.450541
-54.7052 85.9934 28.5363 0.638363 -0.63662 -0.432676
-54.9828 86.5767 27.2981 0.630622 -0.632061 -0.450349
-55.2004 87.0124 26.3483 0.653817 -0.636295 -0.409453
-55.4863 87.5448 25.1505 0.641191 -0.602911 -0.474733
-55.7467 87.968 24.1339 0.662132 -0.655671 -0.362873
-55.9992 88.3792 22.9985 0.671348 -0.611476 -0.418794
-56.1896 88.7202 22.1179 0.548109 -0.768018 -0.331248
-56.3102 89.0399 21.0638 0.537909 -0.787085 -0.301912
-56.433 89.3725 19.6914 0.612985 -0.771873 -0.168703
-56.5207 89.5882 18.4629 0.536433 -0.818442 -0.205893
-56.5771 89.8 17.2494 0.55894 -0.818951 -0.130023
-56.5803 89.9028 16.0417 0.578788 -0.81538 -0.0126392
-56.4913 89.8646 14.7392 0.562498 -0.816373 0.130889
-56.3675 89.7866 13.4432 0.564372 -0.822127 0.0747716
-56.2609 89.7089 12.194 0.545427 -0.825561 0.144769
-56.1347 89.5884 11.1837 0.563206 -0.80929 0.166878
-56.1267 89.5802 11.1246 0.555934 -0.807519 0.197105
-57.2896 89.0098 12.4376 0.602295 -0.794613 0.0763631
-57.3895 89.0383 13.5212 0.597541 -0.798768 0.0701026
-57.5054 89.0938 14.5894 0.666645 -0.740108 0.0884597
-57.5611 89.0849 15.6671 0.680238 -0.728227 -0.0834318
-57.5465 88.9962 16.5998 0.686135 -0.725463 -0.0540479
-57.5668 88.8881 17.9865 0.724811 -0.677384 -0.125696
-57.4285 88.6264 19.1892 0.636274 -0.739857 -0.218554
-57.3184 88.3202 20.5102 0.719102 -0.65006 -0.245591
-57.18 88.0232 21.4566 0.709149 -0.61241 -0.349373
-56.9877 87.6929 22.3695 0.692616 -0.59872 -0.402265
-56.7184 87.304 23.3916 0.701556 -0.578028 -0.416777
-56.5143 86.9973 24.2316 0.731787 -0.563426 -0.383457
-56.257 86.5632 25.3159 0.738203 -0.539732 -0.404656
-55.9568 86.0193 26.504 0.700667 -0.560866 -0.441016
-55.7522 85.5756 27.4985 0.718874 -0.563355 -0.407249
-55.537 85.1633 28.432 0.707819 -0.563704 -0.425711
-55.2465 84.615 29.6708 0.694188 -0.581413 -0.424336
-55.0647 84.1915 30.5093 0.676796 -0.599894 -0.426702
-54.8971 83.7889 31.314 0.64245 -0.605041 -0.470303
-54.6667 83.2802 32.1969 0.602824 -0.590729 -0.536323
-54.4163 82.6445 33.2349 0.539081 -0.647915 -0.538143
-54.1846 81.808 34.5124 0.537768 -0.664143 -0.519345
-53.963 81.0633 35.5984 0.473172 -0.691278 -0.546117
-53.8556 80.6246 36.2986 0.436447 -0.744173 -0.505687
-54.9294 80.7902 35.1203 0.503339 -0.723832 -0.471929
-55.0374 81.2506 34.3386 0.541781 -0.660949 -0.51925
-55.1815 81.8035 33.4846 0.572951 -0.668429 -0.474268
-55.349 82.2427 32.6615 0.598353 -0.64716 -0.472395
-55.6063 82.8262 31.5854 0.642144 -0.605972 -0.469521
-55.853 83.4076 30.3681 0.728423 -0.570747 -0.379011
-56.0564 83.864 29.3379 0.714308 -0.567822 -0.409075
-56.3034 84.3088 28.2487 0.714865 -0.579729 -0.391002
-56.54 84.768 27.1643 0.771116 -0.50597 -0.386491
-56.8457 85.2939 25.8931 0.767546 -0.498761 -0.40263
-57.1257 85.8379 24.6627 0.764088 -0.509022 -0.396315
-57.3464 86.229 23.7556 0.76397 -0.471547 -0.440447
-57.6933 86.6199 22.732 0.767522 -0.512232 -0.385393
-57.9378 86.9836 21.5734 0.763538 -0.558832 -0.323599
-58.1283 87.3486 20.325 0.796634 -0.555566 -0.238161
-58.2155 87.5962 19.3942 0.796581 -0.565807 -0.212887
-58.3252 87.831 18.3721 0.797733 -0.561629 -0.219534
-58.4519 88.0202 17.4675 0.709317 -0.701836 -0.0655409
-58.4527 88.1451 16.2401 0.705503 -0.704429 -0.0777562
-58.4661 88.2642 14.8865 0.702329 -0.71139 0.0256424
-58.457 88.2616 14.796 0.666372 -0.740372 0.0883025
-59.1738 87.0319 17.3145 0.858308 -0.500247 -0.11428
-59.0166 86.7462 18.6223 0.8064 -0.555354 -0.203225
-58.8525 86.4042 19.964 0.819786 -0.517335 -0.245593
-58.6361 86.0082 21.2934 0.845691 -0.435741 -0.308117
-58.4126 85.7014 22.3141 0.852706 -0.392347 -0.344899
-58.0618 85.299 23.4934 0.816031 -0.440737 -0.373958
-57.7927 84.8431 24.5688 0.788916 -0.472331 -0.393085
-57.5601 84.4047 25.5894 0.796881 -0.477412 -0.370215
-57.3386 84.0249 26.5287 0.785205 -0.480974 -0.390022
-57.1571 83.6754 27.4191 0.777762 -0.517721 -0.356442
-56.9267 83.2373 28.5506 0.771643 -0.52485 -0.359304
-56.7366 82.9109 29.396 0.75657 -0.539338 -0.369752
-56.5905 82.5338 30.3005 0.719497 -0.588115 -0.369384
-56.4035 82.0854 31.3059 0.668855 -0.635955 -0.384961
-56.2273 81.6317 32.3107 0.663382 -0.619966 -0.419007
-56.0455 81.1581 33.2847 0.602375 -0.673865 -0.427844
-56.0196 81.0827 33.4399 0.602375 -0.673865 -0.427844
-43.4369 83.0477 36.0836 -0.252167 -0.641256 -0.724709
-43.406 83.783 35.4412 -0.26567 -0.612816 -0.744228
-43.4017 84.7949 34.637 -0.237114 -0.624344 -0.744293
-43.3856 85.568 33.9273 -0.223497 -0.651946 -0.724579
-43.3415 86.4126 33.1466 -0.212826 -0.658309 -0.722035
-43.3477 87.3172 32.2799 -0.20015 -0.686167 -0.699367
-43.3731 87.9744 31.6311 -0.0621799 -0.763913 -0.642317
-43.436 88.7635 30.6678 -0.102902 -0.772761 -0.6263
-43.5128 89.3937 29.7006 -0.0523523 -0.83216 -0.552059
-43.6068 89.9031 28.8983 0.0471015 -0.849771 -0.525043
-43.6883 90.3941 28.0806 0.0238336 -0.886457 -0.462196
-43.829 91.0981 26.6783 0.0366414 -0.888942 -0.456552
-43.9614 91.5439 25.542 0.0610485 -0.929098 -0.364761
-44.0635 91.8595 24.5783 0.0268823 -0.954565 -0.296788
-44.1641 92.2823 23.0845 -0.0116111 -0.971168 -0.238114
-44.2593 92.5326 21.6794 0.0574214 -0.987169 -0.149
-44.3386 92.7215 20.2974 0.0440538 -0.990843 -0.12763
-44.3799 92.8433 19.3954 0.0267513 -0.994677 -0.0995058
-44.4475 92.9447 17.7842 0.0227984 -0.997741 -0.0631916
-44.4831 92.9839 16.6974 0.0260698 -0.998999 -0.0363584
-44.507 93.0057 15.7832 0.0304326 -0.999507 -0.00777713
-44.5377 93.0157 14.399 0.0267802 -0.999576 -0.0114054
-44.5531 93.0112 13.3847 0.024611 -0.999567 0.0161335
-44.5646 92.9924 12.4355 0.0525414 -0.998015 0.0347172
-44.577 92.9492 11.2601 0.062871 -0.997401 0.0351977
-44.5853 92.9256 10.2271 0.0810391 -0.99654 0.018434
-44.5941 92.8993 9.3136 0.0830906 -0.996086 0.0301445
-44.6104 92.8919 8.15934 0.117345 -0.993006 -0.0129708
-44.6212 92.8794 7.16571 0.15799 -0.987149 -0.0239784
-44.644 92.9383 6.11286 0.178183 -0.981444 -0.0708439
-44.6752 93.0289 5.27807 0.23203 -0.965259 -0.120156
-43.4575 93.0702 6.96767 0.126946 -0.98468 -0.119538
-43.4287 93.0052 7.96401 0.117034 -0.991957 -0.0482177
-43.4048 92.9708 9.15074 0.0896182 -0.995965 0.00469558
-43.394 92.9922 10.172 0.039542 -0.998917 0.0245314
-43.3807 93.0156 11.3357 0.054224 -0.998426 0.0143615
-43.3564 93.0352 12.6263 0.0299712 -0.999528 0.00668884
-43.3183 93.0437 13.999 0.0315205 -0.999496 0.00376697
-43.2821 93.0457 15.1465 0.0305512 -0.999527 -0.0035987
-43.2365 93.028 16.4622 0.0242736 -0.999429 -0.0234963
-43.1964 92.9953 17.5751 0.0345826 -0.998875 -0.0324593
-43.1459 92.9405 18.7034 0.0477144 -0.996104 -0.0741598
-43.1081 92.8708 19.6167 0.0516326 -0.991656 -0.118122
-43.0574 92.7583 20.5833 0.0397016 -0.991234 -0.126012
-43.0013 92.6208 21.5255 0.0410854 -0.986791 -0.156699
-42.9459 92.465 22.4521 0.0300131 -0.979096 -0.201174
-42.8777 92.2458 23.4693 0.0489539 -0.95601 -0.289222
-42.8029 91.945 24.3977 0.00746419 -0.961323 -0.275321
-42.6888 91.6431 25.4549 -0.00860528 -0.958241 -0.285832
-42.6091 91.2203 26.5553 0.0459591 -0.90674 -0.419178
-42.5274 90.7014 27.5278 -0.04552 -0.88076 -0.471371
-42.4459 90.1449 28.5512 -0.0469045 -0.857036 -0.513117
-42.3223 89.3667 29.6997 -0.0192003 -0.822814 -0.567987
-42.2605 88.6487 30.6083 -0.107666 -0.764866 -0.635129
-42.2402 87.9382 31.3987 -0.173906 -0.684257 -0.708201
-42.2493 87.1376 32.1674 -0.169679 -0.677064 -0.716096
-42.2961 86.4216 32.8257 -0.226773 -0.65819 -0.717885
-42.3433 85.3586 33.7966 -0.288731 -0.635598 -0.715996
-42.3779 84.2595 34.7082 -0.311785 -0.568758 -0.761121
-42.3843 84.1358 34.8033 -0.311783 -0.568757 -0.761122
-41.3009 85.6421 33.1501 -0.270921 -0.607827 -0.746423
-41.2258 86.461 32.46 -0.254683 -0.612469 -0.748344
-41.1393 87.4276 31.558 -0.236871 -0.669158 -0.704358
-41.1072 88.3519 30.6682 -0.220313 -0.666181 -0.712507
-41.1403 89.0041 29.9275 -0.162134 -0.771731 -0.614934
-41.2191 89.8397 28.8161 -0.133976 -0.817089 -0.560728
-41.2918 90.4303 27.9247 -0.036506 -0.883088 -0.467786
-41.388 91.0566 26.7169 -0.0214705 -0.896228 -0.443074
-41.4489 91.4807 25.7732 -0.0361661 -0.932501 -0.359353
-41.5105 91.7837 24.9068 -0.0167314 -0.953446 -0.301098
-41.6057 92.1091 23.8751 -0.0149653 -0.95486 -0.296678
-41.6846 92.385 22.8439 0.000845467 -0.975195 -0.221347
-41.745 92.6053 21.851 0.0187763 -0.988 -0.153311
-41.7879 92.7442 20.9347 -0.021529 -0.9936 -0.110883
-41.8532 92.8704 19.8205 -0.0221414 -0.993643 -0.110374
-41.9194 92.9769 18.5905 0.00843271 -0.998356 -0.0567015
-41.9713 93.0244 17.4524 0.0158824 -0.999404 -0.0306537
-42.0087 93.0546 16.4084 0.0165682 -0.999624 -0.0218585
-42.0413 93.0724 15.475 0.0149978 -0.999788 -0.0140779
-42.0742 93.0803 14.4913 0.0119458 -0.999912 -0.00575861
-42.1056 93.0731 13.5786 0.0239579 -0.999632 0.0127247
-42.1436 93.0606 12.3824 0.0191271 -0.999749 0.0116532
-42.192 93.0374 11.1003 0.0180949 -0.999663 0.0185872
-42.2125 93.0489 9.94483 0.0585819 -0.998121 -0.0179605
-42.2298 93.0913 8.81228 0.120048 -0.989455 -0.0810388
-42.2399 93.1191 8.34238 0.134182 -0.989057 -0.0613346
-41.0331 93.1718 9.36591 0.121254 -0.985514 -0.118571
-40.9957 93.1183 10.3316 0.0626087 -0.997961 -0.012391
-40.9395 93.1113 11.7355 0.0307094 -0.999309 -0.0209606
-40.9083 93.0806 12.7827 0.0073232 -0.999973 -0.00109737
-40.8779 93.0877 13.6893 0.00673496 -0.999955 0.00667401
-40.8439 93.0899 14.7931 0.0116163 -0.999932 -0.000377563
-40.8029 93.0756 16.0002 0.0121843 -0.999636 -0.0240825
-40.759 93.0318 17.1836 -0.0252135 -0.998036 -0.0573393
-40.7051 92.9741 18.3301 -0.0282911 -0.998795 -0.0401038
-40.626 92.8626 19.648 -0.0201157 -0.993711 -0.110153
-40.5741 92.7468 20.6778 -0.022607 -0.993684 -0.109918
-40.5288 92.5921 21.7494 -0.0680621 -0.975721 -0.208175
-40.4608 92.3349 22.8686 -0.0598818 -0.971976 -0.227327
-40.3503 92.0069 24.0905 -0.045879 -0.958322 -0.281983
-40.2817 91.7037 25.0653 -0.064688 -0.9498 -0.306098
-40.2132 91.2656 26.195 -0.0381712 -0.908963 -0.415125
-40.1318 90.6933 27.332 -0.135531 -0.870728 -0.472721
-40.0666 89.9796 28.4268 -0.116077 -0.788057 -0.60456
-40.0196 89.2463 29.3665 -0.117283 -0.781803 -0.612396
-40.0232 88.3362 30.3783 -0.184804 -0.665805 -0.722877
-40.0619 87.4867 31.136 -0.230918 -0.61147 -0.756823
-40.1 86.8234 31.75 -0.284745 -0.625142 -0.726717
-40.1595 86.4024 32.1006 -0.295658 -0.586311 -0.754206
-39.0529 87.2336 31.008 -0.276451 -0.61024 -0.742416
-38.9733 88.1479 30.2519 -0.244574 -0.620691 -0.744934
-38.8913 88.925 29.5137 -0.204304 -0.714942 -0.668669
-38.8863 89.5991 28.6829 -0.16849 -0.75994 -0.627776
-38.9091 90.2272 27.7573 -0.16509 -0.823897 -0.542161
-38.9622 90.8109 26.8247 -0.113984 -0.855028 -0.5059
-39.0398 91.3681 25.6749 -0.113753 -0.942928 -0.312965
-39.1116 91.8007 24.4196 -0.0932955 -0.939417 -0.329836
-39.2068 92.1928 23.1354 -0.0716027 -0.972597 -0.221196
-39.3024 92.4369 21.9944 -0.077541 -0.980107 -0.182694
-39.3462 92.6148 21.0857 -0.0952412 -0.98013 -0.173997
-39.3923 92.7873 19.9605 -0.066234 -0.991798 -0.109313
-39.4488 92.8849 18.8852 -0.0547544 -0.996623 -0.0611893
-39.4993 92.9711 17.8316 -0.0112891 -0.995987 -0.0887878
-39.5446 93.0411 16.6485 -0.0172178 -0.998455 -0.0528243
-39.5971 93.0903 15.4319 -0.0330509 -0.999135 -0.025241
-39.6501 93.0924 14.2148 -0.000669074 -0.999977 0.00673569
-39.6843 93.0888 13.1721 0.0143221 -0.999804 -0.0136623
-39.7174 93.1039 12.0634 0.0498144 -0.997966 -0.039771
-39.7544 93.1753 11.0426 0.0496255 -0.996114 -0.072766
-39.7967 93.2512 10.0119 0.077151 -0.99549 -0.0551953
-38.5526 93.2403 11.1316 0.0842504 -0.989868 -0.114297
-38.5198 93.169 12.1713 0.0638978 -0.994509 -0.0828736
-38.4774 93.1198 13.2781 0.0241334 -0.999233 -0.0308394
-38.423 93.0703 14.5075 -0.0171024 -0.99963 -0.0211431
-38.3745 93.049 15.4768 -0.0325018 -0.998804 -0.0365242
-38.3344 93.0164 16.4343 -0.0300533 -0.999013 -0.0327024
-38.2912 92.9658 17.5852 -0.0813319 -0.992403 -0.0923167
-38.2515 92.8483 18.6073 -0.0494093 -0.991876 -0.117224
-38.2025 92.742 19.5585 -0.105257 -0.98887 -0.105151
-38.1539 92.6135 20.5476 -0.115503 -0.976024 -0.184488
-38.1149 92.4295 21.4378 -0.0991824 -0.981144 -0.165888
-38.0277 92.234 22.5422 -0.0883735 -0.980717 -0.17431
-37.9629 91.9743 23.5037 -0.110073 -0.955094 -0.275098
-37.9027 91.5819 24.6484 -0.117536 -0.925747 -0.359414
-37.8524 91.2343 25.5733 -0.160047 -0.92519 -0.344105
-37.7863 90.808 26.5624 -0.149919 -0.883598 -0.443598
-37.7517 90.313 27.3167 -0.144012 -0.812637 -0.564696
-37.744 89.7243 28.1586 -0.182908 -0.815503 -0.54909
-37.7703 89.1108 28.9674 -0.202992 -0.724382 -0.658836
-37.8638 88.4421 29.6516 -0.253837 -0.584756 -0.770472
-37.9476 87.9819 30.0282 -0.253727 -0.584318 -0.770841
-36.6737 89.2577 28.2704 -0.306469 -0.7025 -0.642317
-36.6236 89.9087 27.5282 -0.238733 -0.762028 -0.60193
-36.6205 90.4711 26.7203 -0.219782 -0.877782 -0.42567
-36.6894 91.0344 25.4961 -0.177543 -0.903915 -0.389122
-36.7316 91.446 24.5856 -0.152065 -0.913131 -0.378244
-36.7671 91.7254 23.6129 -0.17714 -0.950645 -0.254747
-36.828 92.0619 22.5098 -0.172277 -0.943215 -0.284019
