-5.07906 100.563 -7.88782 -0.421355 -0.90252 0.0772587
-4.79196 100.383 -8.18394 -0.478454 -0.866165 0.143668
-5.58338 100.797 -8.34231 -0.463581 -0.884601 0.0507236
-6.66457 101.398 -8.88868 -0.533299 -0.845589 0.0239161
-7.82583 102.118 -9.1822 -0.529413 -0.847291 -0.0426558
-8.56594 102.596 -9.37612 -0.541815 -0.83713 -0.0635251
-9.45172 103.152 -9.58508 -0.514562 -0.852873 -0.0885013
-10.3354 103.638 -9.54263 -0.401734 -0.90171 -0.159777
-11.2161 103.971 -9.22085 -0.350244 -0.918235 -0.177723
-12.1517 104.192 -8.6691 -0.318536 -0.93931 -0.127401
-13.0093 104.281 -8.17086 -0.179729 -0.963801 -0.196938
-13.8195 104.346 -7.70882 -0.126803 -0.980738 -0.1483
-14.5989 104.357 -7.15405 -0.118102 -0.982124 -0.146576
-15.7692 104.3 -6.41469 0.00996385 -0.986145 -0.165586
-16.8025 104.144 -5.80345 0.0657937 -0.980795 -0.183607
-17.6968 103.959 -5.21878 0.108702 -0.975861 -0.189419
-18.501 103.759 -4.66671 0.128166 -0.971646 -0.198355
-19.3356 103.539 -4.10669 0.149067 -0.964397 -0.215921
-20.2326 103.235 -3.50859 0.187465 -0.957347 -0.219584
-21.2415 102.835 -2.69612 0.203879 -0.952715 -0.225264
-21.9671 102.525 -2.07042 0.211611 -0.949506 -0.231644
-22.9791 102.066 -1.23576 0.249368 -0.93655 -0.246351
-23.862 101.627 -0.471604 0.270733 -0.932138 -0.240465
-24.6764 101.184 0.240998 0.305289 -0.919393 -0.248024
-25.5423 100.696 0.977439 0.308329 -0.918151 -0.248862
-26.2911 100.25 1.67735 0.314193 -0.915316 -0.251951
-27.0533 99.7614 2.49227 0.315097 -0.914349 -0.254323
-27.9582 99.2037 3.41835 0.302628 -0.918304 -0.255214
-27.4852 99.1798 4.01838 0.31135 -0.912515 -0.264789
-26.5129 99.6241 3.66411 0.318045 -0.913387 -0.254108
-25.6217 99.9701 3.53431 0.318825 -0.91384 -0.251488
-24.7123 100.352 3.31887 0.327671 -0.913204 -0.24226
-23.9217 100.705 3.02965 0.315328 -0.918107 -0.240095
-22.8251 101.206 2.48419 0.28487 -0.928087 -0.2398
-21.81 101.639 1.89955 0.267689 -0.937008 -0.224408
-20.7712 102.049 1.27697 0.241702 -0.949412 -0.200217
-20.0394 102.341 0.739732 0.233671 -0.951278 -0.201166
-19.1657 102.71 -0.169812 0.175597 -0.964538 -0.197059
-18.2997 103.076 -1.20697 0.153639 -0.969412 -0.190322
-17.7195 103.289 -1.89488 0.133754 -0.973009 -0.18805
-17.0532 103.552 -2.68792 0.122677 -0.970744 -0.205604
-16.498 103.746 -3.4456 0.0865148 -0.981659 -0.169725
-15.8329 103.952 -4.3047 0.0356301 -0.98637 -0.154519
-15.0993 104.056 -5.05461 -0.00165434 -0.985944 -0.165624
-14.3359 104.097 -5.55211 -0.0986425 -0.986692 -0.129102
-13.1249 104.038 -6.22144 -0.128374 -0.986028 -0.106159
-12.3033 103.913 -6.6628 -0.27113 -0.95177 -0.142312
-11.4577 103.737 -7.05184 -0.31163 -0.939633 -0.132137
-10.441 103.381 -7.41355 -0.368008 -0.923356 -0.109472
-9.49785 102.967 -7.59494 -0.467992 -0.877157 -0.107605
-8.53106 102.453 -7.73688 -0.50163 -0.861917 -0.073941
-7.17745 101.694 -7.97339 -0.48828 -0.872553 -0.0153146
-6.21271 101.13 -8.28253 -0.498437 -0.865097 0.0373117
-5.43177 100.758 -7.7285 -0.460282 -0.885351 0.0655325
-5.37495 100.8 -6.69437 -0.370649 -0.926582 0.0374248
-6.26013 101.177 -6.84945 -0.41772 -0.908051 -0.00729141
-7.10327 101.596 -6.83053 -0.466172 -0.883753 -0.0253998
-7.91652 102.035 -6.69831 -0.475241 -0.878287 -0.0525155
-8.76155 102.49 -6.5986 -0.478701 -0.873904 -0.0801843
-10.0801 103.129 -6.41734 -0.444522 -0.889154 -0.108652
-11.4054 103.547 -5.90659 -0.311515 -0.939155 -0.14473
-12.192 103.719 -5.48371 -0.238881 -0.962665 -0.12514
-13.0552 103.885 -5.02171 -0.174561 -0.974712 -0.121373
-14.3367 103.938 -4.19581 -0.0595718 -0.98946 -0.114374
-15.2872 103.769 -3.11851 0.0162185 -0.986397 -0.163578
-16.084 103.545 -2.09209 0.139663 -0.977849 -0.155904
-16.8599 103.256 -1.13896 0.138845 -0.970548 -0.19649
-17.4361 103.043 -0.443874 0.127079 -0.97278 -0.193779
-18.1831 102.78 0.443055 0.162753 -0.970095 -0.180074
-19.0538 102.422 1.40141 0.205996 -0.957128 -0.203644
-19.8472 102.126 1.98387 0.227616 -0.952826 -0.200782
-20.8831 101.72 2.64997 0.254062 -0.94353 -0.212609
-21.7048 101.374 3.1535 0.273844 -0.936878 -0.21738
-22.6928 100.957 3.65728 0.29685 -0.929895 -0.217197
-23.7132 100.501 4.10232 0.327187 -0.917455 -0.22633
-24.7207 100.056 4.42203 0.327654 -0.913234 -0.242171
-25.7932 99.5999 4.67664 0.333089 -0.910794 -0.243939
-26.9108 99.1066 4.99311 0.32571 -0.906139 -0.269861
-27.9149 98.6664 5.25783 0.318078 -0.907732 -0.273436
-28.7714 98.3156 5.45203 0.317907 -0.904367 -0.284429
-29.755 97.9814 5.41319 0.310557 -0.903122 -0.29652
-29.969 98.3213 4.11895 0.310379 -0.903312 -0.29601
-29.2783 98.822 3.26895 0.305379 -0.908055 -0.286669
-28.4979 99.3005 2.42988 0.293084 -0.920583 -0.257925
-27.8284 99.7248 1.70344 0.298754 -0.917386 -0.262962
-27.1509 100.158 0.95678 0.307715 -0.915414 -0.259476
-26.2682 100.675 0.16348 0.30505 -0.918263 -0.252465
-25.2037 101.272 -0.734358 0.302787 -0.919946 -0.249038
-24.533 101.644 -1.33127 0.28 -0.929403 -0.240386
-23.6294 102.124 -2.11417 0.265218 -0.932232 -0.245626
-22.9684 102.429 -2.65954 0.232134 -0.942821 -0.239168
-21.993 102.848 -3.43305 0.205362 -0.951421 -0.229399
-21.0153 103.257 -4.27187 0.190296 -0.954179 -0.230934
-20.16 103.564 -4.86154 0.176593 -0.957334 -0.22875
-19.237 103.837 -5.44456 0.120243 -0.969775 -0.212314
-18.3584 104.069 -6.06855 0.094858 -0.973746 -0.206909
-17.571 104.261 -6.59684 0.073205 -0.975482 -0.206276
-16.733 104.398 -7.07213 0.0444984 -0.980995 -0.188863
-15.9051 104.507 -7.58676 0.000228547 -0.983637 -0.180161
-14.8227 104.569 -8.38222 -0.105927 -0.978211 -0.175898
-14.0267 104.6 -8.89183 -0.129516 -0.971795 -0.193388
-12.6717 104.508 -9.56481 -0.223038 -0.952561 -0.19501
-11.8097 104.335 -10.0563 -0.28645 -0.94071 -0.18157
-10.9134 104.081 -10.5207 -0.399447 -0.896008 -0.193939
-10.0738 103.683 -10.7258 -0.514946 -0.841256 -0.164679
-9.11421 103.071 -10.7034 -0.574539 -0.807222 -0.133565
-8.1414 102.35 -10.3884 -0.549657 -0.834453 -0.0309921
-7.12118 101.649 -10.1321 -0.589662 -0.807461 0.017482
-6.37135 101.168 -9.8798 -0.544372 -0.836746 0.0564353
-5.57616 100.675 -9.57106 -0.523014 -0.848552 0.0801038
-4.83129 100.241 -9.30193 -0.52124 -0.847593 0.0978524
-3.80355 99.6742 -8.74328 -0.555369 -0.808697 0.19384
-2.99477 99.3013 -8.09708 -0.540075 -0.813629 0.21502
-2.30532 99.1175 -7.27069 -0.558272 -0.778086 0.287949
-2.58457 99.5799 -6.40423 -0.502925 -0.840831 0.197806
-3.6582 100.139 -6.49992 -0.309328 -0.949703 0.048778
-4.57939 100.48 -6.57252 -0.384155 -0.919786 0.0801146
-5.34096 100.788 -6.68865 -0.365558 -0.927152 0.0805713
-5.33352 100.878 -5.56759 -0.380357 -0.921673 0.0764653
-4.41765 100.503 -5.50122 -0.3763 -0.923969 0.0678299
-3.37956 100.133 -5.44352 -0.323042 -0.929607 0.158836
-2.0893 99.6133 -5.29418 -0.387902 -0.899942 0.199088
-1.00309 98.9961 -5.42166 -0.486602 -0.79677 0.358296
-0.707363 98.51 -6.06413 -0.535083 -0.747518 0.393578
-1.04326 98.2802 -7.08819 -0.573093 -0.750617 0.328846
-1.77378 98.4281 -8.12715 -0.582064 -0.763887 0.276819
-2.59261 98.7332 -8.97429 -0.589584 -0.771288 0.239805
-3.39064 99.1816 -9.60615 -0.597393 -0.784151 0.168011
-4.3327 99.774 -10.1816 -0.578032 -0.802209 0.145439
-5.05316 100.225 -10.507 -0.563121 -0.821751 0.0872964
-5.76996 100.69 -10.7971 -0.566934 -0.820319 0.0736898
-6.58732 101.218 -11.0667 -0.548125 -0.833371 0.070269
-7.75481 102.005 -11.4017 -0.605902 -0.78614 0.121931
-8.6505 102.872 -11.7679 -0.720164 -0.689347 -0.0332305
-9.40372 103.47 -11.8667 -0.554155 -0.807378 -0.202616
-10.2284 103.981 -11.7758 -0.450844 -0.847616 -0.277563
-11.0903 104.394 -11.5598 -0.468362 -0.848332 -0.246922
-12.1387 104.672 -11.0803 -0.308646 -0.911458 -0.271996
-12.9434 104.798 -10.5984 -0.198785 -0.931669 -0.297906
-14.0789 104.867 -10.1124 -0.166577 -0.959403 -0.227592
-14.9542 104.831 -9.58682 -0.0906037 -0.975599 -0.199994
-16.0334 104.741 -8.84975 -0.020556 -0.97778 -0.208326
-16.9817 104.624 -8.1818 0.00242876 -0.975687 -0.218519
-18.3436 104.359 -7.35621 0.0860662 -0.968789 -0.232317
-19.108 104.17 -6.82547 0.113345 -0.965044 -0.234208
-19.9424 103.926 -6.30567 0.131137 -0.970077 -0.204339
-20.796 103.666 -5.78057 0.169937 -0.95858 -0.228481
-21.5581 103.38 -5.19005 0.177711 -0.952459 -0.24747
-22.299 103.068 -4.57753 0.199346 -0.949481 -0.242377
-23.0619 102.735 -3.9312 0.222252 -0.943042 -0.247539
-23.7256 102.437 -3.39169 0.240438 -0.938196 -0.248241
-24.993 101.804 -2.39328 0.266026 -0.927316 -0.263277
-25.689 101.4 -1.74062 0.291668 -0.91706 -0.271902
-26.4074 100.989 -1.12668 0.305733 -0.912749 -0.270553
-27.258 100.532 -0.489915 0.293462 -0.918735 -0.26421
-28.0319 100.06 0.279606 0.302301 -0.919779 -0.250242
-28.9623 99.5062 1.21264 0.281762 -0.922451 -0.263997
-29.5066 99.1525 1.8673 0.281835 -0.92239 -0.26413
-30.1159 98.7624 2.58781 0.282104 -0.917991 -0.278241
-30.7005 98.3782 3.20757 0.305535 -0.905694 -0.293358
-31.1117 97.9874 3.94453 0.320809 -0.89902 -0.298069
-31.2836 97.5394 5.07177 0.349098 -0.887018 -0.302209
-30.9261 97.2438 6.3152 0.335689 -0.889668 -0.309522
-29.9039 97.529 6.58995 0.327679 -0.892082 -0.311154
-28.9457 97.8863 6.59626 0.332114 -0.902277 -0.27495
-27.8136 98.3709 6.36885 0.327863 -0.904122 -0.273967
-26.9411 98.7604 6.11795 0.323937 -0.90623 -0.271673
-25.9644 99.1759 5.96866 0.342821 -0.903146 -0.258461
-25.1497 99.5677 5.65165 0.339578 -0.90629 -0.251567
-24.0929 100.037 5.37105 0.340623 -0.908418 -0.242277
-23.1206 100.49 5.00389 0.327304 -0.917384 -0.226188
-22.2448 100.869 4.64856 0.308828 -0.927093 -0.212423
-21.1708 101.327 4.07824 0.282039 -0.937686 -0.202973
-20.4233 101.622 3.65899 0.258699 -0.94411 -0.204242
-19.4239 102.007 3.05828 0.225946 -0.955581 -0.189245
-18.5349 102.325 2.48137 0.216522 -0.958749 -0.184167
-17.7446 102.646 1.65151 0.181775 -0.969492 -0.164095
-17.0256 102.909 0.81614 0.168843 -0.97549 -0.140467
-16.2096 103.143 -0.193724 0.0974158 -0.978958 -0.164369
-15.5559 103.409 -0.970933 0.152858 -0.958525 -0.237564
-14.9006 103.613 -1.7418 0.146591 -0.988596 -0.034486
-14.0888 103.763 -2.69823 0.0292542 -0.994387 -0.101678
-13.4308 103.798 -3.47528 -0.0461652 -0.998932 -0.00172353
-12.2005 103.617 -4.24469 -0.221131 -0.973469 -0.0204347
-11.1627 103.395 -4.77801 -0.306432 -0.951708 -0.0187629
-10.18 103.079 -5.32554 -0.384044 -0.921754 -0.0251471
-9.27175 102.668 -5.43135 -0.410321 -0.911325 -0.0335104
-7.96783 101.987 -5.47994 -0.476526 -0.877533 -0.0534296
-7.13796 101.558 -5.64398 -0.435629 -0.898273 -0.0577285
-6.00343 101.128 -5.68378 -0.305065 -0.948529 0.0678584
-5.58726 100.985 -5.53787 -0.365557 -0.927152 0.0805713
-9.6759 103.232 -9.04671 -0.512152 -0.854421 -0.0875495
-9.83193 103.324 -9.0346 -0.456828 -0.880942 -0.123485
-10.7768 103.573 -7.89791 -0.372296 -0.922294 -0.103778
-11.9639 104.015 -7.83069 -0.312024 -0.940815 -0.132316
-12.0553 104.04 -7.82618 -0.227687 -0.964135 -0.136393
-15.4956 104.164 -5.63176 0.00374913 -0.982429 -0.186599
-15.6895 104.164 -5.63162 0.00916262 -0.983519 -0.180571
-16.5351 103.942 -4.57923 0.078316 -0.983283 -0.164381
-17.1699 103.896 -4.58744 0.0867761 -0.978878 -0.185113
-17.3411 103.683 -3.5325 0.11392 -0.977632 -0.176801
-18.5698 103.53 -3.56256 0.13925 -0.966652 -0.214928
-19.1095 103.455 -3.57781 0.151907 -0.963375 -0.220983
-18.1365 103.355 -2.5002 0.137794 -0.967691 -0.211155
-19.1984 103.193 -2.53377 0.164533 -0.959898 -0.226991
-20.1236 103.038 -2.56723 0.203666 -0.95432 -0.218616
-19.0668 102.992 -1.47538 0.173516 -0.965813 -0.192608
-20.4172 102.743 -1.52897 0.208033 -0.954744 -0.212572
-21.6598 102.478 -1.58937 0.220379 -0.952086 -0.212049
-22.4543 102.05 -0.583347 0.255386 -0.939628 -0.227767
-21.1322 102.36 -0.509404 0.22688 -0.948386 -0.221563
-19.73 102.663 -0.443389 0.216828 -0.95619 -0.196689
-19.7224 102.665 -0.443081 0.175597 -0.964538 -0.197059
-20.9261 102.169 0.552422 0.233703 -0.948298 -0.214739
-22.001 101.908 0.491791 0.241515 -0.94641 -0.214426
-23.2209 101.589 0.413567 0.270005 -0.936856 -0.222257
-23.4591 101.524 0.397486 0.270009 -0.936854 -0.222259
-22.3997 101.562 1.51848 0.267654 -0.937178 -0.223739
-23.4814 101.269 1.44655 0.29165 -0.927827 -0.232545
-24.5571 100.926 1.35546 0.312943 -0.918433 -0.241966
-24.9557 100.799 1.3214 0.313278 -0.917025 -0.246825
-24.1192 100.792 2.43626 0.313812 -0.91863 -0.240086
-25.0589 100.49 2.35557 0.317412 -0.916832 -0.242216
-25.9043 100.217 2.28058 0.318825 -0.91384 -0.251489
-25.9961 100.187 2.27229 0.316325 -0.914344 -0.252809
