-13.3326 109.969 -5.13479 0.129176 -0.958444 -0.254354
-13.1127 109.963 -5.00099 0.129189 -0.958442 -0.254355
-12.3424 110.289 -5.87704 0.109736 -0.961738 -0.251033
-13.258 109.994 -5.18957 0.12988 -0.95805 -0.255482
-13.4597 110.127 -5.79242 0.127926 -0.957542 -0.258359
-12.691 110.373 -6.42415 0.0885809 -0.970514 -0.224177
-11.7342 110.637 -7.25328 0.0579677 -0.972326 -0.226325
-10.6174 110.853 -8.08455 -0.00181492 -0.977821 -0.209435
-9.46075 110.911 -8.9471 -0.152075 -0.981728 -0.114385
-8.64475 110.798 -9.90781 -0.284544 -0.95862 0.00904726
-9.41298 110.902 -8.93533 -0.169202 -0.976355 -0.134546
-10.5556 110.848 -8.0562 0.0153076 -0.982759 -0.184257
-10.6097 110.697 -7.26267 0.0189601 -0.981091 -0.192615
-11.322 110.448 -6.18609 0.0475566 -0.972488 -0.228048
-12.0348 110.154 -5.2264 0.111382 -0.961881 -0.249758
-12.7133 109.859 -4.39255 0.139716 -0.960435 -0.240809
-13.296 109.585 -3.62828 0.148929 -0.95542 -0.254136
-14.2297 109.22 -2.86865 0.179402 -0.950713 -0.252466
-15.0913 108.841 -2.12215 0.192664 -0.946836 -0.257649
-15.8272 108.535 -1.59893 0.2128 -0.941017 -0.263065
-16.8924 108.155 -1.13759 0.224388 -0.936 -0.271167
-17.8934 108.016 -1.48274 0.230536 -0.932622 -0.277613
-17.4252 108.407 -2.40141 0.21173 -0.932309 -0.293208
-16.5982 108.869 -3.30947 0.181311 -0.939464 -0.290747
-15.6271 109.345 -4.25578 0.169913 -0.941519 -0.290982
-14.9171 109.626 -4.75555 0.15202 -0.949119 -0.275514
-13.8945 109.983 -5.47264 0.135436 -0.954252 -0.266392
-13.8427 110 -5.51071 0.129498 -0.957365 -0.258226
-14.4568 109.999 -5.81939 0.131076 -0.957186 -0.258098
-15.571 109.591 -5.02401 0.164243 -0.946921 -0.276342
-16.6369 109.111 -4.11383 0.181783 -0.938968 -0.29205
-17.6027 108.591 -3.11268 0.213076 -0.930751 -0.297156
-18.4379 108.097 -2.18764 0.228037 -0.929085 -0.291048
-18.6778 107.728 -1.16272 0.227992 -0.933562 -0.276434
-17.7176 107.784 -0.54784 0.229832 -0.934048 -0.273372
-16.538 108.086 -0.591967 0.226777 -0.936625 -0.267032
-15.6474 108.398 -0.967715 0.214518 -0.939394 -0.267434
-14.4891 108.866 -1.76343 0.192637 -0.94688 -0.257506
-13.5611 109.259 -2.5724 0.166093 -0.954638 -0.247141
-12.7485 109.595 -3.35181 0.147054 -0.960914 -0.234531
-12.1873 109.85 -4.0427 0.111229 -0.969129 -0.220039
-11.3216 110.214 -5.13861 0.0792407 -0.969222 -0.229887
-10.6069 110.47 -6.13341 0.0322914 -0.976032 -0.214199
-9.92833 110.682 -7.12092 0.0171338 -0.981925 -0.188436
-9.38357 110.771 -8.01915 -0.169755 -0.976512 -0.132691
-8.74136 110.76 -8.74692 -0.169202 -0.976355 -0.134546
-8.10271 110.527 -9.34549 -0.402349 -0.915395 -0.0129191
-7.38176 110.227 -9.99548 -0.460368 -0.886683 -0.0243886
-6.52635 109.761 -10.6165 -0.492525 -0.870022 -0.0218219
-5.6229 109.211 -11.1124 -0.542339 -0.840151 -0.00374404
-4.54918 108.505 -11.698 -0.562887 -0.826384 -0.0157292
-3.82427 108.008 -11.965 -0.585308 -0.810792 -0.00552477
-3.0224 107.434 -12.2455 -0.573512 -0.819163 -0.00133007
-2.28016 106.913 -12.5557 -0.571853 -0.82006 0.0220404
-1.4888 106.333 -12.7954 -0.550521 -0.830558 0.0636624
-0.689567 105.832 -12.9818 -0.526966 -0.843806 0.101482
0.133601 105.287 -13.2393 -0.53096 -0.837436 0.126825
0.963178 104.786 -13.3252 -0.482742 -0.850574 0.208528
1.85771 104.285 -13.3463 -0.43392 -0.867491 0.243254
2.93182 103.671 -13.5182 -0.438631 -0.855755 0.272337
2.39468 103.897 -13.7487 -0.465275 -0.848052 0.253626
1.59497 104.262 -13.981 -0.48791 -0.84706 0.210793
0.638795 104.781 -14.0941 -0.518326 -0.833915 0.183757
-0.475457 105.526 -14.0746 -0.534953 -0.831066 0.152168
-1.50802 106.292 -14.2288 -0.648246 -0.756411 0.0872883
-2.30601 106.887 -14.2952 -0.609654 -0.792613 0.00932685
-3.33545 107.664 -14.1491 -0.589915 -0.807431 -0.00655013
-4.38121 108.421 -13.8221 -0.571052 -0.820613 -0.00704703
-5.51778 109.18 -13.2671 -0.554191 -0.831363 -0.035814
-6.4328 109.753 -12.735 -0.542928 -0.839649 -0.0148107
-7.26591 110.195 -12.1838 -0.476838 -0.878575 -0.0200968
-8.05528 110.566 -11.365 -0.407 -0.913072 -0.0255194
-8.79834 110.838 -10.505 -0.278965 -0.959805 -0.0164511
-9.63656 111.019 -9.71581 -0.166307 -0.98473 -0.051469
-10.465 111.02 -8.94037 -0.0396632 -0.989648 -0.137927
-11.257 110.924 -8.4113 -0.00181492 -0.977821 -0.209435
-11.9788 110.767 -7.87234 0.0566549 -0.973508 -0.221464
-13.0259 110.462 -6.93841 0.0888612 -0.967717 -0.235855
-13.8032 110.219 -6.30191 0.129507 -0.957364 -0.258225
-13.9058 110.184 -6.22441 0.131076 -0.957186 -0.258098
-14.431 110.215 -6.59609 0.115926 -0.95289 -0.28029
-15.6464 109.781 -5.70795 0.118257 -0.936834 -0.329178
-16.741 109.312 -4.8221 0.175939 -0.938288 -0.297761
-17.3437 109.008 -4.21584 0.163934 -0.931666 -0.322994
-18.2644 108.502 -3.30885 0.212408 -0.931529 -0.295179
-19.1009 108.009 -2.42755 0.228038 -0.929085 -0.291048
-19.3846 107.67 -1.54174 0.228784 -0.931093 -0.284119
-19.1254 107.429 -0.499956 0.225963 -0.935995 -0.269908
-18.0824 107.533 0.00420977 0.224447 -0.93716 -0.26709
-17.1294 107.733 0.118423 0.230623 -0.929617 -0.287447
-16.2454 107.991 -0.017158 0.216185 -0.939792 -0.264661
-14.8813 108.487 -0.66408 0.217193 -0.940379 -0.261752
-14.1256 108.797 -1.21741 0.210401 -0.948009 -0.23877
-13.2577 109.168 -2.00433 0.176064 -0.955694 -0.235713
-12.4253 109.522 -2.83859 0.147384 -0.961765 -0.230839
-11.5697 109.875 -3.84031 0.129032 -0.969466 -0.207386
-10.9722 110.116 -4.58843 0.0961342 -0.978258 -0.175362
-10.1714 110.383 -5.66926 0.0522565 -0.973983 -0.22019
-9.38854 110.627 -6.73587 0.0114239 -0.987727 -0.144013
-8.91235 110.622 -7.52139 -0.169756 -0.976512 -0.132691
-8.35222 110.621 -8.23011 -0.285776 -0.945875 -0.0737297
-7.29865 110.199 -9.22066 -0.392847 -0.906938 0.0992186
-6.54239 109.76 -9.85544 -0.464191 -0.885391 0.0246873
-5.8362 109.346 -10.3214 -0.546285 -0.83703 0.0202911
-5.02674 108.826 -10.739 -0.54104 -0.840994 -0.00202501
-3.84914 108.022 -11.3098 -0.566622 -0.823919 0.00946819
-2.88409 107.336 -11.6717 -0.573512 -0.819163 -0.0013303
-2.00433 106.73 -11.9745 -0.56623 -0.824241 -0.000665733
-1.14245 106.194 -12.1665 -0.510267 -0.855034 0.0924426
-0.230998 105.612 -12.432 -0.495353 -0.8582 0.127428
0.613285 105.126 -12.6153 -0.478246 -0.864216 0.156241
1.62699 104.577 -12.6903 -0.423365 -0.881033 0.210393
2.58323 104.068 -12.8223 -0.364217 -0.897488 0.23644
3.58167 103.526 -13.0287 -0.423162 -0.857577 0.292122
3.96757 103.128 -13.6143 -0.43433 -0.851705 0.293185
3.33783 103.266 -14.1454 -0.423161 -0.85758 0.292114
2.15376 103.802 -14.4911 -0.488452 -0.833807 0.254916
1.27103 104.277 -14.659 -0.487766 -0.845423 0.217589
0.320757 104.88 -14.6646 -0.555376 -0.807573 0.198454
-0.700487 105.597 -14.7286 -0.589091 -0.803197 0.0885832
-1.54311 106.251 -14.8451 -0.648247 -0.756411 0.0872839
-2.56066 107.08 -14.8922 -0.611364 -0.791013 -0.0230892
-3.77474 107.988 -14.6634 -0.589116 -0.80793 -0.0138288
-4.50093 108.516 -14.4413 -0.584823 -0.810537 -0.0254775
-5.67381 109.311 -13.9082 -0.554191 -0.831363 -0.0358136
-6.70319 109.938 -13.2856 -0.540307 -0.840873 -0.02842
-7.73501 110.467 -12.5221 -0.446549 -0.890007 -0.0765798
-8.56461 110.8 -11.6224 -0.409669 -0.91175 -0.0293148
-9.51728 111.058 -10.7372 -0.274639 -0.952275 -0.11753
-10.3844 111.172 -9.89485 -0.144628 -0.972666 -0.153313
-11.2615 111.079 -9.13662 -0.0207389 -0.983734 -0.173681
-12.017 110.933 -8.63138 0.0553403 -0.974691 -0.216597
-13.233 110.597 -7.56059 0.0724223 -0.965234 -0.251154
-13.9321 110.386 -6.97152 0.111299 -0.956338 -0.269983
-14.5229 110.427 -7.36455 0.106673 -0.959786 -0.259676
-15.6891 110.036 -6.46242 0.0937057 -0.95562 -0.279302
-16.8308 109.539 -5.57924 0.189855 -0.925057 -0.328974
-17.4496 109.236 -4.99486 0.160526 -0.941392 -0.29667
-18.0525 108.926 -4.33805 0.163934 -0.931666 -0.322994
-18.7475 108.527 -3.72007 0.267304 -0.89194 -0.364681
-19.3721 108.166 -3.14724 0.240723 -0.926554 -0.289051
-19.9623 107.758 -2.31066 0.235012 -0.93081 -0.279932
-20.2549 107.274 -0.920472 0.227719 -0.935488 -0.270194
-19.6779 107.173 -0.0813109 0.267268 -0.94119 -0.180665
-18.5435 107.276 0.527707 0.22416 -0.93836 -0.263121
-17.2585 107.506 0.749392 0.255739 -0.931278 -0.256358
-16.2392 107.838 0.6459 0.280858 -0.932937 -0.22527
-15.1709 108.129 0.38072 0.211144 -0.948563 -0.233995
-14.0692 108.583 -0.336925 0.21654 -0.94057 -0.261607
-13.394 108.878 -0.908113 0.185042 -0.954689 -0.233084
-12.6617 109.199 -1.66289 0.179818 -0.95712 -0.227126
-11.7839 109.59 -2.68051 0.162573 -0.961308 -0.222389
-11.1772 109.839 -3.36712 0.147038 -0.964214 -0.220616
-10.1617 110.159 -4.62903 0.0454338 -0.986713 -0.155992
-9.35133 110.426 -5.6309 0.0614992 -0.971839 -0.227478
-8.51189 110.588 -6.66953 -0.0362778 -0.993367 -0.109111
-8.0421 110.567 -7.50446 -0.0510184 -0.998552 0.0168346
-7.38913 110.292 -8.21073 -0.294569 -0.953671 0.0611629
-6.52491 109.799 -8.96162 -0.49112 -0.860206 0.137281
-5.75958 109.333 -9.57898 -0.55153 -0.833067 0.0426069
-5.01908 108.82 -10.0358 -0.546285 -0.83703 0.0202909
-4.20974 108.28 -10.4668 -0.566624 -0.823917 0.00947488
-3.51384 107.794 -10.8237 -0.57922 -0.815021 0.0156282
-2.5643 107.116 -11.139 -0.569696 -0.82172 0.0106493
-1.3885 106.325 -11.4224 -0.550332 -0.834913 0.00738326
-0.142012 105.67 -11.7809 -0.404815 -0.911514 0.0602258
0.923212 105.087 -11.8829 -0.444811 -0.876524 0.179047
1.81179 104.651 -11.9886 -0.411369 -0.888836 0.201858
2.67681 104.225 -12.1419 -0.293066 -0.921751 0.253943
3.75234 103.655 -12.4731 -0.404066 -0.839254 0.352382
4.65055 102.999 -12.9163 -0.453702 -0.848581 0.272148
4.65101 102.606 -14.024 -0.448412 -0.825983 0.340061
4.06247 102.665 -14.6852 -0.461492 -0.831415 0.308293
3.17593 103.131 -14.8065 -0.497945 -0.817572 0.287947
2.38857 103.493 -15.0668 -0.513648 -0.825884 0.232553
1.47555 103.979 -15.3575 -0.500705 -0.835654 0.225074
0.575322 104.545 -15.3321 -0.539739 -0.819689 0.191813
-0.411699 105.272 -15.3414 -0.622935 -0.767925 0.149142
-1.30529 106.049 -15.4527 -0.690064 -0.722381 -0.00207286
-2.29535 106.89 -15.5506 -0.635633 -0.771988 -0.00224792
-3.00699 107.439 -15.5058 -0.591811 -0.806002 -0.0110224
-4.15958 108.279 -15.2853 -0.594106 -0.804204 -0.0158458
-5.03952 108.91 -14.9409 -0.570543 -0.820601 -0.033097
-5.87755 109.479 -14.4933 -0.556745 -0.827833 -0.0606195
-6.80298 110.038 -13.9424 -0.541363 -0.839473 -0.0470227
-7.86975 110.595 -13.2222 -0.446551 -0.890005 -0.0765891
-8.64544 110.87 -12.5413 -0.407069 -0.910906 -0.0611032
-9.19598 111.07 -11.8502 -0.356993 -0.931686 -0.0672122
-10.3504 111.26 -10.8672 -0.214931 -0.968171 -0.128258
-11.0758 111.268 -10.103 -0.0701911 -0.973821 -0.216208
-12.1503 111.107 -9.30713 0.0164459 -0.969256 -0.245347
-12.8637 110.939 -8.73732 0.0740325 -0.961955 -0.262988
-14.0191 110.589 -7.75804 0.0895474 -0.96251 -0.255415
-14.1457 110.55 -7.66578 0.106672 -0.959786 -0.259676
-13.7897 109.814 -4.7785 0.142286 -0.956625 -0.253827
-13.6204 109.655 -4.08283 0.148929 -0.95542 -0.254135
-14.5289 109.36 -3.58607 0.172458 -0.946689 -0.271795
-15.2915 109.004 -2.85223 0.182518 -0.946484 -0.266186
-16.0307 108.668 -2.21538 0.202766 -0.939787 -0.27511
-16.9336 108.34 -1.79366 0.223885 -0.93335 -0.280594
-16.3942 108.699 -2.58836 0.202327 -0.940238 -0.273888
-15.8117 109.019 -3.26153 0.192206 -0.943583 -0.269434
-14.978 109.412 -4.06582 0.184421 -0.943502 -0.275306
-14.1714 109.543 -4.01886 0.16049 -0.949877 -0.268286
-14.1714 109.651 -4.40377 0.158287 -0.952145 -0.261356
-7.88852 110.486 -10.6491 -0.428873 -0.903014 -0.0251765
-6.84013 109.951 -11.1694 -0.493172 -0.869701 -0.0200355
-5.79917 109.328 -11.6683 -0.541474 -0.84067 -0.00785817
-6.46697 109.764 -12.081 -0.507205 -0.86037 -0.0260003
-7.13683 110.122 -11.527 -0.48219 -0.876062 -0.00299819
-7.89512 110.491 -10.7387 -0.415769 -0.90947 0.00103093
-7.92205 110.503 -10.6952 -0.422318 -0.906243 -0.0120737
-5.71826 109.276 -11.6924 -0.540609 -0.841189 -0.0119723
-4.94168 108.776 -12.1338 -0.554565 -0.83211 -0.00714038
-4.16308 108.256 -12.4413 -0.574098 -0.818588 -0.0106217
-3.19051 107.555 -12.7617 -0.58934 -0.80787 0.00130787
-2.6397 107.147 -13.1762 -0.582308 -0.812715 0.0126645
-1.83152 106.557 -13.4347 -0.590778 -0.80608 0.0348798
-1.74207 106.483 -13.6491 -0.591849 -0.805832 0.018668
-2.54745 107.08 -13.6775 -0.601175 -0.799002 0.00091501
-3.32079 107.647 -13.5178 -0.592722 -0.805387 -0.00210305
-4.10539 108.218 -13.2846 -0.58813 -0.808758 -0.00363952
-4.86326 108.732 -13.0125 -0.553971 -0.83247 -0.0104582
-5.34756 109.05 -12.5579 -0.547587 -0.836649 -0.00955634
-5.68777 109.265 -12.3384 -0.540609 -0.841189 -0.0119723
