60.2711 22.604 9.94868 -0.563362 -0.797288 0.216691
59.226 23.1625 9.89678 -0.433843 -0.872563 0.224533
58.3467 23.5268 9.85377 -0.358297 -0.903137 0.236575
57.2136 23.8713 9.81394 -0.206621 -0.946014 0.249729
56.1542 24.0848 9.80142 -0.168488 -0.978013 0.122894
54.9842 24.2077 9.80558 -0.0444946 -0.986789 0.155782
53.64 24.321 9.81591 -0.122163 -0.986268 0.111139
52.6776 24.4402 9.81552 -0.111408 -0.988517 0.102089
51.1842 24.6397 9.80692 -0.132755 -0.986278 0.0981445
50.2449 24.7473 9.80567 -0.126685 -0.984861 0.118317
49.222 24.9275 9.79777 -0.191635 -0.97426 0.11872
47.9916 25.0556 9.79915 -0.00470858 -0.986464 0.163911
46.8206 25.1006 9.80809 -0.0248106 -0.998215 0.054324
45.6995 25.1368 9.81542 -0.0391295 -0.997893 0.0517465
44.5752 25.15 9.82653 0.022584 -0.996217 0.0839156
43.4952 25.1625 9.83609 -0.0484377 -0.996148 0.073102
42.5241 25.1805 9.84171 -0.0056141 -0.998981 0.0447809
41.0069 25.1847 9.8493 0.000541641 -0.999252 0.0386588
39.6029 25.1938 9.85842 -0.0139833 -0.999354 0.0330982
38.2034 25.2048 9.86418 -0.00202793 -0.999698 0.0244774
36.816 25.194 9.86681 0.018427 -0.99912 0.0376757
35.512 25.1819 9.86879 0.00267147 -0.999663 0.0258216
34.5059 25.1719 9.87129 0.0132676 -0.999798 0.0150651
33.1366 25.1536 9.87389 0.00961696 -0.999717 0.0217746
32.1468 25.1398 9.87543 0.0214692 -0.99957 0.0199499
31.1731 25.1189 9.87696 0.020638 -0.999602 0.0192162
29.6741 25.0879 9.87866 0.0216208 -0.999656 0.0148223
28.5726 25.0612 9.8797 0.0271561 -0.999553 0.0124717
27.3332 25.0357 9.88033 0.0157794 -0.999822 0.0103644
26.376 25.0241 9.88066 0.0116316 -0.999874 0.0107908
25.4518 25.0115 9.8809 0.0150413 -0.999855 0.00800012
24.4745 24.9945 9.88109 0.0212403 -0.999766 0.00409583
23.5574 24.9777 9.88132 0.0146049 -0.999888 0.00314809
22.3867 24.9606 9.88159 0.0168953 -0.999857 5.55138e-05
21.3313 24.9458 9.88168 0.0140037 -0.999899 -0.00227409
20.3343 24.9329 9.88176 0.0110797 -0.999937 -0.00153626
19.3888 24.9226 9.88185 0.0109114 -0.999939 -0.00168542
18.3994 24.9123 9.88191 0.00950131 -0.999952 -0.00223592
17.4131 24.904 9.88196 0.00869173 -0.999952 -0.00456751
16.1695 24.8947 9.88203 0.00843173 -0.999958 -0.0037036
15.0412 24.8851 9.8821 0.00629726 -0.999969 -0.00470301
14.0864 24.8797 9.88219 0.00577061 -0.999974 -0.0043008
12.8817 24.8708 9.8823 0.00816941 -0.999949 -0.00592537
11.3933 24.8605 9.88247 0.00606057 -0.999965 -0.00582931
10.0764 24.8529 9.88265 0.00553111 -0.999965 -0.00630279
8.94675 24.8471 9.88282 0.00496022 -0.999968 -0.00633618
7.5781 24.8419 9.88302 0.00401529 -0.999966 -0.00723204
6.53235 24.8373 9.88317 0.00440868 -0.999962 -0.00751254
5.45353 24.8328 9.88344 0.00418907 -0.999963 -0.00750148
4.45701 24.8288 9.88369 0.00379086 -0.999964 -0.00753203
3.53267 24.8251 9.88394 0.00562149 -0.999971 -0.00523194
2.36856 24.8172 9.88428 0.00478508 -0.999966 -0.00670653
1.1629 24.8107 9.88468 0.00935962 -0.99988 -0.0123643
0.234079 24.8007 9.885 0.0124995 -0.999886 -0.00845625
-1.24379 24.7789 9.88541 0.0157484 -0.999813 -0.0112253
-2.30469 24.7555 9.88582 0.0206812 -0.999756 -0.00771578
-3.33508 24.7352 9.88632 0.0212657 -0.999764 -0.00439228
-4.40753 24.7112 9.887 0.025282 -0.999674 -0.00351183
-5.6193 24.677 9.88765 0.0291918 -0.999569 -0.00324152
-6.58452 24.6428 9.88811 0.0376668 -0.999277 -0.00525828
-7.90247 24.5851 9.88882 0.0500398 -0.998712 -0.00839414
-8.89697 24.5327 9.88932 0.0587542 -0.998216 -0.0106417
-9.90361 24.4722 9.88997 0.0600248 -0.998151 -0.00958153
-10.8025 24.4136 9.89092 0.0668561 -0.997707 -0.0105159
-12.0007 24.3326 9.89254 0.0689122 -0.997558 -0.0113657
-13.0464 24.2572 9.89378 0.0790057 -0.996796 -0.0124486
-14.4287 24.126 9.89501 0.103762 -0.994582 -0.00630562
-15.6264 23.9934 9.89581 0.114548 -0.993383 -0.0082813
-17.0158 23.82 9.89691 0.144633 -0.989401 -0.0129385
-18.0747 23.6566 9.89832 0.168251 -0.985688 -0.0105742
-19.6211 23.366 9.89867 0.185185 -0.982589 -0.0150415
-21.0948 23.0724 9.8988 0.194547 -0.980637 -0.0224283
-22.0159 22.8846 9.89858 0.211143 -0.977236 -0.020688
-22.989 22.6637 9.89926 0.231288 -0.972599 -0.0235894
-23.9671 22.422 9.8976 0.238802 -0.970522 -0.032566
-24.9761 22.1448 9.8948 0.291497 -0.955863 -0.0368087
-26.0809 21.8021 9.88967 0.297432 -0.953619 -0.0463256
-27.158 21.4434 9.87989 0.340254 -0.938896 -0.0519794
-28.1421 21.0801 9.87022 0.348501 -0.936211 -0.0453516
-29.1431 20.7005 9.85896 0.367658 -0.928184 -0.057461
-30.1356 20.3091 9.84635 0.366921 -0.928413 -0.058467
-31.4578 19.7304 9.82198 0.420124 -0.904815 -0.0693215
-32.2925 19.3234 9.79929 0.44026 -0.895144 -0.0699132
-33.2394 18.8333 9.76864 0.464243 -0.881809 -0.0830167
-34.125 18.3359 9.72882 0.496867 -0.862938 -0.0919858
-35.0595 17.7791 9.67643 0.528016 -0.842757 -0.104691
-35.2392 17.6679 9.66509 0.525485 -0.845416 -0.0955922
-35.2495 17.5501 10.7577 0.525843 -0.846586 -0.082347
-34.4113 18.0698 10.8087 0.528769 -0.845155 -0.0782063
-33.5867 18.5433 10.8475 0.491625 -0.868303 -0.0659991
-32.7984 18.9813 10.8783 0.480238 -0.875299 -0.0567649
-31.9772 19.4045 10.9027 0.429228 -0.901198 -0.0600404
-31.1458 19.7912 10.9231 0.406126 -0.911681 -0.0624505
-30.131 20.2451 10.9415 0.390524 -0.919311 -0.0485546
-28.83 20.7581 10.9556 0.360345 -0.931142 -0.0559086
-27.6715 21.1965 10.9667 0.354457 -0.933606 -0.0523552
-26.5784 21.5856 10.9767 0.331763 -0.942123 -0.0483559
-25.6565 21.888 10.9822 0.30238 -0.95255 -0.0348617
-24.4413 22.2494 10.9872 0.266489 -0.963603 -0.0212846
-23.1905 22.5804 10.9897 0.242326 -0.969955 -0.0215564
-22.2598 22.8073 10.991 0.212927 -0.976717 -0.026207
-21.1066 23.0441 10.9897 0.201616 -0.979239 -0.0209989
-19.8916 23.2906 10.9881 0.196925 -0.980261 -0.0175525
-18.903 23.4818 10.9878 0.184295 -0.982655 -0.0206142
-17.6685 23.7084 10.9884 0.154366 -0.987739 -0.0233007
-16.7502 23.8346 10.9873 0.136121 -0.990573 -0.0153651
-15.8507 23.9577 10.9865 0.119923 -0.99259 -0.0195823
-14.621 24.0919 10.9855 0.108426 -0.993934 -0.0183969
-13.5074 24.2036 10.9849 0.0857576 -0.996275 -0.00909184
-12.0989 24.3127 10.9834 0.0694112 -0.997503 -0.0130042
-11.1132 24.3821 10.9819 0.0671043 -0.997725 -0.00648488
-9.76477 24.4704 10.9805 0.0622316 -0.99804 -0.00664945
-8.81322 24.5248 10.9801 0.0564563 -0.998378 -0.00737369
-7.8748 24.5774 10.9798 0.0489866 -0.998759 -0.00897445
-6.73169 24.6322 10.9795 0.0427454 -0.999061 -0.00706898
-5.61345 24.669 10.9791 0.0311405 -0.999474 -0.00900059
-4.23017 24.7084 10.9784 0.0251469 -0.999621 -0.0111889
-2.85162 24.7385 10.9777 0.019691 -0.999788 -0.0059566
-1.53924 24.7621 10.9772 0.017188 -0.999798 -0.0104455
-0.29623 24.7831 10.977 0.0130939 -0.999862 -0.0101823
0.985705 24.7955 10.9767 0.0102092 -0.999881 -0.0115549
2.00329 24.8042 10.9764 0.00850671 -0.999899 -0.0114171
2.99704 24.8112 10.9762 0.00600275 -0.999922 -0.0109656
3.92232 24.8164 10.976 0.00598444 -0.99993 -0.0102551
4.85818 24.822 10.9758 0.00574483 -0.999928 -0.010514
5.92181 24.8263 10.9756 0.0039567 -0.999956 -0.00850651
7.09009 24.8317 10.9754 0.00438808 -0.999965 -0.00706409
8.19217 24.8365 10.9753 0.00450762 -0.999962 -0.00750082
9.64006 24.8436 10.9751 0.00510043 -0.999958 -0.00756197
11.0067 24.8514 10.975 0.00573786 -0.999954 -0.00769279
12.0918 24.8579 10.9749 0.00599866 -0.999951 -0.00792576
13.0116 24.8647 10.9749 0.00812236 -0.999941 -0.00727993
14.3102 24.8744 10.9748 0.00702044 -0.999947 -0.00755134
15.7819 24.8834 10.9747 0.00637861 -0.999959 -0.00646018
16.8374 24.8931 10.9748 0.00934203 -0.999921 -0.0084668
17.9298 24.9033 10.9748 0.0083277 -0.999953 -0.00497263
19.0597 24.9152 10.9749 0.0123868 -0.999905 -0.00601195
20.3282 24.9309 10.9749 0.0133942 -0.999871 -0.00885963
21.301 24.9428 10.975 0.0137371 -0.999902 -0.00253074
22.4159 24.9579 10.975 0.0163273 -0.999862 -0.00291196
23.7276 24.983 10.9748 0.0186284 -0.999816 -0.00454029
24.7637 25.0014 10.9747 0.0175561 -0.999846 -0.000609457
25.9108 25.0205 10.9747 0.0163082 -0.999867 0.000784257
27.0248 25.0374 10.9745 0.016795 -0.999851 0.00389341
27.9491 25.0559 10.9743 0.0190958 -0.999796 0.00653269
29.3541 25.0933 10.9741 0.0333503 -0.99943 0.00523732
30.5368 25.1275 10.9735 0.0206392 -0.999586 0.0200688
32.0195 25.1569 10.9728 0.0220867 -0.999616 0.016718
33.004 25.1685 10.9716 0.0122918 -0.999914 0.00457857
34.1281 25.1824 10.9701 0.0127208 -0.999906 0.00518489
35.156 25.1897 10.9686 0.00612552 -0.999972 0.0043136
36.3348 25.1998 10.9667 0.0151527 -0.999875 0.00444847
37.3692 25.2144 10.9653 0.0136325 -0.999875 0.00800042
38.3912 25.2305 10.9638 0.00985008 -0.999826 0.0158507
39.4787 25.2321 10.9612 -0.00674708 -0.999547 0.029319
40.5013 25.2284 10.9569 -0.00213302 -0.999193 0.0401207
41.7416 25.228 10.9517 0.00103855 -0.999246 0.0388164
42.7903 25.2246 10.9474 -0.00784707 -0.999853 0.0152391
43.7547 25.2023 10.9437 -0.0229935 -0.999089 0.0359644
45.1243 25.1592 10.9345 -0.0130214 -0.999888 0.0073623
46.4157 25.1711 10.925 0.021033 -0.999182 0.0345534
47.6026 25.1178 10.9206 -0.0717086 -0.996584 0.0409626
48.6932 25.056 10.9156 -0.0564859 -0.998332 0.0119351
49.6469 24.9858 10.913 -0.165947 -0.98431 0.0599625
50.8641 24.7519 10.9153 -0.136017 -0.990706 -0.00117143
51.7826 24.657 10.9177 -0.139812 -0.986794 0.081797
53.1501 24.496 10.9213 -0.100631 -0.990566 0.0930174
54.5681 24.384 10.9133 -0.0483748 -0.993243 0.105486
56.0596 24.2104 10.9092 -0.182909 -0.980566 0.0709616
57.2827 24.0093 10.9181 -0.175679 -0.984148 0.0242705
58.5925 23.5938 10.9395 -0.397456 -0.914464 0.0760562
59.76 23.0644 10.9638 -0.436055 -0.89474 0.0964147
59.9978 22.9493 10.9712 -0.494359 -0.867469 0.0557443
60.0063 22.96 12.0137 -0.498607 -0.866281 -0.0307773
58.7292 23.5506 12.0292 -0.398256 -0.916298 -0.0423123
57.397 24.0639 12.0249 -0.198336 -0.972801 0.119673
56.5051 24.2121 12.0262 -0.164456 -0.982488 0.0875898
55.372 24.4016 12.0248 -0.170378 -0.982619 0.0736966
54.0656 24.454 12.0289 -0.0320397 -0.999432 0.0104491
52.6353 24.585 12.0308 -0.113492 -0.993237 -0.0244995
51.6653 24.6868 12.0307 -0.0996684 -0.994628 -0.0279535
50.5799 24.7896 12.03 -0.136017 -0.990706 -0.00117136
49.4992 24.9471 12.036 -0.135559 -0.98897 -0.0596818
48.3866 25.0512 12.0399 -0.0666996 -0.997422 -0.0264711
47.1044 25.1465 12.0433 -0.0451739 -0.997633 -0.0518344
46.1079 25.1461 12.0453 0.0138788 -0.998163 -0.0589753
45.092 25.1424 12.0486 -0.026854 -0.998835 -0.040099
43.8433 25.1996 12.0541 -0.0449891 -0.998251 -0.038361
42.8581 25.219 12.0566 -0.00439477 -0.999696 -0.0242505
41.8886 25.2222 12.0588 -0.000500873 -0.999435 -0.0336014
40.7671 25.2323 12.0615 -0.021405 -0.999288 -0.0310718
39.7917 25.2359 12.0637 -0.0028404 -0.999994 0.00196684
38.7505 25.2484 12.0645 -0.00637035 -0.999929 -0.010063
37.7283 25.2263 12.0655 0.0257639 -0.999668 -0.000131824
36.729 25.2098 12.0668 0.0135858 -0.999905 0.00211176
35.0938 25.1945 12.0687 0.00554416 -0.999972 0.00505063
34.1845 25.1895 12.0691 0.00934705 -0.999942 0.00542099
32.9287 25.1703 12.0696 0.0125749 -0.999918 -0.00235044
31.7885 25.1621 12.0698 0.0113971 -0.999902 -0.00818212
30.4413 25.1298 12.0693 0.0251548 -0.999585 -0.0140028
29.3277 25.0995 12.0689 0.0335719 -0.99943 -0.00363622
28.0391 25.0593 12.0688 0.0299466 -0.999551 0.00133288
26.4242 25.0259 12.0687 0.0194306 -0.999805 -0.00345239
25.0703 24.9996 12.0687 0.0217171 -0.999738 -0.00721554
24.0904 24.9813 12.0686 0.0157179 -0.999852 -0.00696061
22.814 24.9599 12.0684 0.0181444 -0.999817 -0.00608163
21.4826 24.9377 12.0682 0.0145149 -0.999861 -0.00816376
20.3457 24.9214 12.068 0.0138474 -0.999868 -0.00847106
19.4093 24.9103 12.0679 0.011704 -0.999881 -0.0100207
18.3137 24.8968 12.0677 0.0104341 -0.999871 -0.0122202
17.0286 24.8842 12.0676 0.00874565 -0.999901 -0.0109891
16.0962 24.8761 12.0675 0.00773027 -0.999903 -0.0115663
14.9355 24.8683 12.0675 0.00645889 -0.999907 -0.0120325
13.6588 24.8595 12.0674 0.00747584 -0.999912 -0.0110015
12.2967 24.8507 12.0674 0.0073349 -0.999932 -0.00905359
11.3192 24.8448 12.0675 0.00571538 -0.999954 -0.00770188
10.3082 24.839 12.0675 0.00552425 -0.999956 -0.00754454
8.98562 24.832 12.0676 0.00533431 -0.999954 -0.00799666
8.07749 24.8278 12.0677 0.00441719 -0.999951 -0.00890897
6.98621 24.8225 12.0677 0.00548873 -0.999944 -0.00901653
6.02882 24.8171 12.0678 0.00605958 -0.999928 -0.0103584
4.65434 24.8094 12.0679 0.00574632 -0.999928 -0.0105137
3.67802 24.8031 12.0681 0.00668451 -0.999912 -0.0114162
2.77445 24.7971 12.0682 0.00666702 -0.999913 -0.011418
1.81668 24.7904 12.0684 0.00767865 -0.99991 -0.0109839
0.827136 24.7827 12.0686 0.00890771 -0.999906 -0.0104552
-0.482341 24.7681 12.0689 0.0143344 -0.999813 -0.0130112
-1.57031 24.7502 12.069 0.0169401 -0.999789 -0.0116058
-2.76562 24.7299 12.0693 0.0169095 -0.999802 -0.0104708
-3.87612 24.7045 12.0697 0.0232813 -0.999671 -0.0107469
-4.78727 24.6816 12.0701 0.0246792 -0.999672 -0.00680274
-5.71937 24.6551 12.0705 0.0367317 -0.999293 -0.00807828
-6.74568 24.6163 12.0707 0.0459217 -0.998871 -0.0121452
-7.73963 24.5719 12.0709 0.044588 -0.998952 -0.0103044
-8.98001 24.5073 12.0712 0.0546629 -0.998461 -0.00937102
-10.2337 24.4328 12.0717 0.0632694 -0.997934 -0.0111844
-11.3829 24.3544 12.0725 0.070543 -0.997475 -0.00818675
-12.9216 24.2427 12.0747 0.0806172 -0.996677 -0.0116325
-14.0343 24.1355 12.0754 0.0996033 -0.995015 -0.00487122
-14.9549 24.0356 12.0759 0.110753 -0.993751 -0.0138891
-16.213 23.886 12.0768 0.131819 -0.991042 -0.0214345
-17.2239 23.7521 12.078 0.144674 -0.989262 -0.0207469
-18.2007 23.5851 12.0772 0.170478 -0.985245 -0.015175
-19.2359 23.3984 12.0772 0.190405 -0.981688 -0.00593956
-20.1631 23.2179 12.078 0.199531 -0.979865 -0.00725739
-21.6933 22.8999 12.0816 0.201616 -0.979239 -0.0209989
-22.9955 22.6027 12.08 0.236955 -0.971034 -0.0307457
-24.1955 22.2933 12.0772 0.258306 -0.965753 -0.0244768
-25.1165 22.0152 12.0742 0.296852 -0.954136 -0.0387771
-26.504 21.5574 12.0667 0.328686 -0.943995 -0.0289504
-27.408 21.2417 12.0607 0.343578 -0.938665 -0.0293588
-28.4162 20.865 12.0531 0.348374 -0.936661 -0.0360872
-29.3606 20.4964 12.0442 0.37066 -0.927968 -0.0385569
-30.4616 20.0323 12.0292 0.413159 -0.909622 -0.0434437
-31.4813 19.5494 12.0126 0.447684 -0.891793 -0.0654556
-32.3106 19.1514 11.9912 0.432911 -0.897374 -0.0854916
-33.2095 18.6653 11.9568 0.49365 -0.864204 -0.0972659
-34.1176 18.1317 11.9157 0.535127 -0.838033 -0.106489
-34.9515 17.6047 11.8676 0.543736 -0.832156 -0.108941
-34.7575 17.6084 12.9747 0.561833 -0.822739 -0.0862828
-33.5421 18.373 13.0389 0.51076 -0.857579 -0.060678
-32.4898 18.959 13.0779 0.483506 -0.87366 -0.0542218
-31.5797 19.4417 13.1016 0.463479 -0.88467 -0.050459
-30.3464 20.0322 13.1249 0.396038 -0.916767 -0.0518798
-29.1563 20.5282 13.1403 0.375121 -0.926065 -0.0410904
-28.0929 20.9497 13.1489 0.35609 -0.933852 -0.0334688
-27.1143 21.309 13.1548 0.332082 -0.943095 -0.017107
-25.9279 21.7189 13.1601 0.320731 -0.946524 -0.0349741
-24.9652 22.0342 13.164 0.286856 -0.957531 -0.029106
-23.9263 22.3295 13.168 0.248711 -0.968127 -0.029558
-23.0269 22.5612 13.1701 0.249534 -0.968278 -0.0130556
-21.8709 22.8454 13.1699 0.238661 -0.97104 -0.0110241
-20.9407 23.0493 13.1692 0.208845 -0.977905 -0.00927271
-20.0497 23.2303 13.1678 0.19443 -0.980875 -0.00905879
-18.7218 23.4788 13.1667 0.171065 -0.98519 -0.0117236
-17.5931 23.6651 13.1667 0.156248 -0.987519 -0.0198279
-16.2551 23.861 13.1663 0.129047 -0.991481 -0.0176602
-15.1824 23.9967 13.1659 0.114671 -0.993306 -0.01391
-14.1906 24.1112 13.1654 0.111653 -0.993607 -0.0167092
-13.2502 24.1983 13.1646 0.0885709 -0.995973 -0.0139138
-12.2512 24.2814 13.1637 0.0740368 -0.997225 -0.0078328
-11.2411 24.3578 13.163 0.0696569 -0.997558 -0.00513734
-9.92766 24.4408 13.1624 0.0616449 -0.998072 -0.00726929
-8.785 24.5117 13.1622 0.0555704 -0.998438 -0.00581247
-7.78475 24.5604 13.1619 0.046943 -0.998881 -0.00576482
-6.51496 24.6186 13.1617 0.0408237 -0.999144 -0.00668526
-5.46437 24.6559 13.1616 0.0333824 -0.999382 -0.0109732
-4.10375 24.6886 13.1613 0.0227889 -0.999695 -0.00949701
-3.03558 24.7131 13.161 0.0216464 -0.999708 -0.0107368
-1.73717 24.7359 13.1608 0.0157525 -0.999821 -0.0104813
-0.604792 24.7524 13.1607 0.0139154 -0.999848 -0.0105472
0.508824 24.7671 13.1606 0.0132036 -0.999855 -0.0107919
1.65721 24.7768 13.1604 0.0074136 -0.99991 -0.0112044
2.56341 24.7831 13.1603 0.00713841 -0.999931 -0.00930874
3.64036 24.7907 13.1601 0.00723582 -0.999921 -0.0103203
4.56384 24.7974 13.1601 0.00643957 -0.999925 -0.0104128
5.56771 24.8031 13.16 0.00561416 -0.99993 -0.0104463
6.57287 24.8094 13.16 0.0065064 -0.999926 -0.010272
7.54703 24.8157 13.16 0.00587913 -0.999929 -0.0103525
8.5216 24.8206 13.1599 0.0048852 -0.999953 -0.00833908
9.56127 24.8258 13.1599 0.00523382 -0.999948 -0.00870377
10.8762 24.8325 13.1599 0.00538409 -0.999945 -0.00898279
12.2377 24.8382 13.1599 0.00340909 -0.999934 -0.0109681
13.1915 24.844 13.16 0.00688581 -0.999905 -0.0119319
14.4655 24.8519 13.16 0.00689773 -0.999876 -0.0141502
15.4039 24.8582 13.1602 0.00645889 -0.999907 -0.0120325
16.3081 24.8659 13.1603 0.00877796 -0.999901 -0.0110041
17.5328 24.8767 13.1604 0.00841194 -0.999874 -0.0134369
18.5379 24.8854 13.1606 0.0114641 -0.999822 -0.0149795
19.5557 24.8974 13.1609 0.0117846 -0.999815 -0.0152264
21.176 24.9209 13.1613 0.0150421 -0.999785 -0.0142891
22.1992 24.9362 13.1616 0.01809 -0.999685 -0.0173696
23.4903 24.9604 13.1621 0.0174642 -0.99973 -0.0153325
24.9278 24.985 13.1626 0.0208119 -0.999704 -0.0126131
26.3716 25.0144 13.163 0.0185637 -0.999704 -0.0156962
27.2853 25.0318 13.1632 0.0208249 -0.999672 -0.0149086
28.3988 25.058 13.1637 0.0255506 -0.999545 -0.0160316
29.4701 25.0874 13.1643 0.028588 -0.999476 -0.0151763
30.58 25.1202 13.1654 0.0301409 -0.999465 -0.0127231
31.8706 25.1501 13.1667 0.0156125 -0.999805 -0.0121174
32.8422 25.1627 13.1671 0.0141432 -0.999637 -0.0229267
33.8048 25.1749 13.1673 0.0127139 -0.99969 -0.0213989
34.7312 25.1806 13.168 0.00297109 -0.999758 -0.0217758
35.7902 25.1823 13.1681 0.00514441 -0.999843 -0.0169295
37.3434 25.2004 13.1669 0.0180474 -0.999431 -0.0284826
38.487 25.2183 13.1666 0.0143965 -0.999519 -0.0274689
39.7743 25.2147 13.1674 -0.00819701 -0.999348 -0.0351706
40.6811 25.199 13.1675 -0.0203629 -0.999232 -0.0334766
42.0244 25.1834 13.1671 -0.00255338 -0.999336 -0.0363347
43.1155 25.1733 13.167 -0.0197033 -0.999221 -0.0341903
44.3173 25.1253 13.1653 -0.0233236 -0.99583 -0.0881911
45.3765 25.0962 13.163 -0.0320523 -0.996337 -0.0792853
46.3103 25.0429 13.157 -0.0320185 -0.991576 -0.125503
47.7687 24.9948 13.1562 -0.0779951 -0.984872 -0.154737
49.0867 24.8771 13.1506 -0.0905795 -0.984624 -0.149368
50.0652 24.7568 13.1419 -0.135733 -0.984885 -0.107606
51.2457 24.6516 13.1389 -0.0495913 -0.992276 -0.113709
52.4877 24.5552 13.1385 -0.120366 -0.990896 -0.06031
53.6214 24.4638 13.1395 -0.0357094 -0.997201 -0.0656878
54.5592 24.4177 13.1427 -0.0523751 -0.994714 -0.0883218
55.7889 24.3269 13.1453 -0.0686733 -0.996405 -0.0496032
56.9034 24.1859 13.142 -0.256712 -0.958577 -0.123403
57.8461 23.9389 13.1276 -0.35239 -0.928432 -0.117626
59.0682 23.3581 13.0985 -0.427436 -0.903633 -0.0273282
60.1149 22.8339 13.0755 -0.505881 -0.859767 -0.0698902
60.302 22.7056 13.0626 -0.567482 -0.818568 -0.0889419
60.249 22.5999 14.0975 -0.552896 -0.822964 -0.130525
59.1988 23.263 14.1723 -0.49725 -0.863749 -0.0817333
58.2039 23.6183 14.198 -0.327057 -0.918963 -0.220319
57.3108 23.9248 14.2361 -0.324167 -0.919876 -0.220781
56.3417 24.1462 14.2564 -0.109589 -0.984894 -0.134068
55.2252 24.2488 14.2538 -0.0416796 -0.988787 -0.143399
54.0086 24.3147 14.2449 -0.0551437 -0.982928 -0.175535
53.0109 24.3564 14.2372 -0.0560973 -0.975211 -0.21405
51.807 24.4059 14.2282 -0.0637668 -0.98046 -0.186097
50.6132 24.5095 14.2322 -0.110109 -0.970598 -0.214046
49.3669 24.6728 14.2498 -0.103348 -0.981046 -0.163915
48.228 24.7578 14.2559 -0.0726822 -0.974903 -0.210432
46.6713 24.8895 14.2647 -0.0762477 -0.979546 -0.186213
45.5347 24.9544 14.2683 -0.0570892 -0.991236 -0.119134
44.5876 25.0048 14.2714 -0.0497853 -0.991584 -0.119513
43.5025 25.0604 14.2737 -0.0514593 -0.992241 -0.113178
42.2399 25.1225 14.2762 -0.0192724 -0.99588 -0.0886092
41.1747 25.1301 14.2732 -0.0369147 -0.997784 -0.055358
40.1256 25.1642 14.2721 -0.0143085 -0.996699 -0.0799163
39.0909 25.1632 14.2702 0.00488967 -0.998203 -0.0597222
37.9956 25.1562 14.2684 0.00730845 -0.998193 -0.0596484
36.6265 25.1566 14.2681 -0.0108121 -0.998353 -0.0563424
35.6852 25.1509 14.2674 0.00979253 -0.999063 -0.0421488
34.242 25.1419 14.2651 0.00357738 -0.998996 -0.0446606
33.1192 25.1394 14.2636 0.0152181 -0.999527 -0.0267057
32.1423 25.1239 14.2626 0.015264 -0.999429 -0.0301284
30.7214 25.1032 14.2612 0.0164127 -0.999326 -0.0328455
29.4609 25.0699 14.2597 0.0308317 -0.999285 -0.0218993
28.2897 25.0374 14.2584 0.0191773 -0.999567 -0.0223337
27.0195 25.0086 14.2577 0.0220138 -0.999576 -0.0190745
25.896 24.9871 14.2569 0.0180954 -0.999622 -0.0207001
24.8497 24.9665 14.2563 0.0196396 -0.999529 -0.023585
23.8413 24.9481 14.2557 0.0172643 -0.999642 -0.0204193
22.5392 24.9233 14.2551 0.0196306 -0.999596 -0.0205321
21.4527 24.9069 14.2545 0.0146305 -0.999659 -0.0216093
20.1397 24.8887 14.254 0.0139637 -0.999702 -0.0200037
19.1524 24.8754 14.2536 0.0106504 -0.999764 -0.0189311
17.9023 24.8622 14.2532 0.00949656 -0.999837 -0.0153593
16.631 24.8513 14.253 0.0087115 -0.999825 -0.016534
15.6536 24.8435 14.2528 0.00790761 -0.999848 -0.0155258
14.2213 24.8347 14.2526 0.0061504 -0.999855 -0.0158819
13.0957 24.8287 14.2524 0.00533753 -0.999892 -0.0137048
12.1489 24.8242 14.2524 0.00418047 -0.999897 -0.0137249
11.2262 24.8207 14.2523 0.00315973 -0.999901 -0.0137174
10.2807 24.8177 14.2523 0.00424594 -0.999912 -0.0125729
9.04388 24.8121 14.2522 0.00401766 -0.999933 -0.0108271
7.72111 24.805 14.2522 0.00665108 -0.999919 -0.0108441
6.53794 24.7972 14.2522 0.0065502 -0.999917 -0.0110935
5.39292 24.7896 14.2522 0.00605047 -0.999916 -0.0115009
4.29661 24.7838 14.2522 0.00520008 -0.999918 -0.0116643
3.27844 24.7773 14.2522 0.00619373 -0.999931 -0.00994597
2.30016 24.7711 14.2522 0.00770052 -0.999924 -0.0095857
1.18608 24.7619 14.2523 0.00842721 -0.999904 -0.0110277
0.26394 24.7521 14.2524 0.0131479 -0.999854 -0.0109024
-0.916777 24.7366 14.2525 0.0139144 -0.999848 -0.0105447
-1.84039 24.7219 14.2525 0.01625 -0.999802 -0.011516
-3.17119 24.6973 14.2525 0.0203524 -0.999721 -0.0119608
-4.30539 24.6712 14.2527 0.0285732 -0.999492 -0.0141217
-5.48591 24.6382 14.2528 0.0296085 -0.999436 -0.0158531
-6.54141 24.6055 14.2527 0.0307356 -0.999413 -0.0151122
-7.78104 24.554 14.2528 0.0419667 -0.999011 -0.014717
-8.78814 24.4987 14.2529 0.055421 -0.998448 -0.00548436
-9.71562 24.4455 14.2529 0.0622768 -0.998017 -0.00915065
-10.6428 24.3881 14.2531 0.0618608 -0.998039 -0.00953336
-11.5768 24.3221 14.2533 0.0767606 -0.996978 -0.0119627
-12.9237 24.2127 14.2541 0.0847725 -0.996287 -0.0150142
-14.2194 24.0867 14.2547 0.108634 -0.99389 -0.0195046
-15.1723 23.9823 14.255 0.124666 -0.992166 -0.00811898
-16.2134 23.8508 14.2554 0.125272 -0.992093 -0.00761753
-17.2716 23.7018 14.2559 0.155916 -0.987744 -0.00722082
-18.2489 23.5476 14.2562 0.159455 -0.987153 -0.0101914
-19.6286 23.3161 14.2566 0.181989 -0.983297 -0.00260848
-20.8023 23.0661 14.2579 0.212974 -0.97699 -0.0115171
-21.7367 22.8616 14.2583 0.216322 -0.976228 -0.0135852
-22.627 22.6448 14.2585 0.240977 -0.97043 -0.0139591
-23.6381 22.3829 14.258 0.266586 -0.963585 -0.0208672
-24.6545 22.0977 14.2557 0.275604 -0.961125 -0.0167734
-25.8336 21.7287 14.2509 0.310436 -0.950317 -0.0229633
-26.9021 21.3619 14.2473 0.326159 -0.945167 -0.0167273
-27.7738 21.0378 14.2428 0.359011 -0.933103 -0.0207438
-28.6698 20.6904 14.2371 0.368891 -0.929284 -0.0187441
-29.9712 20.14 14.2258 0.412258 -0.910592 -0.0294276
-30.8594 19.7366 14.2109 0.445329 -0.892881 -0.0666751
-31.8015 19.2636 14.1882 0.471565 -0.880187 -0.0538245
-33.1033 18.5526 14.1554 0.483506 -0.87366 -0.0542241
-34.2143 17.8545 14.1022 0.536666 -0.840113 -0.0787423
-34.6538 17.5678 14.0772 0.56223 -0.823099 -0.080027
-34.1396 17.8161 15.2039 0.557662 -0.828556 -0.0500713
-33.3513 18.3374 15.2389 0.534029 -0.844104 -0.0479754
-32.513 18.8406 15.2708 0.496756 -0.867027 -0.0386986
-31.5165 19.3535 15.2941 0.452297 -0.890792 -0.0437817
-30.3842 19.9048 15.3127 0.428321 -0.902348 -0.04805
-29.484 20.3199 15.3236 0.412834 -0.910025 -0.0377205
-28.5831 20.6986 15.3322 0.376378 -0.925763 -0.0360741
-27.5379 21.1028 15.3355 0.355665 -0.934329 -0.0230697
-26.3392 21.5355 15.3398 0.314051 -0.949121 -0.0232824
-25.1703 21.9115 15.3438 0.300667 -0.953505 -0.0207044
-24.0448 22.2482 15.346 0.266245 -0.963762 -0.0166113
-23.1752 22.4894 15.3469 0.257787 -0.966028 -0.0183218
-22.2321 22.7312 15.348 0.245301 -0.969338 -0.0145497
-21.1768 22.9731 15.3471 0.216755 -0.976214 -0.00493068
-19.9544 23.2391 15.3454 0.213473 -0.976898 -0.00998637
-18.6659 23.4641 15.3451 0.163617 -0.986439 -0.0129431
-17.3576 23.6803 15.3445 0.159455 -0.987153 -0.0101914
-15.858 23.8869 15.3444 0.129366 -0.991555 -0.00909867
-14.6931 24.0327 15.3441 0.113986 -0.993466 -0.00567024
-13.5982 24.1424 15.3437 0.0946986 -0.99546 -0.00961172
-12.5136 24.2367 15.3433 0.0823291 -0.996593 -0.00495732
-11.4432 24.3211 15.3431 0.0713808 -0.997449 -0.000892301
-10.4097 24.3932 15.343 0.0630306 -0.997998 -0.00528684
-9.03985 24.4785 15.343 0.0586127 -0.99825 -0.00781662
-7.71578 24.5399 15.3434 0.0442995 -0.998896 -0.015623
-6.47627 24.5912 15.3438 0.0357698 -0.99923 -0.0161303
-5.38827 24.6254 15.3439 0.0321105 -0.999384 -0.0141573
-4.42727 24.6544 15.3438 0.0254656 -0.999584 -0.0135761
-3.3645 24.6775 15.3438 0.0212687 -0.999665 -0.0147709
-2.21132 24.7017 15.3439 0.0211649 -0.999673 -0.014343
-1.15885 24.72 15.344 0.014958 -0.999813 -0.0122654
0.234686 24.7397 15.344 0.0111838 -0.999868 -0.0118005
1.337 24.7499 15.344 0.00891962 -0.999884 -0.0123742
2.61468 24.7606 15.3441 0.0082588 -0.999889 -0.0123944
4.08572 24.769 15.3442 0.00445614 -0.99991 -0.0126567
5.24081 24.7752 15.3442 0.00578454 -0.999903 -0.0126931
6.14492 24.7809 15.3443 0.0065745 -0.999892 -0.0131579
7.23835 24.7875 15.3443 0.00584657 -0.999892 -0.0134982
8.33683 24.794 15.3444 0.00503356 -0.999878 -0.0147578
9.26156 24.7985 15.3445 0.00342495 -0.999885 -0.0147553
10.1924 24.801 15.3446 0.00310115 -0.999874 -0.0155639
11.6305 24.8053 15.3447 0.00387005 -0.999843 -0.0172796
12.8137 24.8116 15.3448 0.00449178 -0.99982 -0.0184406
13.7578 24.8155 15.345 0.00352628 -0.999866 -0.0160022
14.8609 24.821 15.3452 0.00549356 -0.999827 -0.0177893
15.9735 24.8271 15.3454 0.00740996 -0.999777 -0.0197937
16.9099 24.8341 15.3456 0.00858668 -0.999796 -0.0182569
17.8221 24.8417 15.3459 0.0083999 -0.999795 -0.0184412
19.0711 24.8541 15.3464 0.0111964 -0.999763 -0.0186482
20.5576 24.8716 15.3471 0.0125512 -0.999702 -0.0209422
21.918 24.8906 15.3478 0.0154718 -0.999664 -0.0208067
22.9873 24.9091 15.3484 0.0202235 -0.999569 -0.021269
23.9754 24.9261 15.349 0.0158439 -0.99955 -0.0254737
25.3515 24.9505 15.3501 0.0215506 -0.999311 -0.0302223
26.6866 24.9797 15.3516 0.0215183 -0.9994 -0.0271387
27.789 25.0017 15.3528 0.0168812 -0.999463 -0.0280789
28.8292 25.0181 15.3536 0.0246014 -0.999342 -0.0266479
30.2754 25.0509 15.3555 0.0167996 -0.998887 -0.0440809
31.6238 25.0773 15.3575 0.0191881 -0.998798 -0.0451097
32.6111 25.0959 15.3592 0.0108818 -0.99865 -0.0507909
33.5271 25.0957 15.361 -0.00248565 -0.998571 -0.0533794
34.5078 25.0932 15.363 -0.0020716 -0.998593 -0.0529969
35.4084 25.091 15.3645 0.0016837 -0.997606 -0.0691374
36.7346 25.0899 15.3666 -0.00369032 -0.997605 -0.0690748
38.0121 25.0854 15.369 -0.0039749 -0.996612 -0.082145
39.1129 25.0808 15.3715 -0.00402174 -0.996612 -0.0821451
40.1193 25.0758 15.3748 -0.0143086 -0.996699 -0.0799163
41.5506 25.036 15.3783 -0.0359528 -0.994802 -0.0952708
42.6686 24.9828 15.3783 -0.0509789 -0.994682 -0.0894885
43.767 24.9156 15.3751 -0.0608683 -0.991793 -0.112437
44.9359 24.8382 15.3702 -0.0829876 -0.985139 -0.150378
46.003 24.7567 15.3657 -0.0859245 -0.981727 -0.169791
46.9252 24.659 15.359 -0.103078 -0.978154 -0.180526
47.9978 24.5494 15.3513 -0.124519 -0.970428 -0.206795
49.0533 24.4484 15.3386 -0.0816855 -0.966746 -0.242342
49.9783 24.3454 15.3244 -0.126182 -0.962873 -0.23865
50.9684 24.2219 15.3064 -0.096181 -0.953458 -0.285774
52.1693 24.1249 15.3031 -0.00413828 -0.964401 -0.264413
53.1226 24.0829 15.3105 -0.0608532 -0.947015 -0.315371
54.084 24.0748 15.3301 0.00358914 -0.980605 -0.195961
55.0337 24.0715 15.3521 -0.00108411 -0.980668 -0.195677
56.1363 23.9437 15.3465 -0.187174 -0.944198 -0.271028
57.3682 23.6286 15.2983 -0.304514 -0.916491 -0.25945
58.3868 23.3003 15.2555 -0.33463 -0.921025 -0.199338
59.2874 22.991 15.2124 -0.42941 -0.88124 -0.197545
60.1448 22.4661 15.1244 -0.527027 -0.831996 -0.173279
59.4691 22.5619 16.202 -0.473998 -0.815753 -0.331469
58.4905 23.0534 16.3264 -0.400262 -0.87917 -0.258555
57.552 23.3435 16.3681 -0.216805 -0.938198 -0.269777
56.2462 23.5912 16.407 -0.207546 -0.915258 -0.345293
55.175 23.7487 16.4271 -0.00704056 -0.932441 -0.361254
54.237 23.7226 16.3861 0.00930199 -0.904403 -0.426578
53.2363 23.7254 16.3583 0.00475816 -0.90662 -0.421921
52.0338 23.767 16.3421 -0.02656 -0.93293 -0.359076
50.7798 23.8945 16.3563 -0.0969227 -0.938234 -0.33215
49.5216 24.0745 16.3924 -0.148998 -0.93188 -0.330755
48.4077 24.2275 16.423 -0.113886 -0.964344 -0.238895
47.2329 24.3866 16.4423 -0.159424 -0.948825 -0.272607
46.0726 24.5372 16.4568 -0.100235 -0.975158 -0.197535
44.7697 24.6781 16.4661 -0.0946749 -0.983696 -0.152898
43.7404 24.7896 16.4758 -0.100951 -0.980371 -0.169354
42.55 24.8647 16.4767 -0.0608333 -0.986477 -0.152191
41.4002 24.9358 16.478 -0.0514936 -0.990907 -0.124305
40.0751 24.9676 16.4733 -0.022394 -0.9942 -0.105186
38.8395 24.9874 16.4696 -0.0176395 -0.994835 -0.0999655
37.8049 25.0034 16.4668 -0.0113691 -0.997366 -0.0716333
36.8166 25.0114 16.4639 -0.00525081 -0.997395 -0.0719474
35.7545 25.0237 16.4621 -0.0219843 -0.997176 -0.0718155
34.3853 25.0356 16.4593 -0.00165975 -0.998614 -0.0526132
32.8849 25.0324 16.4552 0.00373578 -0.997652 -0.0683855
31.8225 25.0297 16.453 0.0097915 -0.998194 -0.0592713
30.6728 25.0067 16.4505 0.0146991 -0.998645 -0.0499146
29.358 24.988 16.4484 0.016589 -0.998949 -0.0427351
28.1124 24.9715 16.4467 0.0145343 -0.999142 -0.0387726
27.066 24.954 16.4455 0.0182788 -0.998995 -0.0409146
26.1304 24.9354 16.4444 0.0206434 -0.998935 -0.0412638
24.7143 24.9087 16.4427 0.0149245 -0.999482 -0.0285041
23.7276 24.8933 16.4418 0.0172929 -0.999401 -0.0299646
22.7716 24.876 16.4411 0.0180678 -0.999415 -0.0290228
21.5542 24.8576 16.4403 0.0145653 -0.999578 -0.0251369
20.4554 24.844 16.4397 0.0125829 -0.999624 -0.0243686
19.3242 24.8323 16.4391 0.00972438 -0.999622 -0.0257007
17.8216 24.8187 16.4385 0.00679748 -0.999702 -0.0234273
16.5707 24.8093 16.438 0.00678821 -0.999766 -0.0205608
15.5738 24.8029 16.4377 0.00471369 -0.999762 -0.0213125
14.5377 24.7975 16.4375 0.00521499 -0.999772 -0.0206851
13.4494 24.7931 16.4373 0.00433749 -0.999792 -0.0199485
12.5457 24.7896 16.4371 0.00367801 -0.999808 -0.0192681
11.1771 24.7846 16.4369 0.00335649 -0.999787 -0.0203763
9.97772 24.7805 16.4368 0.00358396 -0.999785 -0.0204221
8.81681 24.7759 16.4366 0.0036657 -0.999813 -0.0189825
7.75716 24.7725 16.4365 0.00321501 -0.999825 -0.0184122
6.56007 24.7667 16.4363 0.00455981 -0.999833 -0.0176848
5.4357 24.761 16.4362 0.00610357 -0.999845 -0.0165393
4.21845 24.7542 16.4361 0.00461362 -0.999864 -0.0158621
3.26607 24.7498 16.436 0.00356937 -0.999874 -0.0154762
1.97104 24.7421 16.4358 0.00820398 -0.999897 -0.0117802
0.620435 24.7306 16.4357 0.00943467 -0.999898 -0.0107389
-0.50922 24.7157 16.4355 0.0149058 -0.999798 -0.013518
-1.41987 24.7016 16.4354 0.0188798 -0.999706 -0.0152041
-2.60842 24.6778 16.4352 0.0211739 -0.999676 -0.0141321
-3.53883 24.6579 16.435 0.0218464 -0.999663 -0.013998
-4.85155 24.6265 16.4348 0.0295614 -0.999428 -0.016455
-6.05925 24.588 16.4347 0.0328707 -0.999326 -0.0163332
-6.98175 24.5537 16.4344 0.0390604 -0.999154 -0.0128631
-8.20366 24.5056 16.434 0.0397464 -0.999127 -0.0128277
-9.28788 24.4532 16.4335 0.055042 -0.998427 -0.0107122
-10.5764 24.3762 16.4329 0.0641719 -0.997897 -0.00916688
-11.9862 24.2739 16.4327 0.081172 -0.996688 -0.00489919
-12.8932 24.1995 16.4326 0.0934356 -0.995625 -0.000660224
-13.9775 24.0988 16.4328 0.0925375 -0.995708 -0.00158666
-15.0064 23.9864 16.4332 0.129715 -0.991551 0.00109156
-16.1211 23.8415 16.4336 0.134497 -0.990871 -0.00919677
-17.1089 23.7072 16.4336 0.134714 -0.990839 -0.00946311
-18.2988 23.521 16.4335 0.168083 -0.98577 -0.00220688
-19.627 23.2835 16.4339 0.180912 -0.983498 -0.00175862
-20.8025 23.047 16.4349 0.213774 -0.97687 0.00508829
-21.7157 22.8474 16.4363 0.236548 -0.971581 -0.00864784
-22.6333 22.6118 16.4361 0.248225 -0.968658 -0.00926962
-23.7157 22.3222 16.4352 0.267297 -0.963547 -0.0113854
-24.9872 21.9498 16.4336 0.301631 -0.953328 -0.0135623
-26.1889 21.5646 16.4313 0.314611 -0.949169 -0.00992479
-27.2269 21.2027 16.4275 0.354968 -0.934817 -0.0107253
-28.5183 20.7027 16.4221 0.384144 -0.923262 -0.00451936
-29.4444 20.3066 16.4173 0.40226 -0.915517 -0.00395074
-30.5885 19.7722 16.4079 0.429973 -0.902841 -0.000679337
-31.7678 19.1562 16.3888 0.481978 -0.875934 -0.0208963
-32.8861 18.5394 16.3547 0.513295 -0.855757 -0.0648657
-33.7866 17.9769 16.3172 0.56082 -0.825525 -0.0631629
-32.9653 18.4231 17.4531 0.529023 -0.848015 -0.0317012
-31.8836 19.0622 17.4836 0.489381 -0.871445 -0.0330123
-30.9266 19.5774 17.499 0.457083 -0.889244 -0.0179217
-30.0541 20.0197 17.5078 0.419826 -0.907455 -0.0164983
-29.0924 20.4535 17.5131 0.405989 -0.913772 -0.0139405
-28.1207 20.8511 17.5165 0.374323 -0.927267 -0.00764714
-26.9963 21.278 17.52 0.348959 -0.937065 -0.0116742
-25.7816 21.6882 17.5231 0.31517 -0.948974 -0.0107574
-24.5227 22.088 17.5239 0.302479 -0.953142 -0.00523066
-23.2796 22.4303 17.5234 0.265893 -0.96396 -0.00906734
-22.3285 22.6814 17.5231 0.251776 -0.967773 -0.0049943
-21.3225 22.9322 17.5232 0.221419 -0.975169 -0.00432651
-19.9051 23.229 17.5229 0.183715 -0.982979 -0.000245819
-18.7317 23.4394 17.5224 0.168213 -0.985746 -0.00313301
-17.6734 23.6113 17.5225 0.15017 -0.988626 -0.00823431
-16.4962 23.7836 17.5222 0.139226 -0.990257 -0.00254928
-15.3543 23.9405 17.5222 0.132471 -0.991184 -0.00238197
-14.3614 24.0572 17.5224 0.0994874 -0.995024 -0.00541567
-13.3573 24.1558 17.5224 0.0943356 -0.99554 0.00026605
-12.251 24.2494 17.5224 0.0757911 -0.997124 -7.1048e-05
-11.1109 24.3316 17.523 0.0645538 -0.99787 -0.00943537
-10.0884 24.3941 17.5235 0.056181 -0.998393 -0.00747462
-9.15756 24.4475 17.5241 0.048946 -0.998695 -0.0145825
-7.82858 24.5057 17.5247 0.0401848 -0.999082 -0.0148259
-6.46937 24.5554 17.5251 0.0354156 -0.999231 -0.0168372
-5.41327 24.5912 17.5255 0.0344752 -0.999282 -0.0157116
-4.40707 24.6202 17.5259 0.0276764 -0.999515 -0.0143086
-3.20493 24.6499 17.5263 0.0214289 -0.999682 -0.013306
-1.97196 24.6747 17.5268 0.0186152 -0.999719 -0.0146705
-1.0294 24.6921 17.527 0.0157605 -0.999754 -0.0155982
-0.0589561 24.7074 17.5273 0.0152359 -0.999776 -0.0146597
0.959114 24.7197 17.5275 0.0116493 -0.999827 -0.0144773
2.04903 24.7293 17.5277 0.00620103 -0.999861 -0.0154557
3.0182 24.7326 17.5279 0.00297425 -0.999854 -0.0168408
3.94675 24.7356 17.528 0.00449568 -0.999857 -0.0163125
4.95884 24.74 17.5281 0.00466591 -0.999849 -0.0167299
6.12024 24.746 17.5283 0.00479258 -0.999839 -0.0172814
7.54964 24.7514 17.5285 0.00270762 -0.999808 -0.0194326
8.62336 24.7539 17.5287 0.00262611 -0.999791 -0.0202719
9.86729 24.7579 17.5289 0.00338732 -0.999792 -0.0201215
10.8898 24.7614 17.5291 0.00328681 -0.999786 -0.0204301
12.2964 24.7659 17.5293 0.00362156 -0.999781 -0.0206301
13.3995 24.7692 17.5295 0.00299324 -0.999757 -0.0218201
14.3451 24.7735 17.5298 0.00383407 -0.999732 -0.0228159
15.2798 24.7774 17.53 0.00505887 -0.999697 -0.0240913
16.3242 24.783 17.5304 0.00661701 -0.999701 -0.0235365
17.2448 24.7883 17.5307 0.0057825 -0.999684 -0.024458
18.588 24.7973 17.5312 0.00773335 -0.999622 -0.0263798
19.6014 24.8068 17.5317 0.00838967 -0.999584 -0.0276061
20.7616 24.819 17.5323 0.0113712 -0.999472 -0.030452
21.7866 24.8304 17.533 0.0128199 -0.999505 -0.0287331
22.9627 24.8455 17.534 0.014397 -0.999324 -0.0338287
23.9522 24.8632 17.535 0.0171943 -0.999317 -0.0327218
24.9827 24.8763 17.5361 0.00932141 -0.999263 -0.0372362
26.3119 24.8952 17.5376 0.0196277 -0.999043 -0.0390941
27.3855 24.9137 17.5389 0.0183275 -0.998781 -0.0458318
28.3221 24.9275 17.5403 0.00875655 -0.998373 -0.0563376
29.5059 24.942 17.5425 0.0099661 -0.998198 -0.0591785
31.0571 24.9573 17.5455 0.00595411 -0.997898 -0.0645368
32.5882 24.9563 17.5487 0.00159336 -0.997722 -0.0674424
34.0444 24.9554 17.5527 0.00134285 -0.997369 -0.0724813
34.9652 24.952 17.555 -0.00581631 -0.996654 -0.0815242
36.0013 24.9371 17.557 -0.0187044 -0.996369 -0.083061
37.2005 24.9172 17.5599 -0.0140219 -0.995417 -0.0945971
38.2305 24.8947 17.5627 -0.02224 -0.995123 -0.0961021
39.2832 24.8669 17.566 -0.0343634 -0.991182 -0.127972
40.3833 24.8159 17.5671 -0.0474686 -0.988919 -0.140662
41.6055 24.754 17.5682 -0.0604377 -0.986347 -0.15319
42.561 24.6938 17.5682 -0.0817052 -0.981628 -0.172426
43.9539 24.5583 17.5595 -0.101861 -0.977617 -0.18409
44.8865 24.4627 17.553 -0.0999651 -0.974853 -0.199171
45.8691 24.3464 17.546 -0.150708 -0.95935 -0.238609
46.8508 24.1629 17.5195 -0.185256 -0.941859 -0.280323
48.1528 23.923 17.4816 -0.189309 -0.924816 -0.329965
49.271 23.7305 17.4413 -0.156573 -0.921765 -0.354731
50.5611 23.5172 17.3899 -0.134917 -0.922122 -0.362613
51.5397 23.4114 17.3758 -0.119699 -0.913791 -0.388147
52.5092 23.315 17.3635 -0.0727783 -0.904889 -0.419379
53.4306 23.2604 17.3712 0.000215812 -0.908796 -0.417241
54.3829 23.2446 17.3979 -0.0176884 -0.897475 -0.44071
55.4653 23.2384 17.4359 0.0186505 -0.873122 -0.487144
56.6155 23.1041 17.4217 -0.098941 -0.883529 -0.457806
57.8859 22.8481 17.3756 -0.204765 -0.887428 -0.412968
58.9999 22.3822 17.2361 -0.400758 -0.845736 -0.352312
59.2743 22.2743 17.2082 -0.401874 -0.863326 -0.305232
58.7408 22.1269 18.2768 -0.345242 -0.866688 -0.360082
57.7239 22.4192 18.3709 -0.195062 -0.889409 -0.413403
56.7481 22.612 18.422 -0.140597 -0.893185 -0.427145
55.589 22.6955 18.4123 -0.0480506 -0.874563 -0.482526
54.3566 22.757 18.392 -0.0176884 -0.897475 -0.44071
53.1249 22.7991 18.3642 -0.0517841 -0.90351 -0.425427
51.9055 22.9014 18.3669 -0.104112 -0.903443 -0.415874
50.9052 23.0221 18.3916 -0.109154 -0.884704 -0.453194
50.006 23.1765 18.4354 -0.163857 -0.900611 -0.402556
49.0603 23.3552 18.4813 -0.238658 -0.903943 -0.354865
47.886 23.6018 18.5376 -0.206728 -0.923845 -0.322138
46.6562 23.8837 18.5861 -0.204635 -0.932428 -0.29783
45.673 24.0697 18.6133 -0.204692 -0.946322 -0.250153
44.6431 24.2597 18.6382 -0.120615 -0.966263 -0.227569
43.6301 24.384 18.6475 -0.13245 -0.967561 -0.215133
42.6765 24.4831 18.6518 -0.0988729 -0.978717 -0.179823
41.6645 24.5705 18.6548 -0.0735651 -0.985087 -0.155537
40.7525 24.6464 18.6582 -0.0826077 -0.985817 -0.146082
39.5799 24.7124 18.6579 -0.0564523 -0.989096 -0.136022
38.3488 24.7761 18.6562 -0.0488235 -0.99265 -0.110737
37.3324 24.8079 18.6533 -0.0301851 -0.994715 -0.0981368
36.2175 24.8378 18.6503 -0.0201296 -0.996062 -0.0863384
35.0857 24.8553 18.6476 -0.0130173 -0.995582 -0.0929922
33.7903 24.8718 18.6449 -0.0170048 -0.996392 -0.083151
32.6471 24.8805 18.642 -0.00442267 -0.997594 -0.0691882
31.5459 24.8842 18.6394 0.000579541 -0.997757 -0.0669324
30.321 24.8823 18.6367 0.00595401 -0.997898 -0.0645367
29.3938 24.8747 18.6348 0.0076201 -0.998126 -0.0607141
28.0473 24.8658 18.6328 0.00520363 -0.998471 -0.0550314
26.6812 24.8521 18.6309 0.0153452 -0.998436 -0.0537577
25.7624 24.8393 18.6297 0.00920002 -0.998681 -0.0505115
24.409 24.8245 18.6281 0.0116518 -0.998988 -0.0434325
23.3716 24.813 18.627 0.0106375 -0.999051 -0.0422396
22.1171 24.7985 18.6258 0.0121915 -0.99927 -0.0362147
21.2148 24.79 18.6251 0.00875121 -0.999315 -0.0359559
19.7243 24.7767 18.6241 0.00736228 -0.999571 -0.0283633
18.7756 24.7698 18.6237 0.00574854 -0.999549 -0.0294634
17.6266 24.7621 18.6232 0.00550292 -0.99959 -0.0280878
16.3522 24.7552 18.6227 0.00625824 -0.999643 -0.0259919
15.1723 24.7503 18.6223 0.00396883 -0.999663 -0.0256365
13.8107 24.7458 18.6219 0.00286432 -0.999673 -0.0254265
12.8202 24.7433 18.6216 0.00282574 -0.999708 -0.0240087
11.7719 24.7399 18.6214 0.00312304 -0.999742 -0.0224927
10.7564 24.7366 18.6212 0.00324539 -0.999739 -0.0226345
9.29149 24.7326 18.6208 0.00213543 -0.99976 -0.0218179
8.35376 24.7312 18.6207 0.00148985 -0.999776 -0.0211052
7.35303 24.7296 18.6205 0.0027073 -0.999808 -0.0194301
6.11598 24.7256 18.6203 0.00322635 -0.999812 -0.0191112
4.94446 24.7214 18.6201 0.00336953 -0.999821 -0.0186246
4.04412 24.7179 18.6199 0.00418855 -0.999854 -0.0165781
2.88196 24.7138 18.6197 0.00315499 -0.999856 -0.0166914
1.97471 24.7104 18.6195 0.0041825 -0.999845 -0.0170978
0.925478 24.7025 18.6192 0.0119644 -0.999756 -0.0185509
0.0163503 24.6907 18.6188 0.0141811 -0.999763 -0.0165292
-1.35148 24.6694 18.6183 0.0165623 -0.999721 -0.0168647
-2.3685 24.6517 18.6179 0.0178808 -0.999719 -0.0155933
-3.63223 24.6241 18.6173 0.0251656 -0.999565 -0.0153858
-4.5628 24.6 18.6169 0.0298503 -0.999469 -0.0130269
-5.93132 24.5574 18.6162 0.0343312 -0.999319 -0.0135333
-6.95204 24.522 18.6156 0.0377249 -0.999216 -0.0120219
-7.86884 24.4873 18.615 0.0369292 -0.999223 -0.0137435
-9.30551 24.4293 18.6142 0.0404826 -0.99914 -0.00896391
-10.5026 24.3697 18.6136 0.0521393 -0.998627 -0.00504486
-11.4798 24.3039 18.6128 0.0685883 -0.99764 -0.00314665
-12.3808 24.2378 18.6123 0.0765737 -0.997055 -0.00426739
-13.4887 24.1382 18.612 0.0994307 -0.995035 -0.0042775
-14.8551 23.9904 18.6115 0.118142 -0.992881 -0.0151632
-15.8236 23.8752 18.6107 0.125313 -0.992078 -0.00877299
-16.8962 23.7293 18.6107 0.134722 -0.990881 0.0022498
-17.8073 23.5931 18.6108 0.161612 -0.986854 0.000692535
-18.9271 23.4043 18.611 0.171107 -0.985249 0.00247386
-20.0951 23.1873 18.6116 0.19264 -0.981227 -0.00915566
-21.0554 22.9883 18.6113 0.22349 -0.974689 -0.00581992
-22.4272 22.6565 18.6111 0.24737 -0.968909 0.00491268
-23.5022 22.3775 18.6123 0.272958 -0.961906 0.0151653
-24.5073 22.088 18.6136 0.295793 -0.955252 -0.000888228
-25.5828 21.7447 18.6135 0.303019 -0.952965 -0.00615559
-26.4417 21.4604 18.6133 0.325756 -0.945394 -0.0106265
-27.65 21.0267 18.6103 0.35665 -0.934201 -0.00828362
-28.5511 20.6734 18.6084 0.38026 -0.924836 0.00894758
-29.5108 20.2513 18.6057 0.410585 -0.911806 0.00537993
-30.5128 19.7781 18.5993 0.446433 -0.894816 -0.00129418
-31.3309 19.352 18.5914 0.479666 -0.877346 -0.0135765
-32.4569 18.7 18.5701 0.518002 -0.854909 -0.0283604
-31.9255 18.9833 19.6835 0.518717 -0.854945 0.00112763
-30.9559 19.538 19.6933 0.462476 -0.886631 -0.00157623
-30.0434 20.0053 19.6989 0.422833 -0.906205 0.00203359
-28.8515 20.5546 19.7034 0.410587 -0.911806 0.00538023
-27.6999 21.007 19.7037 0.357299 -0.93397 0.00605471
-26.6168 21.3937 19.7044 0.32858 -0.944384 0.0131841
-25.6012 21.7404 19.7042 0.302388 -0.952981 0.019696
-24.5061 22.0892 19.7023 0.294544 -0.955519 0.0150752
-23.5228 22.3847 19.7012 0.276343 -0.961036 0.00660745
-22.3997 22.6777 19.6997 0.24545 -0.969236 0.0183356
-21.1313 22.9765 19.6988 0.228006 -0.973588 0.0118219
-20.184 23.1764 19.6993 0.203047 -0.979161 0.00401359
-19.2263 23.36 19.6991 0.16706 -0.985916 0.00778202
-18.1021 23.5484 19.6991 0.162655 -0.986656 0.00731178
-17.0049 23.7188 19.699 0.139904 -0.990162 0.00237364
-15.5229 23.9164 19.6995 0.128345 -0.991727 0.00237528
-14.5665 24.0281 19.7 0.0983667 -0.995148 -0.00220638
-13.2469 24.1587 19.7015 0.0986933 -0.995115 -0.00234125
-12.1455 24.2536 19.7025 0.0777297 -0.996974 0.000173888
-11.2124 24.3131 19.703 0.0634466 -0.997958 -0.00736504
-10.2465 24.3709 19.7038 0.0517079 -0.998597 -0.0113726
-8.95538 24.4324 19.7047 0.0385882 -0.999196 -0.01085
-7.77499 24.478 19.7056 0.0374842 -0.999228 -0.0117263
-6.86229 24.5125 19.7063 0.0364674 -0.999298 -0.00856357
-5.77291 24.5504 19.7071 0.0348429 -0.999343 -0.0099738
-4.72661 24.5832 19.7078 0.030756 -0.99947 -0.0106704
-3.58773 24.6122 19.7084 0.020048 -0.999689 -0.0148337
-2.12503 24.6387 19.7092 0.0160763 -0.999769 -0.0142476
-0.810131 24.6593 19.7099 0.015542 -0.999729 -0.0173271
0.568057 24.6764 19.7105 0.00963556 -0.999776 -0.0188622
1.65706 24.6859 19.711 0.00687244 -0.999787 -0.0194793
2.58559 24.6933 19.7115 0.0080271 -0.999805 -0.0180492
3.51911 24.6976 19.7117 0.00289392 -0.99985 -0.0170919
4.65283 24.7006 19.712 0.00316905 -0.99983 -0.0181834
5.88099 24.7042 19.7122 0.00222315 -0.999819 -0.0188735
7.15688 24.7069 19.7125 0.00189069 -0.999788 -0.020521
8.08271 24.708 19.7127 0.000962264 -0.999776 -0.0211215
9.05 24.7087 19.7129 0.00093261 -0.99975 -0.0223591
10.1822 24.7106 19.7131 0.00248315 -0.999751 -0.0221628
11.2983 24.7131 19.7134 0.00262706 -0.999715 -0.0237408
12.3601 24.7159 19.7137 0.00255783 -0.999715 -0.0237506
13.2609 24.7176 19.7139 0.00119834 -0.999687 -0.0249722
14.2773 24.7195 19.7142 0.00242699 -0.999684 -0.0250387
15.326 24.7228 19.7145 0.00359969 -0.99962 -0.0273276
16.3433 24.7261 19.7149 0.00304403 -0.999576 -0.028969
17.4394 24.7304 19.7154 0.00439553 -0.999523 -0.0305572
18.4391 24.735 19.7158 0.00479596 -0.999525 -0.0304276
19.5722 24.7417 19.7164 0.00627288 -0.999447 -0.0326626
20.6029 24.7466 19.717 0.00639844 -0.999387 -0.0344126
21.7988 24.7562 19.718 0.0064321 -0.999321 -0.0362892
22.7158 24.7626 19.7187 0.00839257 -0.999134 -0.0407453
23.7536 24.772 19.7197 0.00723165 -0.998999 -0.0441461
25.0519 24.7788 19.7209 0.00701226 -0.998837 -0.0476976
26.033 24.7866 19.7221 0.0097457 -0.998427 -0.0552158
27.2357 24.7967 19.7238 0.00762353 -0.998232 -0.0589423
28.4813 24.8036 19.7256 0.00282973 -0.998206 -0.0598142
29.5206 24.8085 19.7272 0.00351456 -0.997904 -0.0646136
30.4434 24.8077 19.7289 0.000534668 -0.997673 -0.0681739
31.9072 24.7991 19.7321 -0.0117522 -0.996854 -0.0783894
33.452 24.7832 19.736 -0.0146136 -0.996031 -0.0878031
34.9329 24.7535 19.7389 -0.0235101 -0.995539 -0.0913766
36.1585 24.7249 19.7417 -0.0381374 -0.992792 -0.113618
37.2382 24.692 19.745 -0.0269768 -0.992755 -0.117092
38.41 24.6354 19.7469 -0.0628593 -0.989695 -0.128653
39.6877 24.558 19.7472 -0.0603154 -0.988312 -0.140008
40.8141 24.4761 19.7442 -0.0904115 -0.984514 -0.15019
41.8872 24.3709 19.738 -0.117881 -0.978034 -0.17191
43.1058 24.235 19.7328 -0.122099 -0.973363 -0.194053
44.2192 24.0715 19.7217 -0.150956 -0.963273 -0.222077
45.2369 23.8823 19.6973 -0.200765 -0.950242 -0.238187
46.5401 23.5772 19.6457 -0.246707 -0.929784 -0.273199
47.7761 23.284 19.5966 -0.262899 -0.913486 -0.310527
48.7575 23.0144 19.5279 -0.240249 -0.895533 -0.374566
50.0446 22.7077 19.4361 -0.221104 -0.895031 -0.387341
51.2667 22.4697 19.3624 -0.155979 -0.887794 -0.433005
52.5136 22.3619 19.3533 -0.0422519 -0.882479 -0.46845
53.7845 22.2894 19.371 -0.046242 -0.887937 -0.457635
55.0523 22.2062 19.3789 -0.0642973 -0.88772 -0.455872
55.982 22.1237 19.3774 -0.0956198 -0.86641 -0.490092
56.9598 22.033 19.3745 -0.118845 -0.849461 -0.514093
58.0345 21.8396 19.3155 -0.196017 -0.820881 -0.536407
58.1986 21.8024 19.3027 -0.323083 -0.82986 -0.454917
57.3405 21.4064 20.2927 -0.201074 -0.844741 -0.495966
56.2974 21.5864 20.3429 -0.140386 -0.864292 -0.483002
55.2583 21.6827 20.3521 -0.0632047 -0.877889 -0.474674
53.9754 21.7748 20.3585 -0.0628437 -0.881655 -0.467691
52.667 21.8489 20.3417 -0.0344788 -0.891318 -0.452066
51.6131 21.9485 20.3434 -0.150919 -0.902631 -0.403088
50.7375 22.1157 20.394 -0.20726 -0.888893 -0.408549
52.7697 21.3802 21.3496 -0.131917 -0.898816 -0.418005
53.7065 21.2671 21.3246 -0.0761739 -0.876089 -0.476095
54.953 21.1639 21.308 -0.0713505 -0.87058 -0.486826
56.1697 21.0654 21.2899 -0.0925009 -0.854852 -0.510561
56.2423 21.0565 21.2877 -0.180056 -0.860434 -0.476689
48.335 22.7226 20.5857 -0.276817 -0.896803 -0.345133
47.3073 23.0324 20.6572 -0.300703 -0.896899 -0.324268
46.2061 23.3599 20.7246 -0.260967 -0.927167 -0.268807
44.8865 23.6757 20.7766 -0.199171 -0.944015 -0.262994
43.7711 23.874 20.7974 -0.172236 -0.959836 -0.221473
42.8298 24.0539 20.8117 -0.156673 -0.96749 -0.198534
41.4091 24.2304 20.8202 -0.11148 -0.977103 -0.181225
40.2468 24.3595 20.8304 -0.0984878 -0.981675 -0.163141
39.2134 24.4362 20.8338 -0.0687666 -0.988256 -0.136461
