44.5225 25.8149 11.2033 -0.0331147 -0.999063 0.0278503
44.5245 25.8086 12.1792 -0.0115034 -0.999039 -0.0423051
44.5256 25.7629 13.146 -0.0166427 -0.998749 -0.0471493
44.5264 25.6803 14.1038 -0.0120658 -0.994956 -0.0995848
44.5235 25.5521 15.0728 -0.0476616 -0.990368 -0.130001
44.5153 25.3879 16.3925 -0.095268 -0.983326 -0.154898
44.5016 25.2276 17.3045 -0.111234 -0.974899 -0.192873
44.4744 24.9631 18.4927 -0.131324 -0.966304 -0.221384
44.4497 24.7664 19.4105 -0.148374 -0.961734 -0.23033
44.397 24.431 20.8545 -0.180173 -0.960618 -0.211544
44.35 24.1807 21.9545 -0.231335 -0.950975 -0.205259
44.2999 23.9367 23.1326 -0.244339 -0.949682 -0.195966
44.2607 23.7514 24.1525 -0.249344 -0.952994 -0.172132
44.2352 23.6276 24.9069 -0.23258 -0.957406 -0.171116
43.1461 23.6183 26.8211 -0.216743 -0.971212 -0.0988377
43.1716 23.7724 25.5938 -0.206265 -0.970235 -0.126878
43.1969 23.9133 24.6379 -0.209674 -0.965149 -0.156603
43.227 24.0659 23.7139 -0.198459 -0.963268 -0.18091
43.2646 24.2654 22.598 -0.189747 -0.962548 -0.193644
43.3128 24.5388 21.278 -0.179324 -0.962396 -0.204053
43.3435 24.7285 20.3896 -0.176005 -0.96126 -0.212138
43.375 24.963 19.1726 -0.134986 -0.97042 -0.200158
43.4066 25.2456 17.821 -0.0909714 -0.978086 -0.187273
43.4189 25.4386 16.6033 -0.0616655 -0.988048 -0.141275
43.4272 25.5944 15.4421 -0.0654624 -0.9922 -0.10608
43.4302 25.6978 14.3847 -0.0540519 -0.993783 -0.0973351
43.4306 25.7825 13.277 -0.0497346 -0.99679 -0.0627398
43.4286 25.8364 11.9403 -0.051922 -0.998166 -0.031127
43.4259 25.8468 10.837 -0.0331391 -0.999339 0.0149567
43.4217 25.7947 9.41106 -0.0472487 -0.996944 0.0622141
43.417 25.7187 8.424 -0.0378653 -0.992976 0.112097
43.4091 25.5943 7.47748 -0.0588239 -0.989069 0.135212
43.3958 25.4253 6.31904 -0.0793014 -0.98485 0.154214
43.3755 25.2343 5.04813 -0.093 -0.981883 0.165094
43.3457 25.0109 3.69342 -0.100441 -0.983146 0.152763
43.3245 24.8521 2.64284 -0.112215 -0.981534 0.154915
43.297 24.6485 1.06936 -0.123534 -0.984459 0.12482
43.2811 24.5253 0.0331924 -0.12171 -0.986587 0.108774
43.2651 24.3941 -1.13083 -0.128519 -0.986235 0.104032
43.2533 24.2856 -2.2938 -0.127512 -0.988189 0.0849909
43.2467 24.2084 -3.28905 -0.121856 -0.989282 0.080447
43.2386 24.1046 -4.67724 -0.114277 -0.990786 0.0726924
43.2361 24.0603 -5.45033 -0.116186 -0.991764 0.0538958
42.1577 24.0982 -6.83464 -0.0986581 -0.993587 0.0552348
42.1623 24.167 -5.63412 -0.104892 -0.992511 0.0626087
42.1665 24.2294 -4.64851 -0.102281 -0.991879 0.0755955
42.1747 24.3283 -3.35073 -0.116193 -0.990059 0.0792568
42.1831 24.4187 -2.23194 -0.110639 -0.989691 0.0909439
42.1955 24.5317 -1.11599 -0.107651 -0.989243 0.099043
42.2067 24.6263 -0.219537 -0.117463 -0.987539 0.104734
42.2215 24.7464 0.83282 -0.108664 -0.986092 0.125759
42.2357 24.867 1.81248 -0.099025 -0.986571 0.129891
42.2523 25.0036 2.84452 -0.0979899 -0.984839 0.143147
42.272 25.1628 3.96512 -0.100442 -0.983145 0.152764
42.2913 25.3268 5.17722 -0.0700221 -0.989772 0.124291
42.3045 25.4651 6.12145 -0.0388722 -0.991603 0.123338
42.3148 25.5915 7.10334 -0.0298688 -0.989874 0.138768
42.3216 25.7046 8.10548 -0.00886992 -0.995041 0.0990695
42.3273 25.802 9.30806 0.00308614 -0.998111 0.0613514
42.332 25.8562 10.4646 0.00219811 -0.999655 0.0261722
42.3343 25.8667 11.4788 0.00403314 -0.999987 -0.00300831
42.3352 25.8588 12.4715 -0.000954014 -0.999457 -0.0329497
42.3352 25.7909 13.8276 -0.0127614 -0.998705 -0.0492467
42.3332 25.6991 14.8421 -0.0294262 -0.993764 -0.107547
42.3294 25.5899 15.828 -0.0284407 -0.992266 -0.120828
42.3232 25.4621 16.8784 -0.0417251 -0.992592 -0.114103
42.306 25.2383 18.2908 -0.0685824 -0.984177 -0.163378
42.2829 25.0179 19.6427 -0.101932 -0.978187 -0.181
42.258 24.8301 20.6467 -0.11964 -0.97537 -0.185312
42.2349 24.6667 21.5379 -0.149327 -0.966829 -0.207226
42.1913 24.3993 22.9198 -0.15887 -0.971236 -0.177372
42.1615 24.2222 23.9433 -0.176857 -0.972571 -0.151088
42.1376 24.0818 24.875 -0.183362 -0.970422 -0.157035
42.1142 23.9476 25.8759 -0.181047 -0.975147 -0.127715
42.094 23.8177 27.0113 -0.17765 -0.980059 -0.0890183
42.0812 23.7301 27.9484 -0.20738 -0.974047 -0.0906946
42.0792 23.7152 28.1413 -0.201063 -0.976145 -0.0819405
41.0161 23.8544 28.7106 -0.155648 -0.984639 -0.0791131
41.0275 23.9385 27.6961 -0.164056 -0.981589 -0.0978226
41.0409 24.0284 26.7537 -0.150955 -0.983117 -0.103408
41.0617 24.1624 25.5807 -0.152295 -0.981644 -0.114807
41.0835 24.3022 24.5106 -0.14953 -0.978038 -0.145195
41.1073 24.4555 23.5102 -0.138999 -0.978521 -0.152236
41.1359 24.6401 22.4717 -0.122688 -0.977884 -0.169384
41.1621 24.8312 21.3531 -0.108068 -0.977812 -0.179455
41.1842 25.0101 20.293 -0.0879696 -0.982817 -0.162274
41.2064 25.215 18.9972 -0.0770662 -0.986544 -0.14419
41.2216 25.3995 17.7046 -0.0635347 -0.986933 -0.148076
41.2328 25.5781 16.3651 -0.0380911 -0.994443 -0.0981478
41.2376 25.7082 14.9825 -0.0208177 -0.994734 -0.100356
41.2404 25.8159 13.6192 -0.013575 -0.998731 -0.0484975
41.2405 25.8494 12.4334 0.00468619 -0.999883 -0.0145346
41.2399 25.8596 11.3798 0.00441604 -0.999897 0.0136563
41.2366 25.8446 10.0461 -0.0021456 -0.999554 0.0297943
41.2322 25.7817 8.8642 -0.00897808 -0.99796 0.0632059
41.2267 25.6821 7.68136 -0.0245115 -0.994448 0.102337
41.2208 25.5936 6.78397 -0.0461059 -0.991234 0.123816
41.2088 25.4439 5.55667 -0.0523373 -0.992125 0.113795
41.1951 25.3046 4.39415 -0.0679497 -0.989864 0.12471
41.1826 25.181 3.36827 -0.0808689 -0.987955 0.131926
41.1675 25.0497 2.40666 -0.0961488 -0.987175 0.127438
41.1512 24.9036 1.22468 -0.0926506 -0.989192 0.113646
41.1388 24.793 0.279272 -0.103196 -0.988519 0.110364
41.1276 24.6925 -0.63245 -0.103802 -0.98923 0.103198
41.1175 24.6012 -1.57743 -0.0977871 -0.990392 0.0977815
41.106 24.4888 -2.80781 -0.0973688 -0.991624 0.0848585
41.0988 24.4101 -3.72543 -0.102712 -0.991361 0.0815734
41.0931 24.3409 -4.65552 -0.103501 -0.99188 0.0739006
41.0875 24.2688 -5.74288 -0.0975585 -0.993171 0.0639859
41.0816 24.188 -7.10758 -0.095277 -0.993962 0.0544212
41.0784 24.1326 -8.15085 -0.0895599 -0.994898 0.046436
39.9997 24.1874 -9.11742 -0.0802303 -0.995797 0.0441676
40.0031 24.2417 -7.94738 -0.0897362 -0.994414 0.0555777
40.0076 24.31 -6.69508 -0.0873752 -0.994404 0.0593782
40.014 24.3949 -5.3497 -0.0902236 -0.993958 0.0624998
40.0207 24.4772 -4.17181 -0.0918145 -0.992934 0.0751807
40.0277 24.5525 -3.21629 -0.0918637 -0.992439 0.0814045
40.0372 24.6493 -2.12018 -0.0940964 -0.991433 0.0905877
40.0485 24.7609 -0.958005 -0.0913015 -0.990791 0.0999856
40.0606 24.8778 0.15387 -0.0840799 -0.990226 0.111278
40.0752 25.0134 1.40308 -0.0827836 -0.990684 0.108132
40.0876 25.13 2.37113 -0.0550902 -0.991701 0.116162
40.1002 25.2577 3.45223 -0.0536158 -0.991125 0.121643
40.1112 25.3773 4.45492 -0.0487229 -0.99228 0.114044
40.1214 25.4966 5.56178 -0.0316732 -0.99413 0.103449
40.1307 25.6273 6.83058 -0.0109828 -0.996138 0.0871109
40.1382 25.7457 8.26105 -0.00238351 -0.997478 0.0709323
40.1418 25.8195 9.53142 0.000946639 -0.998798 0.0489979
40.1444 25.8617 10.8914 -0.0108957 -0.999792 0.017265
40.146 25.8639 11.9572 -0.0127199 -0.999522 -0.0281722
40.1466 25.838 12.8758 -0.0101298 -0.999524 -0.0291349
40.1453 25.7975 14.0788 -0.00223862 -0.999432 -0.0336372
40.1421 25.6889 15.4014 -0.0109932 -0.995513 -0.0939862
40.1354 25.5497 16.876 -0.0128281 -0.995497 -0.0939231
40.1273 25.4104 18.0322 -0.0271208 -0.993501 -0.110545
40.1114 25.2204 19.4422 -0.058273 -0.988474 -0.139729
40.0974 25.0747 20.4837 -0.0727043 -0.98587 -0.150909
40.0728 24.865 21.8048 -0.0874643 -0.984398 -0.152676
40.0464 24.6614 23.0888 -0.101927 -0.983499 -0.149466
40.0262 24.5223 24.0562 -0.13645 -0.97867 -0.15358
40.0064 24.3856 25.0358 -0.132237 -0.983246 -0.12546
39.9899 24.2695 26.0372 -0.126912 -0.986573 -0.102792
39.9726 24.1494 27.1992 -0.146425 -0.984737 -0.0940857
39.9592 24.0493 28.2432 -0.141112 -0.986387 -0.0844254
39.9492 23.9604 29.4733 -0.134919 -0.987933 -0.0760627
39.9455 23.9167 30.2266 -0.14788 -0.987351 -0.0571727
38.8778 24.0182 30.9132 -0.117087 -0.991878 -0.0496818
38.8829 24.0865 29.6582 -0.129273 -0.989506 -0.0645513
38.8933 24.1818 28.4193 -0.114467 -0.990034 -0.0820327
38.9048 24.2755 27.3526 -0.122686 -0.988642 -0.0868029
38.9205 24.3967 26.1347 -0.115692 -0.98847 -0.0976869
38.9398 24.5439 24.8078 -0.108493 -0.9875 -0.114338
38.961 24.7012 23.6392 -0.106979 -0.984411 -0.139609
38.9774 24.8326 22.6695 -0.0862879 -0.986453 -0.139516
38.9933 24.9736 21.7229 -0.0874647 -0.984398 -0.152677
39.0077 25.1077 20.7429 -0.0626117 -0.989221 -0.132366
39.0202 25.2374 19.7956 -0.0510095 -0.990512 -0.12761
39.0297 25.3571 18.8296 -0.0382762 -0.990993 -0.12833
39.0385 25.4952 17.661 -0.0383009 -0.994393 -0.0985701
39.0441 25.6002 16.4505 -0.0196319 -0.996672 -0.0791229
39.0482 25.6972 15.3711 -0.00603371 -0.99641 -0.0844494
39.0505 25.7792 14.4033 0.0032222 -0.996898 -0.0786333
39.0516 25.823 13.4867 -0.00689025 -0.999289 -0.0370702
39.0523 25.8663 12.2099 -0.00753968 -0.999519 -0.0300975
39.0517 25.8642 11.2964 0.0174952 -0.999761 0.0131071
39.0498 25.8337 9.90078 0.0127876 -0.999685 0.0216127
39.0471 25.7661 8.43407 -0.0078128 -0.998141 0.0604384
39.0434 25.6946 7.47555 -0.0152113 -0.997137 0.0740659
39.0387 25.6113 6.44603 -0.0218869 -0.996143 0.0849668
39.0325 25.5199 5.41116 -0.0294705 -0.995088 0.0945055
39.0251 25.4219 4.39242 -0.0369867 -0.993482 0.107821
39.0158 25.31 3.44032 -0.0478999 -0.992659 0.111058
39.0031 25.1684 2.15397 -0.0623402 -0.991886 0.1108
38.9933 25.0677 1.20778 -0.0650374 -0.992183 0.106504
38.9771 24.9099 -0.318686 -0.0707979 -0.992458 0.100076
38.9686 24.8205 -1.22262 -0.07891 -0.992768 0.0904717
38.9564 24.6962 -2.59822 -0.0814773 -0.992988 0.0856557
38.948 24.611 -3.65173 -0.0836366 -0.993248 0.0803928
38.9415 24.5381 -4.64743 -0.0849999 -0.994121 0.0670727
38.9364 24.4731 -5.58886 -0.0799921 -0.994634 0.0656058
38.9305 24.3898 -6.94308 -0.0799496 -0.994947 0.0607385
38.9267 24.3359 -7.89069 -0.0831449 -0.994908 0.0569719
38.9233 24.2863 -8.87453 -0.0834808 -0.995393 0.0471621
38.9207 24.2394 -10.0108 -0.0814114 -0.996094 0.034188
38.9203 24.2315 -10.24 -0.0809851 -0.996124 0.0343407
37.841 24.2811 -11.3826 -0.0763606 -0.996496 0.0341379
37.8425 24.3135 -10.4048 -0.0824616 -0.995949 0.0358663
37.8446 24.3532 -9.34322 -0.0839387 -0.995769 0.0373929
37.8481 24.4051 -8.25795 -0.0829695 -0.995208 0.0517454
37.8519 24.4592 -7.24663 -0.0802626 -0.995096 0.0578043
37.8569 24.5257 -6.13677 -0.0771013 -0.995293 0.0587097
37.8623 24.5946 -5.06383 -0.0720478 -0.995126 0.0673269
37.8712 24.6956 -3.62828 -0.0717602 -0.994382 0.077809
37.8793 24.7827 -2.55596 -0.0695711 -0.99417 0.0823794
37.891 24.9121 -1.06757 -0.0652169 -0.993823 0.0897918
37.8998 25.0025 -0.0792401 -0.0565762 -0.993319 0.100583
37.916 25.1717 1.66959 -0.0470023 -0.994046 0.098299
37.9246 25.2753 2.65625 -0.0395431 -0.993377 0.107878
37.934 25.3941 3.81204 -0.0255629 -0.994829 0.0982919
37.9418 25.5077 4.95756 -0.0193163 -0.995624 0.0914281
37.9469 25.591 5.94277 -0.0130822 -0.996346 0.0843973
37.9519 25.6854 7.16488 0.000330459 -0.997292 0.0735385
37.9546 25.7514 8.11013 0.00495942 -0.998621 0.0522598
37.9569 25.8087 9.34915 0.00230417 -0.999077 0.0428993
37.9579 25.8423 10.5235 -0.00823119 -0.999716 0.02235
37.9588 25.8492 11.499 0.00333563 -0.999986 0.00417891
37.9587 25.8492 12.7824 0.0112123 -0.999531 -0.0285051
37.9573 25.7862 14.121 0.0116164 -0.998155 -0.0596011
37.9556 25.6922 15.4981 -0.00950257 -0.997955 -0.0632144
37.9533 25.6292 16.4507 -0.0103625 -0.997716 -0.066747
37.9501 25.5531 17.3812 -0.022815 -0.994553 -0.101706
37.9431 25.4261 18.5516 -0.0207475 -0.993322 -0.113495
37.9324 25.2819 19.8068 -0.0502182 -0.992187 -0.114204
37.9197 25.1404 20.9827 -0.0524809 -0.990048 -0.130579
37.904 24.9817 22.2092 -0.0575362 -0.99085 -0.122088
37.8879 24.8389 23.3295 -0.0841041 -0.987693 -0.131867
37.871 24.6957 24.4579 -0.0821013 -0.989171 -0.121656
37.8567 24.5799 25.5116 -0.0873308 -0.990847 -0.102937
37.8439 24.4734 26.5429 -0.103541 -0.990255 -0.0931351
37.832 24.3725 27.6513 -0.100023 -0.991404 -0.084344
37.8215 24.2805 28.7499 -0.111031 -0.99103 -0.0743762
37.8146 24.2116 29.6541 -0.108515 -0.991164 -0.0762847
37.8101 24.1593 30.5735 -0.104774 -0.992973 -0.055025
37.8067 24.1147 31.4933 -0.097782 -0.994206 -0.0446459
37.8063 24.107 31.6656 -0.098751 -0.994193 -0.042755
36.7315 24.1756 32.3481 -0.0774333 -0.996016 -0.0442349
36.7351 24.2317 31.1454 -0.080946 -0.995186 -0.055248
36.7409 24.2955 30.0488 -0.0815166 -0.994804 -0.0609973
36.7481 24.3699 28.9496 -0.090856 -0.993617 -0.066856
36.7554 24.4443 28.0298 -0.0917804 -0.991699 -0.0900501
36.7639 24.525 27.1321 -0.0843443 -0.992016 -0.0937601
36.7748 24.6228 26.0631 -0.0942576 -0.990857 -0.0965304
36.7899 24.7559 24.7426 -0.0703401 -0.991765 -0.107024
36.8037 24.8771 23.6094 -0.0645591 -0.991505 -0.112917
36.817 25.0051 22.5431 -0.0589976 -0.990855 -0.12135
36.8288 25.1221 21.5301 -0.0458418 -0.99183 -0.119046
36.8411 25.2743 20.3453 -0.0353493 -0.992472 -0.117259
36.8481 25.3663 19.4332 -0.0341612 -0.994418 -0.0998279
36.8545 25.4627 18.515 -0.0215928 -0.994761 -0.099926
36.8592 25.5485 17.5577 -0.012844 -0.996465 -0.083017
36.8625 25.6272 16.6122 -0.00582596 -0.997051 -0.0765222
36.8649 25.7216 15.1987 -0.00950263 -0.997955 -0.0632144
36.8658 25.7789 14.1265 0.00365175 -0.998757 -0.049709
36.866 25.8207 13.1829 0.00602236 -0.998933 -0.0457983
36.8665 25.8395 12.2007 0.0138312 -0.999861 -0.00928457
36.8664 25.8449 11.2996 0.0075391 -0.999959 0.00501286
36.8666 25.8378 10.2362 0.0106477 -0.999698 0.0221472
36.8657 25.7976 9.16788 0.00645438 -0.999233 0.0386288
36.8639 25.7407 8.09483 0.00891688 -0.998258 0.0583142
36.8601 25.6446 6.5589 -0.00954364 -0.997628 0.0681681
36.8544 25.5317 5.07108 -0.0118819 -0.996391 0.084045
36.8496 25.4515 4.10189 -0.0232755 -0.995925 0.0871327
36.8425 25.3525 3.08245 -0.0302655 -0.994842 0.0968191
36.8353 25.2609 2.0666 -0.0395866 -0.995063 0.0910045
36.8261 25.152 0.871574 -0.0417569 -0.995097 0.0896549
36.8182 25.0596 -0.173711 -0.0523512 -0.994436 0.0914182
36.8077 24.9382 -1.54589 -0.0587268 -0.994841 0.0827196
36.7987 24.8359 -2.79366 -0.0610214 -0.995032 0.0786592
36.7926 24.7633 -3.79617 -0.0620687 -0.995515 0.0713916
36.7862 24.6866 -4.85576 -0.0736998 -0.99514 0.0653065
36.7788 24.5996 -6.2322 -0.074353 -0.995403 0.0603774
36.7732 24.5273 -7.49861 -0.0737925 -0.995642 0.0570246
36.7691 24.4715 -8.61936 -0.0717293 -0.996214 0.0491211
36.766 24.4234 -9.73357 -0.0733896 -0.996471 0.040746
36.763 24.3698 -11.182 -0.0745528 -0.996678 0.0327753
36.7615 24.3428 -12.025 -0.0757875 -0.996706 0.0288806
35.6808 24.3891 -13.2107 -0.0696818 -0.997342 0.021304
35.6823 24.4159 -12.151 -0.069722 -0.997224 0.0261284
35.6842 24.4505 -11.0532 -0.068957 -0.996969 0.0360164
35.6874 24.4989 -9.78803 -0.0695641 -0.99676 0.0403801
35.6914 24.5572 -8.46101 -0.0720129 -0.996206 0.0488736
35.6951 24.6086 -7.41358 -0.0674786 -0.996252 0.0541226
35.7012 24.6874 -6.00722 -0.0673719 -0.996079 0.0573333
35.7058 24.7432 -5.10217 -0.0645534 -0.995959 0.0624405
35.7119 24.8193 -3.95639 -0.0623759 -0.99551 0.0711963
35.7193 24.911 -2.71104 -0.0573477 -0.995464 0.0759136
35.7255 24.9816 -1.79311 -0.0515588 -0.995374 0.0810737
35.7318 25.0573 -0.831342 -0.0441295 -0.995924 0.0786602
35.7389 25.1462 0.241525 -0.0428099 -0.995422 0.0854487
35.745 25.2245 1.15119 -0.0381206 -0.995609 0.0855007
35.751 25.3066 2.14191 -0.0312457 -0.995888 0.0850395
35.7581 25.4065 3.28267 -0.0253804 -0.99629 0.082229
35.763 25.4779 4.20908 -0.0206651 -0.996823 0.0769164
35.7693 25.599 5.8039 -0.00554571 -0.997247 0.0739389
35.773 25.6944 7.17787 -0.00657522 -0.997989 0.0630406
35.7751 25.7579 8.37392 0.00824346 -0.999211 0.0388622
35.7764 25.8024 9.54901 0.00814311 -0.999286 0.036904
35.7767 25.8255 10.6411 0.0160799 -0.999863 0.00395784
35.7767 25.8289 11.716 0.0165541 -0.99986 0.00236598
35.7768 25.8156 12.96 0.0157225 -0.999724 -0.0174544
35.7765 25.77 14.304 0.00441344 -0.999448 -0.0329129
35.7752 25.7071 15.4142 0.00310551 -0.997912 -0.0645205
35.7731 25.6337 16.5005 -0.00214451 -0.997609 -0.0690796
35.7686 25.5417 17.8193 -0.0124808 -0.996724 -0.0799083
35.7638 25.4617 18.7361 -0.020307 -0.995711 -0.0902575
35.7562 25.3359 20.0383 -0.0267575 -0.994194 -0.10422
35.747 25.2014 21.2922 -0.0353478 -0.992472 -0.117261
35.7376 25.0966 22.216 -0.0390048 -0.992899 -0.112384
35.7235 24.9526 23.5839 -0.0472392 -0.993739 -0.101252
35.7077 24.7998 25.0875 -0.0758571 -0.992068 -0.100231
35.6984 24.7122 25.9874 -0.0709559 -0.99339 -0.0902335
35.6886 24.6133 27.069 -0.0729263 -0.992828 -0.0947339
35.6805 24.5331 27.9963 -0.0777575 -0.993703 -0.0806677
35.672 24.445 29.1564 -0.0761702 -0.994691 -0.0691926
35.666 24.3783 30.1548 -0.0715354 -0.995316 -0.0650253
35.6602 24.3097 31.3062 -0.070494 -0.996052 -0.0539616
35.6571 24.259 32.3026 -0.0720561 -0.996356 -0.0456456
35.6565 24.2454 32.6047 -0.0714126 -0.996431 -0.0449993
34.5795 24.2796 33.6828 -0.0708404 -0.996857 -0.0354742
34.5817 24.3277 32.4936 -0.0669851 -0.996606 -0.0478481
34.5842 24.375 31.506 -0.0723817 -0.99575 -0.0569395
34.5901 24.4586 30.1094 -0.0729031 -0.995381 -0.062472
34.5978 24.5453 28.8697 -0.0655989 -0.995325 -0.0708832
34.6065 24.6332 27.687 -0.0631387 -0.995189 -0.0749104
34.6188 24.7599 26.2172 -0.061356 -0.993956 -0.091037
34.6268 24.8461 25.2726 -0.05924 -0.993769 -0.0944076
34.6361 24.9439 24.2236 -0.0540061 -0.994405 -0.0907878
34.6465 25.058 23.0307 -0.0454019 -0.994234 -0.0971469
34.6558 25.1629 22.0056 -0.0329615 -0.994141 -0.102948
34.6637 25.2614 20.9545 -0.023944 -0.994634 -0.10065
34.6708 25.3817 19.774 -0.01375 -0.995437 -0.0944297
34.676 25.4973 18.5345 -0.0107685 -0.996756 -0.0797558
34.6799 25.5653 17.5552 -0.00810002 -0.99744 -0.0710439
34.684 25.6525 16.2887 -0.00251531 -0.997916 -0.0644703
34.6864 25.7334 15.0277 0.00522162 -0.998716 -0.0503954
34.6873 25.7686 14.0792 0.0107782 -0.999392 -0.033147
34.6881 25.8041 12.8616 0.0118835 -0.999689 -0.0219425
34.6883 25.8144 11.7604 0.013258 -0.999912 1.43078e-06
34.6881 25.8076 10.6738 0.0132126 -0.999857 0.0105339
34.6878 25.7867 9.58607 0.0122598 -0.999578 0.0263236
34.6867 25.743 8.35694 0.0141427 -0.998955 0.0434725
34.6849 25.6935 7.33575 0.00652732 -0.998346 0.0571123
34.6818 25.6294 6.06724 -0.00414753 -0.998056 0.0621836
34.6785 25.5536 4.96017 -0.0153178 -0.99763 0.067086
34.6724 25.4409 3.43706 -0.0205781 -0.996813 0.0770727
34.666 25.3395 2.10681 -0.0282621 -0.996511 0.0785319
34.661 25.2638 1.18569 -0.0341028 -0.996136 0.0809371
34.6555 25.1852 0.202525 -0.0359713 -0.996214 0.0791457
34.6492 25.1005 -0.916013 -0.0478346 -0.995896 0.0768366
34.6433 25.0267 -1.90426 -0.0501337 -0.996381 0.0686357
34.637 24.9541 -2.96288 -0.0537414 -0.995936 0.0722757
34.6286 24.8478 -4.5163 -0.0622826 -0.995856 0.0662636
34.622 24.7626 -5.91668 -0.0624596 -0.996354 0.0581185
34.6172 24.7013 -7.02361 -0.0635194 -0.996712 0.0503075
34.6136 24.6524 -7.99713 -0.066773 -0.99664 0.0474302
34.61 24.6017 -9.05021 -0.0655512 -0.996685 0.0481965
34.6067 24.5531 -10.3112 -0.0673604 -0.996964 0.0390504
34.6039 24.5122 -11.428 -0.0695164 -0.996909 0.0366168
34.602 24.4815 -12.3983 -0.07194 -0.996973 0.0294728
34.6007 24.4584 -13.4469 -0.0685848 -0.997426 0.0208967
34.5999 24.4408 -14.2532 -0.0662642 -0.997557 0.0221156
33.5192 24.4952 -15.0563 -0.0612363 -0.997901 0.021076
33.5205 24.5293 -13.5794 -0.063818 -0.997643 0.0252256
33.5218 24.5527 -12.6795 -0.066905 -0.997378 0.0275933
33.5236 24.5796 -11.6591 -0.0690114 -0.997166 0.0299619
33.5266 24.6235 -10.3746 -0.0672042 -0.997093 0.0359147
33.5297 24.6659 -9.17989 -0.0634023 -0.997203 0.0395829
33.5335 24.7181 -8.02441 -0.0617109 -0.996916 0.0484758
33.5382 24.7795 -6.82647 -0.0606921 -0.996857 0.0509258
33.5426 24.8359 -5.79855 -0.0556484 -0.99681 0.0572108
33.5481 24.9101 -4.50528 -0.0536773 -0.996706 0.0607864
33.5525 24.9689 -3.57968 -0.0500349 -0.99686 0.0613796
33.559 25.0488 -2.33972 -0.0463382 -0.996506 0.0694946
33.5647 25.1206 -1.256 -0.0392479 -0.996892 0.0683144
33.5703 25.2009 -0.146048 -0.0385756 -0.996668 0.0718598
33.5751 25.2737 0.841067 -0.0284532 -0.996948 0.0727027
33.5812 25.3732 2.20615 -0.0283985 -0.996937 0.0728664
33.587 25.475 3.65712 -0.00499628 -0.997755 0.0667875
33.5918 25.5643 4.95383 -0.00435532 -0.997441 0.0713629
33.5943 25.6326 6.03585 -0.00526202 -0.998507 0.0543773
33.5961 25.6845 7.10619 0.00138745 -0.999175 0.0405991
33.598 25.7316 8.36526 0.00110426 -0.999376 0.0352986
33.5991 25.7672 9.35501 0.0130909 -0.999592 0.0253899
33.5996 25.793 10.4088 0.012059 -0.999781 0.0170775
33.5998 25.7992 11.3976 0.0147882 -0.999888 0.00220355
33.5996 25.7939 12.6645 0.0176602 -0.999673 -0.0184668
33.5987 25.7693 13.6271 0.0147006 -0.999492 -0.0282886
33.5976 25.7292 14.8023 0.0107477 -0.999222 -0.0379495
33.5956 25.6615 16.1459 -0.00258816 -0.998156 -0.0606472
33.5933 25.6103 17.05 -0.00729282 -0.998048 -0.0620194
33.5901 25.542 18.0587 -0.00408041 -0.997536 -0.0700321
33.5875 25.47 18.9613 -0.0119744 -0.995951 -0.0890976
33.5829 25.3646 20.1043 -0.0123172 -0.99548 -0.0941681
33.5768 25.2726 21.1512 -0.0242744 -0.995596 -0.0905514
33.5677 25.1493 22.5128 -0.0300908 -0.995806 -0.0864051
33.5575 25.0299 23.8417 -0.0439763 -0.995501 -0.0839247
33.5508 24.9489 24.7599 -0.0482776 -0.994896 -0.0886088
33.5414 24.8348 26.0424 -0.0508628 -0.994974 -0.0862494
33.5321 24.7318 27.3022 -0.0518927 -0.995428 -0.0801905
33.5239 24.6444 28.48 -0.059963 -0.995709 -0.0704784
33.5159 24.5518 29.811 -0.0677461 -0.995465 -0.066786
33.5107 24.4837 30.8735 -0.0662047 -0.996132 -0.0577721
33.5069 24.4283 31.861 -0.0659383 -0.996508 -0.0512225
33.504 24.3768 32.9761 -0.0617027 -0.997277 -0.0403861
33.5023 24.3408 34.0096 -0.0598534 -0.997678 -0.032514
33.5022 24.3279 34.4376 -0.0576419 -0.997988 -0.0264195
32.4251 24.3691 35.2074 -0.0502154 -0.998291 -0.0298899
32.4251 24.3967 34.2885 -0.0500806 -0.998293 -0.0300586
32.4256 24.4264 33.3855 -0.0559352 -0.997468 -0.0439157
32.4287 24.4784 32.2139 -0.0570534 -0.9972 -0.0483473
32.4336 24.5474 30.9167 -0.0573509 -0.996903 -0.053814
32.4397 24.6301 29.5626 -0.0549741 -0.996299 -0.0660732
32.4448 24.6949 28.5972 -0.0547455 -0.996173 -0.0681304
32.4514 24.7717 27.5483 -0.0513111 -0.995999 -0.0731606
32.4584 24.8537 26.4746 -0.0449863 -0.995693 -0.0810611
32.4659 24.9475 25.3215 -0.0451373 -0.995651 -0.0815006
32.4731 25.0479 24.0889 -0.032886 -0.99643 -0.0777528
32.4793 25.1264 23.1473 -0.0267949 -0.996364 -0.0808801
32.4869 25.2245 21.9787 -0.0234141 -0.995971 -0.0865656
32.4933 25.3235 20.8347 -0.0222653 -0.995958 -0.0870155
32.4984 25.4226 19.6517 -0.0124686 -0.996638 -0.08098
32.5018 25.5043 18.5579 -0.00642458 -0.997003 -0.0770942
32.5046 25.5817 17.4881 0.00649996 -0.997579 -0.0692369
32.5067 25.6381 16.5427 0.00812202 -0.998468 -0.0547395
32.509 25.6981 15.2505 0.0119026 -0.999245 -0.0369908
32.5099 25.7312 14.318 0.0149603 -0.999419 -0.0306313
32.5106 25.7622 13.3084 0.0118319 -0.999435 -0.031467
32.511 25.7739 12.3848 0.00888072 -0.999895 -0.0114893
32.5112 25.7823 11.4617 0.0179431 -0.999763 0.0123221
32.5113 25.7728 10.5315 0.0236303 -0.999669 0.0101543
32.5112 25.7546 9.62745 0.0163723 -0.999662 0.0201739
32.5096 25.7201 8.26989 0.0142094 -0.999441 0.0302493
32.5086 25.6767 7.08442 0.0170503 -0.998948 0.0425633
32.5064 25.5973 5.51569 0.00347026 -0.998121 0.0611791
32.5036 25.5341 4.4383 -0.00642333 -0.998496 0.0544409
32.5002 25.4783 3.46779 -0.0131058 -0.998195 0.0586127
32.4969 25.4149 2.47249 -0.014556 -0.997678 0.066528
32.493 25.3413 1.34216 -0.0224174 -0.997442 0.06788
32.4878 25.2551 0.119014 -0.0311066 -0.997226 0.0676284
32.4831 25.1816 -0.992684 -0.035864 -0.997408 0.0623816
32.4784 25.1179 -1.97483 -0.0380345 -0.997169 0.0648693
32.4737 25.0585 -2.97087 -0.0438162 -0.997292 0.0590649
32.4696 25.0026 -3.88316 -0.0472873 -0.997204 0.0578606
32.4648 24.938 -5.04099 -0.0511094 -0.997049 0.0572771
32.4598 24.8671 -6.30756 -0.056481 -0.997034 0.052287
32.4565 24.824 -7.2195 -0.0583959 -0.997095 0.0489078
32.4519 24.7636 -8.52182 -0.0625038 -0.997076 0.043958
32.4486 24.7207 -9.5915 -0.0635779 -0.99738 0.0345171
32.4461 24.6861 -10.5918 -0.0630738 -0.997463 0.0330072
32.4441 24.6559 -11.5565 -0.0626295 -0.997541 0.0314465
32.4421 24.6251 -12.6213 -0.0614344 -0.997732 0.0275242
32.4405 24.5967 -13.6462 -0.0639406 -0.997641 0.0249743
32.4387 24.5598 -15.137 -0.0626541 -0.997773 0.0228994
32.438 24.5412 -16.1313 -0.0577574 -0.998151 0.0189356
31.3564 24.5851 -17.0775 -0.0561018 -0.998219 0.020267
31.3576 24.6133 -15.6952 -0.060232 -0.997956 0.0213658
31.359 24.6407 -14.4967 -0.0591322 -0.997947 0.024593
31.3603 24.6647 -13.5291 -0.0591874 -0.99782 0.0292048
31.3624 24.6989 -12.3565 -0.0603094 -0.997777 0.0283626
31.3643 24.7281 -11.4003 -0.0598755 -0.997731 0.0307779
31.3669 24.7672 -10.1879 -0.0595967 -0.997651 0.0337766
31.3709 24.8205 -8.66709 -0.0582035 -0.997491 0.0403019
31.375 24.8731 -7.43388 -0.0532957 -0.997798 0.0394779
31.3794 24.936 -6.06933 -0.0482739 -0.997526 0.0511022
31.3835 24.9963 -4.93971 -0.0443066 -0.997629 0.0526658
31.3876 25.0517 -3.91609 -0.0426512 -0.997684 0.0529836
31.3927 25.1214 -2.65439 -0.0397432 -0.997576 0.0571124
31.399 25.2111 -1.103 -0.0294322 -0.997784 0.0596774
31.4032 25.2769 0.00114171 -0.025365 -0.997771 0.0617256
31.4065 25.336 0.92148 -0.021678 -0.997796 0.0627135
31.4101 25.398 1.93337 -0.0171148 -0.998181 0.0578137
31.4132 25.4617 3.05408 -0.0109779 -0.998254 0.0580345
31.4155 25.5178 4.01012 -0.00642055 -0.998496 0.0544404
31.4194 25.6027 5.65839 -0.000758862 -0.998697 0.0510301
31.4212 25.6646 7.23399 0.01106 -0.999314 0.0353365
31.4223 25.7181 8.73183 0.0182239 -0.999496 0.0260064
31.4231 25.7384 9.86447 0.0226849 -0.999576 0.0182506
31.4229 25.7599 10.8365 0.0172589 -0.99967 0.0190334
31.4225 25.7671 11.8305 0.0155095 -0.999877 0.0022766
31.4223 25.7563 12.8856 0.0132839 -0.999739 -0.0186111
31.4218 25.726 14.1356 0.00808979 -0.999469 -0.0315497
31.4208 25.6806 15.4746 0.00815196 -0.999127 -0.0409757
31.4194 25.6264 16.6003 0.0104781 -0.998566 -0.0524939
31.4172 25.5612 17.7564 -0.00331538 -0.998066 -0.0620687
31.4145 25.4894 18.8622 -0.00330725 -0.997674 -0.0680915
31.4114 25.4065 19.9836 -0.00460202 -0.996746 -0.0804789
31.4067 25.3092 21.1751 -0.00820862 -0.996778 -0.0797841
31.4006 25.2157 22.3932 -0.0191662 -0.996864 -0.0767801
31.3944 25.1356 23.3767 -0.0240072 -0.996399 -0.0813245
31.3891 25.0655 24.3053 -0.0253676 -0.997061 -0.0722857
31.3841 24.9904 25.2927 -0.0344219 -0.996486 -0.0763595
31.3768 24.8898 26.6484 -0.0349238 -0.996818 -0.071648
31.3707 24.8105 27.7103 -0.0476473 -0.996393 -0.0702162
31.3654 24.7442 28.6719 -0.0487551 -0.996426 -0.068984
31.359 24.6581 30.0578 -0.052374 -0.997001 -0.0569774
31.3541 24.586 31.313 -0.0510759 -0.997239 -0.0538978
31.3499 24.5221 32.5883 -0.0541849 -0.997217 -0.0512147
31.3473 24.4573 34.0742 -0.0531826 -0.997909 -0.0367396
31.347 24.4303 34.9769 -0.0503508 -0.998289 -0.0297202
31.347 24.406 35.932 -0.0441055 -0.998696 -0.0257184
31.347 24.3981 36.2025 -0.0381364 -0.998855 -0.028871
30.267 24.4112 37.2021 -0.0319891 -0.999137 -0.0264868
30.2669 24.4403 36.2087 -0.0379545 -0.998765 -0.0320496
30.2673 24.4704 35.2318 -0.0416881 -0.998682 -0.0299374
30.2688 24.5139 33.9688 -0.047743 -0.998186 -0.0366745
30.2708 24.5583 32.947 -0.0500525 -0.997501 -0.0498621
30.2737 24.6136 31.8379 -0.0499463 -0.997499 -0.0500017
30.2781 24.6868 30.4997 -0.0458152 -0.997456 -0.0546211
30.2817 24.7445 29.4922 -0.0421203 -0.99758 -0.0553134
30.287 24.8104 28.4037 -0.0382288 -0.997128 -0.0653711
30.2916 24.8725 27.4644 -0.0391524 -0.99684 -0.0691219
30.296 24.9348 26.5637 -0.0346078 -0.997155 -0.066959
30.3021 25.0251 25.2633 -0.0262943 -0.997144 -0.0707936
30.3069 25.0959 24.2724 -0.0264122 -0.997081 -0.0716361
30.3145 25.2101 22.6856 -0.0143217 -0.997285 -0.0722348
30.3209 25.3073 21.3754 -0.00958287 -0.997198 -0.0741955
30.3244 25.3726 20.4574 -0.0051939 -0.997263 -0.0737496
30.3274 25.4555 19.3404 0.00458358 -0.997744 -0.0669806
30.3297 25.524 18.2954 0.00710194 -0.998303 -0.0577918
30.3316 25.5813 17.3065 0.00743146 -0.998514 -0.0539935
30.3332 25.6391 16.1413 0.0128784 -0.999135 -0.0395292
30.3343 25.674 15.1207 0.0251534 -0.998988 -0.0372961
30.335 25.7243 13.4313 0.0289704 -0.999223 -0.0267152
30.3354 25.7376 12.0194 0.0364801 -0.999334 0.000913328
30.3357 25.7306 11.0613 0.0368079 -0.999233 0.0133332
30.3357 25.717 10.0458 0.0295365 -0.999393 0.0184589
30.335 25.7004 9.03204 0.0207324 -0.999652 0.0163062
30.3343 25.6783 8.09775 0.0141523 -0.999332 0.0337045
30.3334 25.6365 6.77832 0.0110626 -0.999314 0.035338
30.3325 25.602 5.86647 0.0082653 -0.999263 0.0374885
30.3304 25.5489 4.62564 -0.00369252 -0.999009 0.0443553
30.3285 25.5003 3.60314 -0.00317621 -0.998619 0.0524323
30.3266 25.452 2.6744 -0.0142483 -0.998658 0.0497965
30.3238 25.3969 1.64012 -0.0174708 -0.998433 0.0531587
30.3205 25.3367 0.505396 -0.0239129 -0.998007 0.0583994
30.3173 25.2807 -0.452839 -0.0256515 -0.998063 0.0566784
30.3145 25.2313 -1.3631 -0.0344625 -0.997854 0.0556798
30.3104 25.1696 -2.48918 -0.0346154 -0.997967 0.0535221
30.3062 25.1093 -3.63376 -0.0346926 -0.998081 0.0512827
30.3023 25.0555 -4.72231 -0.0411357 -0.997978 0.0484467
30.2988 25.0047 -5.71421 -0.0448951 -0.997901 0.0466678
30.2953 24.9553 -6.81699 -0.0520759 -0.997534 0.0470499
30.2926 24.9167 -7.77982 -0.0528476 -0.997862 0.0384481
30.2898 24.8788 -8.83048 -0.0529963 -0.997984 0.0349067
30.287 24.8419 -9.88768 -0.0569225 -0.99774 0.0356961
30.2849 24.8123 -10.7926 -0.0582347 -0.997768 0.0326779
30.2826 24.7779 -11.8832 -0.0588378 -0.997792 0.0308245
30.2804 24.7423 -13.0637 -0.0582658 -0.997861 0.029627
30.2789 24.7158 -13.9856 -0.0570705 -0.998044 0.0255336
30.2773 24.6876 -15.164 -0.0569159 -0.998146 0.0215596
30.2762 24.666 -16.1571 -0.0573674 -0.998116 0.0217401
30.275 24.6401 -17.3617 -0.0567571 -0.99817 0.0208869
30.2747 24.633 -17.6821 -0.0558046 -0.998181 0.0228234
29.1928 24.6777 -18.3981 -0.055814 -0.998175 0.0230522
29.194 24.704 -17.254 -0.056701 -0.998142 0.0223039
29.1949 24.7239 -16.337 -0.0568464 -0.998147 0.0217035
29.1961 24.7461 -15.3082 -0.0568739 -0.998148 0.0215713
29.1974 24.7713 -14.2349 -0.0549212 -0.998139 0.0264895
29.1993 24.8027 -13.0944 -0.0554759 -0.998044 0.028812
29.2014 24.8369 -11.974 -0.055595 -0.997938 0.0320813
29.2041 24.8765 -10.6762 -0.0536413 -0.998121 0.029624
29.2065 24.9084 -9.64935 -0.0538725 -0.997962 0.0341976
29.2091 24.9444 -8.59514 -0.0534344 -0.997973 0.0345521
29.2115 24.9794 -7.62952 -0.0469061 -0.998244 0.036188
29.2153 25.0333 -6.2328 -0.0437608 -0.998137 0.0425126
29.2181 25.0732 -5.29515 -0.0420453 -0.998308 0.040172
29.2209 25.1134 -4.39213 -0.0360123 -0.998302 0.0457844
29.2239 25.1551 -3.47994 -0.0338429 -0.998496 0.0431271
29.2281 25.2153 -2.25148 -0.0285367 -0.99837 0.0494353
29.2313 25.2696 -1.20608 -0.0255419 -0.998353 0.0513734
29.234 25.3233 -0.184122 -0.0211228 -0.998293 0.054445
29.2367 25.375 0.821915 -0.0178858 -0.998562 0.0505377
29.2393 25.4256 1.84618 -0.0120658 -0.998898 0.0453617
29.2423 25.4869 3.16955 -0.0101569 -0.998771 0.0485071
29.2443 25.5401 4.41957 0.000540017 -0.999093 0.042589
29.2458 25.5812 5.45536 0.00450942 -0.999257 0.0382892
29.247 25.6208 6.6065 0.00951027 -0.999575 0.0275719
29.2475 25.6537 7.78604 0.0179361 -0.999486 0.0265899
29.2478 25.6777 8.88879 0.0187589 -0.999669 0.0175953
29.2483 25.6927 9.90268 0.0212032 -0.999736 0.00885343
29.2485 25.7036 11.0853 0.0245969 -0.999683 0.0054022
29.2485 25.7041 12.408 0.0265622 -0.999647 -0.000832054
29.2481 25.6985 13.322 0.0279159 -0.999458 -0.0174356
29.2479 25.6668 14.5135 0.0220008 -0.999444 -0.0250591
29.2471 25.6436 15.4302 0.0173496 -0.999413 -0.0295261
29.2459 25.6011 16.6258 0.0198794 -0.998592 -0.0491887
29.2445 25.5439 17.7147 0.0159823 -0.998451 -0.0532925
29.2428 25.4942 18.6737 0.00723705 -0.998459 -0.0550187
29.2407 25.4264 19.704 0.00490986 -0.997765 -0.0666352
29.238 25.3645 20.6677 -0.0018282 -0.997806 -0.0661798
29.2348 25.2995 21.5842 -0.00756505 -0.997657 -0.0679974
29.2311 25.2368 22.5431 -0.0117741 -0.997571 -0.0686592
29.2265 25.1622 23.6396 -0.0185676 -0.997772 -0.0640753
29.2226 25.096 24.6232 -0.0228004 -0.997416 -0.0681301
29.2183 25.0302 25.6123 -0.0219997 -0.997701 -0.0640955
29.2142 24.9686 26.5457 -0.0303931 -0.99732 -0.066554
29.2104 24.9067 27.5039 -0.0309588 -0.997451 -0.0642854
29.2066 24.8476 28.494 -0.0355419 -0.997511 -0.060896
29.2007 24.77 29.7942 -0.03837 -0.997858 -0.0529744
29.1971 24.7162 30.7771 -0.0373452 -0.997736 -0.0559382
29.1937 24.6495 32.0549 -0.0413206 -0.997994 -0.0479541
29.1915 24.6015 33.0625 -0.0391738 -0.998026 -0.0490925
29.1894 24.5563 34.0563 -0.0366827 -0.998566 -0.0389999
29.188 24.5208 34.9794 -0.0361802 -0.998602 -0.0385298
29.1871 24.4847 35.9937 -0.0354745 -0.998781 -0.03431
29.1868 24.4524 37.0467 -0.0313433 -0.999047 -0.0303766
29.1864 24.4215 38.0234 -0.0272777 -0.999276 -0.026536
29.1864 24.4102 38.4473 -0.0272778 -0.999276 -0.0265359
28.1051 24.4195 39.0262 -0.0231636 -0.999348 -0.0277122
28.1055 24.4515 37.9694 -0.0248504 -0.99914 -0.0331873
28.1061 24.4893 36.8363 -0.0274581 -0.999091 -0.0326154
28.1074 24.5381 35.5208 -0.0292403 -0.998871 -0.0374462
28.109 24.5871 34.2965 -0.0337104 -0.998606 -0.0406197
28.1106 24.6276 33.3432 -0.0353396 -0.998175 -0.0489585
28.1125 24.6707 32.432 -0.0332222 -0.998294 -0.0480204
28.116 24.738 31.0452 -0.0315825 -0.998161 -0.0517497
28.1203 24.8054 29.8257 -0.0287157 -0.998164 -0.053332
28.124 24.8613 28.8164 -0.027697 -0.997937 -0.0579133
28.1283 24.9358 27.5193 -0.0250872 -0.997958 -0.0587405
28.1316 24.9919 26.6046 -0.0236791 -0.99773 -0.0630418
28.1358 25.0559 25.5906 -0.020421 -0.997907 -0.0613538
28.1402 25.1257 24.4597 -0.0132402 -0.997953 -0.0625718
28.1438 25.192 23.4107 -0.00942188 -0.99809 -0.0610518
28.147 25.2528 22.4361 -0.008266 -0.997833 -0.065269
28.1504 25.3206 21.3366 0.00053705 -0.998231 -0.0594465
28.154 25.399 20.0531 0.00200023 -0.998119 -0.0612727
28.1561 25.4593 19.0827 0.00901688 -0.998072 -0.0614061
28.158 25.5272 17.8303 0.0127849 -0.998942 -0.0441653
28.1596 25.5823 16.549 0.0127723 -0.99903 -0.0421329
28.1604 25.6352 14.8829 0.0219049 -0.999484 -0.023508
28.1609 25.6574 13.9392 0.0220474 -0.999484 -0.0233473
28.1619 25.6719 12.6807 0.0237084 -0.999661 -0.0107886
28.1622 25.6775 11.6708 0.0235855 -0.999721 -0.00101085
28.1621 25.6745 10.5047 0.023972 -0.999704 0.00426257
28.1618 25.6643 9.25525 0.0207358 -0.999753 0.00796091
28.1617 25.6465 8.16526 0.0126556 -0.999767 0.0175083
28.1613 25.621 6.96897 0.00994232 -0.999647 0.0246215
28.1602 25.5883 5.83793 0.0102007 -0.999525 0.0290835
28.1589 25.5504 4.75858 0.00251557 -0.999417 0.0340565
28.1576 25.5176 3.79644 -0.000563746 -0.999292 0.0376291
28.1554 25.4654 2.47524 -0.00547892 -0.999231 0.0388354
28.1533 25.4216 1.45117 -0.0135168 -0.998926 0.0443077
28.1508 25.3688 0.318934 -0.0147234 -0.998645 0.0499187
28.1488 25.3249 -0.593151 -0.0201271 -0.998692 0.0470046
28.1464 25.2775 -1.54391 -0.0232125 -0.998624 0.0470207
28.1437 25.2361 -2.45635 -0.0284337 -0.998371 0.0494685
28.1397 25.1769 -3.7904 -0.0316734 -0.998679 0.040468
28.1357 25.1192 -5.23496 -0.0403305 -0.99847 0.0378319
28.1315 25.0587 -6.85825 -0.0416227 -0.998454 0.0368341
28.128 25.0091 -8.28001 -0.0502055 -0.998217 0.0322975
28.1254 24.9705 -9.46241 -0.0497333 -0.998208 0.0332871
28.1234 24.9409 -10.4051 -0.0498971 -0.998325 0.0292944
28.1215 24.9137 -11.3153 -0.0518706 -0.998201 0.0300692
28.1189 24.8754 -12.6091 -0.0518327 -0.998256 0.0282605
28.1166 24.8365 -14.0167 -0.0552897 -0.998089 0.0275775
28.1154 24.8153 -14.9529 -0.056802 -0.998154 0.0214865
28.1142 24.7943 -15.8943 -0.0536129 -0.998298 0.0229398
28.1131 24.7716 -16.8901 -0.053533 -0.998304 0.0228635
28.1121 24.7512 -17.8171 -0.0537628 -0.998315 0.0218415
28.1111 24.7295 -18.7748 -0.0558159 -0.998181 0.0227916
27.0291 24.7698 -19.4822 -0.0502762 -0.998485 0.0223701
27.03 24.7922 -18.5326 -0.0516801 -0.998346 0.0251797
27.0312 24.8165 -17.4773 -0.0529543 -0.998352 0.0221318
27.0325 24.8427 -16.3195 -0.0511197 -0.998404 0.0239871
27.0336 24.8637 -15.4057 -0.0537693 -0.998295 0.0227047
27.0349 24.8876 -14.2905 -0.0521823 -0.998421 0.0207786
27.0364 24.912 -13.3278 -0.05112 -0.99832 0.0272875
27.0387 24.9493 -11.9523 -0.0468775 -0.998556 0.026249
27.0412 24.9876 -10.6041 -0.0466613 -0.998438 0.0307415
27.0438 25.027 -9.26126 -0.0393627 -0.998774 0.0300313
27.0468 25.0718 -7.81104 -0.0439643 -0.998494 0.0328148
27.049 25.1029 -6.8816 -0.0398932 -0.99861 0.034457
27.0519 25.1438 -5.60417 -0.0368484 -0.9987 0.0352333
27.0547 25.1854 -4.45891 -0.0331231 -0.998816 0.0356424
27.0572 25.223 -3.49436 -0.0313704 -0.998684 0.0405665
27.0597 25.2623 -2.46214 -0.0233194 -0.998848 0.0419474
27.0628 25.3155 -1.2665 -0.020372 -0.998867 0.0429989
27.0649 25.3567 -0.319625 -0.0176631 -0.998867 0.0441852
27.0673 25.4077 0.840322 -0.0100247 -0.998903 0.0457481
27.0694 25.4548 1.98226 -0.00858986 -0.999301 0.0363726
27.0713 25.5002 3.24604 -0.00239613 -0.999399 0.0345884
27.0728 25.5439 4.53622 -0.00120629 -0.999493 0.0318113
27.074 25.5766 5.7022 0.00043438 -0.999722 0.0235776
27.0749 25.603 6.64471 0.00899775 -0.999653 0.024771
27.0758 25.629 7.95061 0.0112 -0.999726 0.0205547
27.0761 25.6419 8.91768 0.0144392 -0.999808 0.0132453
27.0763 25.6517 10.253 0.0164026 -0.999857 0.00406428
27.0762 25.6543 11.3388 0.0207108 -0.999771 -0.00535981
27.0756 25.6482 12.4711 0.0229048 -0.99973 -0.00392691
27.0747 25.6347 13.8814 0.0223353 -0.999615 -0.0164517
27.0742 25.6111 14.8969 0.0216605 -0.9995 -0.0230476
27.0736 25.5839 16.0325 0.0206924 -0.999298 -0.0312286
27.0725 25.534 17.3261 0.0188578 -0.998945 -0.041866
27.0712 25.4769 18.5777 0.014032 -0.998458 -0.053711
27.0694 25.4181 19.619 0.00641046 -0.998472 -0.0548791
27.0663 25.3427 20.9364 0.00429281 -0.998397 -0.0564368
27.0632 25.2617 22.3714 -0.00289053 -0.998361 -0.0571498
27.0603 25.1989 23.4627 -0.00918554 -0.99809 -0.0610878
27.0563 25.1317 24.6369 -0.0109246 -0.998381 -0.0558149
27.0511 25.0473 26.0463 -0.0171615 -0.998071 -0.0596656
27.0469 24.9768 27.2747 -0.0208757 -0.998224 -0.0557972
27.0441 24.9232 28.2144 -0.022132 -0.998174 -0.0562001
27.0408 24.8602 29.3241 -0.0266769 -0.998116 -0.0552482
27.0373 24.8053 30.391 -0.0260451 -0.998324 -0.0516772
27.0341 24.7509 31.4763 -0.0273822 -0.9984 -0.0494665
27.0312 24.6918 32.7073 -0.0290703 -0.998466 -0.0471288
27.0283 24.6252 34.1708 -0.030793 -0.998632 -0.0422589
27.0268 24.5841 35.1737 -0.029341 -0.998791 -0.0394533
27.0256 24.5442 36.1854 -0.0277534 -0.998919 -0.0373008
27.0245 24.4965 37.4661 -0.0243483 -0.999065 -0.0357268
27.0238 24.4608 38.4829 -0.0208816 -0.999227 -0.0332977
27.0234 24.427 39.5223 -0.021036 -0.999274 -0.0317553
25.9417 24.4286 40.0331 -0.0165552 -0.999294 -0.0337229
25.9422 24.4716 38.8192 -0.0189815 -0.999119 -0.0374244
25.9428 24.5085 37.8627 -0.0214648 -0.999067 -0.037467
25.9438 24.5501 36.7784 -0.0256592 -0.998882 -0.0397125
25.9447 24.5867 35.8603 -0.0253522 -0.998848 -0.0407356
25.9464 24.6294 34.78 -0.026993 -0.998855 -0.0395019
25.9484 24.6769 33.6976 -0.0265998 -0.998684 -0.0438431
25.9502 24.7179 32.7936 -0.0258556 -0.998586 -0.0464505
25.9537 24.791 31.2464 -0.026055 -0.998502 -0.0481059
25.9574 24.8576 29.9118 -0.0244774 -0.998402 -0.050934
25.9611 24.9303 28.521 -0.0221277 -0.998213 -0.0555043
25.9639 24.9861 27.4873 -0.016394 -0.998332 -0.0553635
25.9678 25.058 26.1957 -0.0135343 -0.998345 -0.0558852
25.9717 25.1248 24.9537 -0.010478 -0.998495 -0.053836
25.9753 25.1865 23.8521 -0.00748883 -0.998531 -0.0536622
25.9788 25.2597 22.476 -0.00329557 -0.998495 -0.0547439
25.9812 25.3226 21.2572 4.1422e-05 -0.998616 -0.0525938
25.983 25.3793 20.1941 0.00810109 -0.998573 -0.052779
25.9846 25.4271 19.2652 0.0114898 -0.998509 -0.053371
25.9862 25.4813 18.1 0.0132088 -0.999079 -0.0408152
25.9873 25.5321 16.8366 0.0186403 -0.999069 -0.0389
25.9881 25.5681 15.7238 0.0203693 -0.999507 -0.0238963
25.9888 25.5946 14.6137 0.0224835 -0.999518 -0.0213938
25.9891 25.6164 13.5208 0.0216633 -0.999652 -0.0150801
25.9896 25.6288 12.3909 0.0188173 -0.999759 -0.0113302
25.9899 25.6349 11.4896 0.0165537 -0.999858 -0.00302236
25.9901 25.6358 10.5033 0.0146495 -0.999883 0.00439137
25.9901 25.6314 9.50197 0.0151754 -0.999873 0.00495441
25.9898 25.6241 8.52293 0.0124806 -0.999876 0.00964304
25.9893 25.6059 7.27456 0.00711854 -0.999784 0.0195055
25.9887 25.5887 6.34347 0.00531424 -0.999777 0.0204201
25.9876 25.5586 5.03388 0.00327598 -0.999617 0.0274956
25.9861 25.5114 3.46392 0.000148494 -0.999562 0.0296006
25.9849 25.4786 2.48958 -0.00408442 -0.999445 0.0330494
25.9831 25.4382 1.2696 -0.00633716 -0.999377 0.0347111
25.9805 25.3785 -0.240141 -0.0128614 -0.999208 0.0376486
25.9778 25.3239 -1.56572 -0.0185473 -0.99907 0.0389331
25.9748 25.2736 -2.87086 -0.0231177 -0.999082 0.0360725
25.973 25.2411 -3.79079 -0.0268453 -0.999006 0.035596
25.9694 25.1894 -5.28737 -0.0309569 -0.998976 0.0330067
25.9674 25.1595 -6.28768 -0.0328626 -0.998974 0.031158
25.9652 25.1261 -7.34997 -0.0344658 -0.998926 0.0309793
25.9627 25.0884 -8.59268 -0.0379133 -0.998875 0.0284783
25.9604 25.0545 -9.76592 -0.0396606 -0.99882 0.028027
25.9579 25.0163 -11.2322 -0.0396015 -0.9989 0.0250981
25.9558 24.9825 -12.5325 -0.0445725 -0.998696 0.0249045
25.9542 24.9558 -13.7203 -0.0450229 -0.998735 0.0223778
25.9523 24.9243 -15.1055 -0.0473361 -0.998616 0.022932
25.9511 24.9011 -16.0853 -0.0478616 -0.998558 0.0243334
25.95 24.8798 -17.0814 -0.0501948 -0.998555 0.0192157
25.9491 24.8607 -17.9943 -0.0455668 -0.998678 0.023799
25.9478 24.8322 -19.104 -0.0473819 -0.998566 0.0249331
25.9468 24.8102 -20.1067 -0.0469304 -0.998679 0.0209041
24.8644 24.8508 -20.5456 -0.045649 -0.99871 0.0222391
24.8657 24.8819 -19.1608 -0.0428789 -0.998813 0.0231242
24.8669 24.9063 -18.099 -0.0435227 -0.998802 0.022353
24.868 24.9297 -17.0114 -0.0452711 -0.998729 0.0221646
24.8696 24.9613 -15.6703 -0.045775 -0.998658 0.0242206
24.8712 24.9905 -14.3888 -0.0453035 -0.998742 0.021513
24.8728 25.0167 -13.1848 -0.0422664 -0.998908 0.019917
24.874 25.0359 -12.1624 -0.0376831 -0.998989 0.0245143
24.8757 25.0632 -11.0175 -0.0354556 -0.999093 0.0235648
24.8773 25.0873 -10.0329 -0.034638 -0.9991 0.0244853
24.879 25.1105 -9.12019 -0.0339719 -0.999062 0.0268499
24.8812 25.1445 -7.93479 -0.0334859 -0.999012 0.0292098
24.8829 25.1734 -6.92986 -0.028956 -0.999204 0.0274507
24.8852 25.2085 -5.72579 -0.0275281 -0.99918 0.0297009
24.8872 25.2367 -4.78398 -0.0255171 -0.999112 0.0335306
24.8896 25.2754 -3.60096 -0.0230354 -0.999212 0.0323124
24.8914 25.3075 -2.65142 -0.0236218 -0.999161 0.0334436
24.8935 25.3455 -1.58363 -0.0205166 -0.999133 0.0362231
24.896 25.3955 -0.185281 -0.00828733 -0.999345 0.0352132
24.8977 25.436 0.954355 -0.00829874 -0.999326 0.0357604
24.8993 25.4761 2.1686 -0.00622246 -0.999552 0.0292885
24.9007 25.5076 3.28462 -0.00365647 -0.999565 0.0292694
24.9017 25.5433 4.56596 0.000447452 -0.999716 0.0238263
24.9027 25.5756 5.98149 0.00446412 -0.999771 0.0209202
24.9034 25.5963 7.25739 0.0112651 -0.999806 0.0161318
24.9037 25.6061 8.20902 0.0123952 -0.9999 0.00673976
24.9041 25.6137 9.37564 0.0165168 -0.999849 0.00532984
24.9042 25.618 10.5692 0.0182861 -0.999832 -0.00134432
24.9039 25.6157 11.6123 0.0173591 -0.999847 -0.00213105
24.9036 25.6019 13.0497 0.0186026 -0.999733 -0.013695
24.9031 25.5764 14.4741 0.0178957 -0.999626 -0.0206949
24.9026 25.5465 15.7521 0.0170548 -0.99953 -0.0254585
24.9019 25.5097 16.9504 0.0147822 -0.999249 -0.0358111
24.9007 25.4616 18.2094 0.0137809 -0.999108 -0.0399156
24.8993 25.4085 19.423 0.0121056 -0.99873 -0.048913
24.8977 25.3556 20.5384 0.00677686 -0.998841 -0.0476484
24.8962 25.308 21.5141 0.00166914 -0.998794 -0.0490594
24.8947 25.263 22.4337 0.000353515 -0.998878 -0.0473645
24.8916 25.2 23.7037 -0.00391186 -0.998677 -0.0512824
24.8878 25.1293 25.1079 -0.00843779 -0.998659 -0.0510783
24.8852 25.0823 26.0231 -0.0144055 -0.998401 -0.0546686
24.8814 25.0066 27.4392 -0.0158358 -0.998393 -0.0544085
24.8779 24.9359 28.8247 -0.016955 -0.99866 -0.0489042
24.8754 24.8819 29.9104 -0.020001 -0.998524 -0.0504909
24.8729 24.8271 31.0499 -0.0222204 -0.998614 -0.0477193
24.8702 24.7757 32.124 -0.0243647 -0.998697 -0.0448332
24.8684 24.7327 33.0776 -0.0261598 -0.99864 -0.0450915
24.8657 24.6657 34.595 -0.0234667 -0.998743 -0.0442841
24.8641 24.6261 35.5337 -0.0223588 -0.998882 -0.0416428
24.8626 24.5834 36.5659 -0.0224209 -0.998956 -0.0397921
24.8616 24.5435 37.553 -0.0217867 -0.998946 -0.0403932
24.8608 24.4981 38.6598 -0.0182662 -0.998962 -0.041737
24.8601 24.4562 39.748 -0.0151947 -0.999171 -0.0377702
24.8597 24.4201 40.7153 -0.0140964 -0.999249 -0.0360921
23.7774 24.4103 41.38 -0.0127992 -0.999213 -0.0375562
23.778 24.4592 40.0985 -0.0143823 -0.999198 -0.0373801
23.7787 24.5055 38.9583 -0.0161955 -0.999013 -0.0413589
23.7794 24.5515 37.8804 -0.0190589 -0.998874 -0.0434415
23.7805 24.5967 36.7994 -0.0211685 -0.998926 -0.0412194
23.7825 24.6496 35.5492 -0.0220278 -0.998875 -0.0419988
23.7847 24.7114 34.1242 -0.0193238 -0.998852 -0.0438313
23.7865 24.7591 33.0312 -0.0220873 -0.998768 -0.0444371
23.7892 24.8175 31.7341 -0.0206007 -0.998751 -0.0455185
23.7913 24.8627 30.7629 -0.0198794 -0.998758 -0.0456874
23.7932 24.9108 29.7559 -0.0171061 -0.998717 -0.047662
23.7957 24.9654 28.5972 -0.016955 -0.99866 -0.0489041
23.7991 25.0291 27.294 -0.0145638 -0.998753 -0.0477432
23.8018 25.0869 26.149 -0.00973843 -0.998737 -0.0492995
23.804 25.1319 25.235 -0.00908606 -0.998698 -0.0501874
23.8062 25.1767 24.3031 -0.0065798 -0.998856 -0.0473579
23.8095 25.2496 22.7365 -0.00243295 -0.998947 -0.0458124
23.8115 25.2999 21.6299 0.00314992 -0.999001 -0.0445695
23.8132 25.3549 20.3974 0.00555584 -0.99892 -0.0461328
23.8148 25.4151 19.0362 0.00971109 -0.999173 -0.039492
23.8158 25.4555 17.9802 0.0149896 -0.999132 -0.0388566
23.8168 25.489 17.0004 0.0156831 -0.999366 -0.0319641
23.8174 25.5217 15.9407 0.0194145 -0.99947 -0.0261246
23.8179 25.5532 14.6148 0.0189487 -0.99959 -0.0214862
23.8182 25.5778 13.267 0.0182101 -0.999703 -0.0161729
23.8184 25.5931 12.0191 0.0157494 -0.99984 -0.00843387
23.8185 25.5971 10.6407 0.0170822 -0.999854 0.00022495
23.8184 25.5957 9.54184 0.0163941 -0.999858 0.00396138
23.8183 25.5922 8.28559 0.0144794 -0.999884 0.00463315
23.8179 25.584 7.29444 0.0150729 -0.999844 0.00920732
23.8175 25.5683 6.19313 0.0100331 -0.999815 0.0164202
23.8169 25.547 4.97446 0.00840221 -0.99979 0.0186907
23.8163 25.5269 3.97682 0.00244554 -0.999682 0.0251037
23.8151 25.4947 2.70729 -0.000595631 -0.999625 0.0273639
23.8137 25.4625 1.56272 -0.00230845 -0.999604 0.0280335
23.8123 25.4285 0.490685 -0.00539359 -0.999413 0.0338295
23.8108 25.3967 -0.46725 -0.0115226 -0.999456 0.0308951
23.8091 25.362 -1.53804 -0.0157094 -0.999346 0.0325595
23.8075 25.3342 -2.48259 -0.0182478 -0.999381 0.0300743
23.8059 25.3043 -3.47032 -0.0205198 -0.999347 0.0297271
23.8038 25.2664 -4.70589 -0.0220215 -0.999325 0.0293892
23.8015 25.2316 -5.91712 -0.0260531 -0.99924 0.029007
23.7996 25.2031 -6.96918 -0.0261622 -0.999315 0.0261833
23.7979 25.1751 -7.99103 -0.0293439 -0.999196 0.0273277
23.7964 25.15 -8.92934 -0.0297985 -0.999229 0.0255534
23.7945 25.1225 -10.0588 -0.0307095 -0.999263 0.0230294
23.7931 25.1016 -11.0107 -0.0321722 -0.999235 0.0222353
23.7917 25.0799 -11.9878 -0.0333922 -0.999222 0.0209779
23.7905 25.064 -12.9196 -0.039249 -0.999075 0.0175635
23.789 25.0391 -14.3193 -0.0392873 -0.999065 0.0180684
23.7875 25.0125 -15.5305 -0.0417029 -0.998791 0.0260317
23.786 24.9816 -16.7887 -0.04115 -0.998884 0.0231745
23.785 24.9599 -17.7426 -0.0409478 -0.998923 0.0218024
23.784 24.9397 -18.6682 -0.0418983 -0.998874 0.0222707
23.7827 24.9096 -19.9021 -0.0413316 -0.998894 0.0224336
23.782 24.8912 -20.813 -0.041223 -0.998947 0.020124
22.6996 24.9323 -20.9243 -0.0382016 -0.999097 0.0185794
22.7006 24.958 -19.6639 -0.0386122 -0.999003 0.0224265
22.7016 24.9825 -18.6228 -0.0382477 -0.99896 0.0248364
22.7027 25.0051 -17.7028 -0.041079 -0.998904 0.0224512
22.7037 25.0254 -16.7639 -0.0362408 -0.999116 0.0213164
22.7047 25.0461 -15.7789 -0.0361796 -0.999129 0.0207729
22.7061 25.0752 -14.4413 -0.033597 -0.999204 0.0215194
22.7074 25.0969 -13.2706 -0.0319807 -0.999367 0.015557
