6.8731 27.2026 -24.4668 -0.0113386 -0.999902 0.00810453
8.28923 27.1897 -24.0278 -0.0115094 -0.999889 0.00947777
9.22501 27.1799 -23.7487 -0.0129685 -0.999847 0.0117465
10.4932 27.166 -23.4824 -0.0139965 -0.99983 0.0120176
11.4535 27.155 -23.3397 -0.0135964 -0.999825 0.0128773
12.577 27.1419 -23.1214 -0.0142431 -0.999818 0.0126859
13.6012 27.1294 -22.9594 -0.0141559 -0.999819 0.012707
14.5021 27.118 -22.7627 -0.0161279 -0.999781 0.013359
15.5346 27.1034 -22.5295 -0.0176032 -0.999767 0.0124955
16.5752 27.0873 -22.3245 -0.0195873 -0.999729 0.0124869
17.6082 27.0686 -22.103 -0.0212711 -0.999694 0.0126447
18.6963 27.0474 -21.6815 -0.0261489 -0.999563 0.0138029
19.6797 27.0278 -21.168 -0.029026 -0.999481 0.0139751
20.8884 27.0001 -20.5831 -0.0305253 -0.999445 0.0133343
22.1199 26.9677 -20.0783 -0.032669 -0.999391 0.0122909
22.978 26.9443 -19.6886 -0.034251 -0.99934 0.012027
24.2607 26.9053 -19.1393 -0.0362142 -0.999278 0.0114483
25.4382 26.8639 -18.5806 -0.0427338 -0.999 0.013127
26.4941 26.8252 -18.1079 -0.0459897 -0.998816 0.0158573
27.8284 26.771 -17.589 -0.0482154 -0.998709 0.0160186
28.684 26.735 -17.1474 -0.0481301 -0.998753 0.0133014
29.753 26.6914 -16.5543 -0.0491107 -0.998705 0.013266
30.9099 26.6415 -15.9254 -0.0494345 -0.998659 0.0152085
32.0699 26.5923 -15.1647 -0.0534291 -0.998419 0.0174549
32.9983 26.554 -14.4586 -0.0558141 -0.99827 0.018479
33.6797 26.5282 -13.8615 -0.0547143 -0.998306 0.0197625
34.4912 26.4958 -13.125 -0.059548 -0.998073 0.0173002
35.2831 26.462 -12.4349 -0.0596181 -0.998029 0.0195827
36.2114 26.4272 -11.3964 -0.0606407 -0.997886 0.0233772
37.1558 26.3972 -10.2589 -0.0677486 -0.997189 0.0319972
37.8029 26.3755 -9.55642 -0.0692801 -0.996986 0.034725
38.5537 26.3545 -8.74277 -0.0692399 -0.996855 0.0385561
39.3422 26.3373 -7.82272 -0.0710836 -0.99653 0.0433007
40.3494 26.3085 -6.76265 -0.0811791 -0.995657 0.0455535
41.2202 26.2813 -5.87632 -0.0853958 -0.994713 0.0570337
41.8274 26.2689 -5.18526 -0.0920571 -0.994112 0.0567535
42.4215 26.2586 -4.36683 -0.0965875 -0.993399 0.0618873
42.89 26.2668 -3.54033 -0.0990252 -0.992363 0.0734193
43.4667 26.2816 -2.54872 -0.107126 -0.990487 0.0857673
43.9145 26.3405 -1.45002 -0.100179 -0.990653 0.0925015
44.3859 26.4169 -0.241688 -0.115411 -0.987486 0.107474
44.9012 26.5437 1.16379 -0.120928 -0.984776 0.123897
45.231 26.6541 2.25422 -0.12944 -0.978489 0.16064
45.6716 26.7658 3.29022 -0.141318 -0.977609 0.15537
46.4231 26.9096 4.49985 -0.126326 -0.972724 0.194549
46.9188 27.0677 5.38209 -0.0885642 -0.972581 0.213929
47.3301 27.2697 6.343 -0.0374908 -0.965616 0.257254
47.5297 27.4974 7.23687 -0.0307842 -0.975797 0.210018
47.5884 27.6764 8.3331 0.0190047 -0.989668 0.141276
47.6616 27.8337 9.38598 0.0762701 -0.990821 0.099725
47.7397 27.8853 10.7238 0.0869649 -0.995945 0.023048
47.7988 27.808 12.0555 0.0508406 -0.995449 -0.0774925
47.8262 27.678 13.1032 -0.0299959 -0.991939 -0.123112
47.7917 27.5607 14.0262 -0.050524 -0.986819 -0.150682
47.5107 27.356 15.2314 -0.0631682 -0.977549 -0.201015
47.0456 27.132 16.499 -0.0750042 -0.976757 -0.198268
46.7532 26.9681 17.3525 -0.10017 -0.971514 -0.21477
46.4315 26.7961 18.2608 -0.104536 -0.965974 -0.236496
45.9603 26.5242 19.5463 -0.132838 -0.94806 -0.283607
45.5217 26.3177 20.6433 -0.223105 -0.94062 -0.255847
44.885 26.1836 21.7246 -0.192623 -0.951837 -0.238544
44.3579 26.1072 22.4551 -0.192491 -0.952024 -0.237902
43.8863 26.0531 23.2193 -0.169057 -0.969811 -0.175744
43.1968 26.0023 24.2248 -0.182018 -0.970705 -0.156845
42.5202 25.9994 25.1675 -0.164046 -0.978462 -0.125304
41.991 25.9913 26.0069 -0.158305 -0.983343 -0.0889657
41.3181 26.0068 26.9368 -0.14999 -0.985283 -0.080986
40.5697 26.0445 27.8968 -0.122721 -0.989927 -0.0700256
39.7651 26.0755 28.7925 -0.112445 -0.991624 -0.0635309
38.9346 26.1195 29.521 -0.096419 -0.993507 -0.0603637
38.0856 26.1669 30.1324 -0.0926036 -0.994607 -0.0467044
37.1594 26.2158 30.7407 -0.077429 -0.995981 -0.0450217
36.3142 26.2531 31.3024 -0.0621034 -0.997122 -0.0434896
35.3425 26.2814 32.0022 -0.0602022 -0.997155 -0.0453698
34.259 26.3164 32.7545 -0.0571187 -0.998001 -0.0270585
33.2939 26.3517 33.4474 -0.0520936 -0.998246 -0.0278799
32.4099 26.3721 34.2318 -0.0458464 -0.998516 -0.0294061
31.6877 26.387 34.9695 -0.0391735 -0.998971 -0.0228666
30.8854 26.4018 35.7857 -0.035273 -0.999132 -0.0215144
29.8945 26.4101 36.7024 -0.0308362 -0.999236 -0.023988
28.7393 26.4166 37.7638 -0.0242819 -0.999456 -0.0222866
27.9344 26.4246 38.2643 -0.022426 -0.999553 -0.0197619
26.8164 26.4355 38.8632 -0.0186804 -0.999605 -0.0210092
25.9427 26.4416 39.3549 -0.0177569 -0.99958 -0.0227903
24.9078 26.4456 39.877 -0.015776 -0.999598 -0.0235595
24.0061 26.4473 40.2672 -0.0132637 -0.999587 -0.0254637
22.7152 26.4479 40.8497 -0.0111113 -0.999581 -0.0266967
21.5868 26.4474 41.287 -0.0105013 -0.999596 -0.0264073
20.547 26.4443 41.7326 -0.00891174 -0.999509 -0.0300316
19.6939 26.4414 42.0871 -0.0101262 -0.999463 -0.0311571
18.7404 26.4406 42.4199 -0.0100815 -0.999458 -0.031339
17.7584 26.4446 42.6096 -0.00989731 -0.999442 -0.0319067
16.8514 26.4506 42.7113 -0.0112519 -0.999415 -0.0322995
15.3232 26.4615 42.9089 -0.0121176 -0.999397 -0.0325206
14.4361 26.4671 43.0864 -0.0131195 -0.99938 -0.0326639
13.0877 26.4742 43.422 -0.0133348 -0.999384 -0.0324602
12.1629 26.4812 43.636 -0.0154125 -0.999372 -0.0318926
11.092 26.4928 43.789 -0.0143799 -0.999328 -0.0337293
9.82863 26.5121 43.8032 -0.0177545 -0.999237 -0.0347905
8.83926 26.5354 43.638 -0.0178099 -0.999297 -0.0329989
7.38586 26.5762 43.2166 -0.0192023 -0.999409 -0.0285014
6.0183 26.6145 42.8199 -0.0199344 -0.999435 -0.0270138
5.11079 26.6378 42.5897 -0.0191498 -0.99948 -0.0259239
4.03373 26.6631 42.3508 -0.0168378 -0.999514 -0.0262269
2.95473 26.6857 42.0987 -0.0143759 -0.999613 -0.0238262
1.7291 26.7144 41.631 -0.0142568 -0.999645 -0.0224771
0.586603 26.7374 41.2008 -0.0137909 -0.999766 -0.0166625
-0.211599 26.7569 40.6493 -0.0122398 -0.999787 -0.0165864
-0.892136 26.7773 39.9037 -0.00930937 -0.999838 -0.0153837
-1.74215 26.8018 38.8203 -0.00859351 -0.999851 -0.0149516
-2.3163 26.8205 37.856 -0.00785998 -0.999864 -0.0145241
-3.00648 26.8422 36.5704 -0.00409053 -0.999899 -0.0136307
-3.75514 26.8622 35.2951 -0.00405926 -0.999904 -0.0132825
-4.23261 26.8744 34.4628 -0.00178548 -0.999904 -0.0137548
-4.94738 26.8887 33.3931 0.000193073 -0.999947 -0.0102236
-5.80766 26.8979 32.3795 0.00112398 -0.999938 -0.0109953
-6.71148 26.8947 31.5654 0.0092675 -0.999941 -0.00562004
-7.50364 26.8835 30.9798 0.0175629 -0.999842 -0.000305971
-8.29801 26.8688 30.5341 0.0189575 -0.999818 -0.00230728
-9.33275 26.8419 30.1128 0.0342586 -0.999413 0.000700888
-10.4328 26.8009 29.9027 0.0394607 -0.999214 0.00371254
-11.4972 26.7612 29.9342 0.0427039 -0.999022 0.00897335
-12.5102 26.7112 30.0322 0.0513972 -0.998614 0.0112969
-13.4 26.666 30.2136 0.0536745 -0.998489 0.0117556
-14.2948 26.6184 30.4143 0.062962 -0.99793 0.0131289
-15.1989 26.5636 30.5873 0.0601821 -0.998033 0.0169364
-16.1668 26.4872 30.7302 0.0854699 -0.995954 0.0277656
-17.1436 26.4027 30.8288 0.0961798 -0.994902 0.0295102
-18.547 26.2603 30.9581 0.10518 -0.993981 0.0306495
-19.8134 26.1138 31.008 0.123905 -0.991201 0.0450113
-21.1024 25.9299 30.849 0.134811 -0.989733 0.0474662
-21.2108 25.9598 31.8533 0.133294 -0.990085 0.0439126
-20.2616 26.0983 31.9644 0.134991 -0.990074 0.0384871
-19.3565 26.2053 31.9626 0.11268 -0.992772 0.0413031
-18.28 26.321 31.8707 0.106906 -0.993304 0.0437886
-17.2059 26.4247 31.7668 0.0894868 -0.995363 0.0352212
-15.9222 26.5316 31.6523 0.0766782 -0.996611 0.0297762
-14.9852 26.5952 31.5168 0.0574023 -0.998136 0.0207437
-13.5568 26.6703 31.1972 0.0559579 -0.998291 0.0168724
-12.462 26.7231 30.962 0.0479199 -0.998767 0.0122337
-10.967 26.7865 30.7914 0.0357066 -0.999324 0.00873153
-9.96105 26.82 30.8737 0.0297442 -0.999535 0.00265322
-8.83733 26.8569 31.2551 0.0262609 -0.999626 -0.00228106
-7.95737 26.8735 31.7718 0.0202309 -0.999795 -0.000922232
-7.16456 26.8854 32.3886 0.00962429 -0.99993 -0.00685165
-6.43811 26.8879 33.0466 0.00688956 -0.999928 -0.00912493
-5.75986 26.8818 33.8278 0.00364714 -0.999947 -0.00934422
-5.1041 26.8731 34.7908 -0.00221135 -0.999928 -0.0117217
-4.43258 26.8565 35.9377 -0.00413933 -0.999903 -0.0132892
-3.97136 26.8436 36.7511 -0.00329999 -0.999907 -0.0131735
-3.32314 26.8253 37.959 -0.00522573 -0.999907 -0.0125847
-2.67479 26.8043 39.1585 -0.00820683 -0.999874 -0.0135204
-2.12616 26.7895 39.9299 -0.0110682 -0.999835 -0.0143788
-1.52774 26.7728 40.6295 -0.0111074 -0.999847 -0.0134502
-0.926074 26.7558 41.2988 -0.0146916 -0.999789 -0.0143774
-0.22013 26.7364 41.9266 -0.014695 -0.999788 -0.0144516
1.17847 26.7058 42.5035 -0.0141286 -0.999723 -0.0188352
2.5359 26.6737 42.9762 -0.0168539 -0.999642 -0.0207878
3.64181 26.6486 43.2164 -0.019729 -0.999572 -0.0215898
4.55882 26.6262 43.4197 -0.018283 -0.999543 -0.0239089
5.82513 26.5929 43.7286 -0.0207181 -0.99939 -0.0281028
6.80321 26.5647 44.0098 -0.0199607 -0.9994 -0.0283009
7.79562 26.5342 44.3153 -0.0216445 -0.999254 -0.0319992
8.8064 26.5041 44.594 -0.0189753 -0.999302 -0.0321146
9.93101 26.4767 44.7914 -0.0179372 -0.999406 -0.0294094
11.1566 26.4603 44.7608 -0.01355 -0.999433 -0.0308315
12.0669 26.4499 44.6263 -0.0164676 -0.9993 -0.0335541
13.2427 26.4418 44.3467 -0.0132693 -0.999348 -0.0335277
14.2721 26.4377 44.0639 -0.0131718 -0.999421 -0.0313637
15.7956 26.4286 43.7603 -0.0115965 -0.999339 -0.034446
16.7323 26.4217 43.6434 -0.0107296 -0.999371 -0.0337764
18.2339 26.4112 43.4932 -0.0103429 -0.999404 -0.0329368
19.1468 26.4102 43.3065 -0.0082953 -0.999478 -0.0311701
20.4528 26.4153 42.8187 -0.00539889 -0.999556 -0.029307
21.312 26.4196 42.4339 -0.00707504 -0.999638 -0.0259426
22.4788 26.4219 41.9407 -0.0105672 -0.999671 -0.0233854
23.5813 26.4216 41.4712 -0.0108735 -0.999615 -0.0255276
24.7183 26.4196 41.0211 -0.0125372 -0.999614 -0.0247903
25.6309 26.419 40.5703 -0.0132605 -0.999691 -0.0210191
26.4566 26.4165 40.1102 -0.0190657 -0.999617 -0.0200541
27.2991 26.4096 39.6697 -0.0201905 -0.999577 -0.0208882
28.4798 26.3966 39.0606 -0.0220634 -0.999551 -0.0202647
29.2473 26.3875 38.5623 -0.0254146 -0.999475 -0.0200845
30.1196 26.3808 37.7865 -0.027943 -0.999388 -0.0210645
30.8075 26.3751 37.1192 -0.0291257 -0.99939 -0.0192639
31.6861 26.3608 36.2881 -0.0379281 -0.999135 -0.017056
32.3258 26.3466 35.6157 -0.0429169 -0.998934 -0.016967
33.1506 26.3269 34.7624 -0.0486206 -0.998662 -0.0164638
33.8946 26.2993 34.1268 -0.0521398 -0.998427 -0.0205977
34.9583 26.2583 33.3886 -0.0597338 -0.99783 -0.0276799
35.9687 26.2196 32.692 -0.0570385 -0.997913 -0.030281
37.0757 26.1718 31.9114 -0.0701292 -0.996949 -0.0342592
37.9122 26.1276 31.3635 -0.089607 -0.995372 -0.0345446
38.7188 26.0755 30.8524 -0.0971008 -0.994611 -0.0351316
39.4725 26.0215 30.3384 -0.106025 -0.993177 -0.0484
40.2384 25.9686 29.6647 -0.115546 -0.992113 -0.0481315
41.1188 25.922 28.6618 -0.12684 -0.989587 -0.068043
41.7071 25.8759 27.9708 -0.145202 -0.987366 -0.0630439
42.3366 25.8374 27.175 -0.165246 -0.983249 -0.0746486
42.9148 25.8158 26.247 -0.164713 -0.98272 -0.0844448
43.6678 25.8058 25.1288 -0.193409 -0.973155 -0.122672
44.2216 25.7827 24.3717 -0.214352 -0.968263 -0.128526
44.7385 25.7857 23.5882 -0.233734 -0.954927 -0.182981
45.3241 25.851 22.7 -0.19236 -0.952211 -0.237257
45.9331 25.9343 21.7461 -0.296823 -0.915536 -0.271457
46.4175 26.0415 20.9078 -0.220578 -0.925608 -0.3025
46.8535 26.2682 19.8259 -0.172196 -0.938335 -0.298325
47.2489 26.5817 18.7149 -0.197558 -0.936161 -0.289027
47.6168 26.7951 17.6533 -0.176362 -0.944998 -0.274235
48.0204 27.011 16.5507 -0.120317 -0.967837 -0.22094
48.3687 27.1799 15.7152 -0.108082 -0.962941 -0.247108
48.7272 27.4468 14.3969 -0.00829668 -0.981763 -0.189928
48.763 27.6401 13.3822 -0.00988134 -0.983234 -0.182083
48.7473 27.8079 12.3938 0.0343679 -0.99192 -0.11818
48.7086 27.9031 11.3 0.011611 -0.996355 -0.0819976
48.6152 27.9101 9.84804 -0.0204591 -0.998593 0.0489241
48.5372 27.8487 8.91352 0.0651743 -0.978181 0.189747
48.5032 27.5866 7.82946 0.0128721 -0.979084 0.198611
48.4043 27.2898 6.63487 -0.0525651 -0.965111 0.256509
48.0793 26.9886 5.61529 -0.123394 -0.943781 0.305669
47.4911 26.767 4.50853 -0.162777 -0.953102 0.255147
46.9789 26.6542 3.64386 -0.139042 -0.967445 0.211466
46.2926 26.5296 2.38651 -0.153197 -0.976729 0.150101
45.9055 26.4143 1.22863 -0.137023 -0.983248 0.120097
45.6265 26.3416 0.342426 -0.137772 -0.982203 0.127656
45.2312 26.2696 -0.655236 -0.134162 -0.984932 0.108933
44.7989 26.2055 -1.74651 -0.11768 -0.988054 0.0991633
44.4305 26.1647 -2.6713 -0.11533 -0.989587 0.0857658
44.0155 26.1499 -3.51984 -0.104364 -0.992295 0.0667783
43.4216 26.1435 -4.58484 -0.106931 -0.992289 0.0626791
42.7429 26.1577 -5.54885 -0.0974685 -0.993718 0.0549903
42.0313 26.1856 -6.35904 -0.0940251 -0.994461 0.0467734
41.3846 26.2106 -7.04138 -0.0861412 -0.99517 0.0468625
40.7275 26.2329 -7.73253 -0.0793327 -0.99592 0.0428615
40.0787 26.2576 -8.39816 -0.0783795 -0.996144 0.0394116
39.1464 26.2855 -9.44862 -0.0739047 -0.996629 0.0349562
38.263 26.3154 -10.465 -0.0684066 -0.997159 0.0315317
37.3527 26.3535 -11.4767 -0.0670357 -0.997556 0.0196942
36.5186 26.3838 -12.478 -0.0629894 -0.997802 0.0205586
35.7563 26.4189 -13.2677 -0.0593446 -0.998164 0.0115575
34.8118 26.462 -14.0965 -0.0568618 -0.998225 0.017333
33.8118 26.4998 -15.0124 -0.053826 -0.99844 0.0148133
33.0769 26.5314 -15.5892 -0.054138 -0.998431 0.0142861
32.108 26.5729 -16.2923 -0.053019 -0.998478 0.0151609
31.1894 26.6129 -16.8474 -0.0523834 -0.998509 0.0153622
30.3563 26.6488 -17.3009 -0.0514393 -0.998526 0.017327
29.3065 26.6926 -17.8779 -0.0511263 -0.998541 0.0173999
28.2739 26.7354 -18.4255 -0.0494572 -0.99862 0.01764
27.3432 26.7751 -18.7844 -0.0501529 -0.998613 0.0158872
26.0623 26.8272 -19.305 -0.0454595 -0.99887 0.013841
25.0459 26.8645 -19.7967 -0.0428541 -0.998989 0.0135874
24.1285 26.897 -20.2252 -0.0358604 -0.999283 0.0121116
23.2686 26.9234 -20.6063 -0.034535 -0.999343 0.0107861
22.2787 26.9513 -21.0286 -0.0318907 -0.999432 0.0108355
21.2716 26.9777 -21.4242 -0.0303117 -0.999479 0.0110912
20.3099 27.0011 -21.887 -0.0277108 -0.999562 0.0104347
19.2335 27.0237 -22.47 -0.0259772 -0.999591 0.0119456
18.379 27.0408 -22.871 -0.0249549 -0.999615 0.0121067
16.9825 27.0683 -23.2031 -0.0205333 -0.999723 0.0115286
16.0753 27.0836 -23.3674 -0.0175538 -0.999773 0.0121002
14.9839 27.0988 -23.6231 -0.0157586 -0.999789 0.0132079
13.7046 27.1143 -23.8961 -0.0135737 -0.999795 0.0150122
12.5216 27.13 -24.0933 -0.0155036 -0.999788 0.013498
11.4809 27.1423 -24.2759 -0.0153878 -0.999808 0.0119617
10.466 27.1555 -24.4178 -0.0135232 -0.999858 0.0100715
9.06568 27.1717 -24.7541 -0.0138332 -0.999869 0.00843847
8.16651 27.1818 -25.0538 -0.013261 -0.999885 0.00726728
6.62375 27.1971 -25.4902 -0.0124716 -0.999903 0.00611444
5.07596 27.2082 -25.8953 -0.00858771 -0.999942 0.00654254
3.88696 27.2157 -26.1695 -0.00832547 -0.999938 0.00736645
2.96782 27.2217 -26.3589 -0.00816343 -0.99995 0.00583648
2.03064 27.2288 -26.4905 -0.00857536 -0.999949 0.00537649
1.01977 27.236 -26.634 -0.00665624 -0.999971 0.00358416
0.103202 27.2414 -26.743 -0.00601146 -0.999975 0.00371575
-1.04814 27.2476 -26.8066 -0.00526863 -0.999986 0.00105363
-2.07308 27.2516 -26.7274 -0.00146044 -0.999998 0.000170257
-3.17703 27.2521 -26.4734 0.00134351 -0.999996 -0.00152506
-4.35117 27.2475 -26.0335 0.00179306 -0.999991 -0.00316369
-5.39149 27.2418 -25.4199 0.00362126 -0.999976 -0.00587752
-6.14143 27.2343 -24.7614 0.0082744 -0.999926 -0.00887964
-6.82964 27.2218 -23.9532 0.00956521 -0.999908 -0.00950643
-7.50094 27.2067 -23.2285 0.0125268 -0.999859 -0.0111407
-8.04831 27.1896 -22.3324 0.0141271 -0.999833 -0.0115311
-8.45852 27.1715 -21.5181 0.0211774 -0.999681 -0.0137613
-8.89894 27.1483 -20.517 0.0211951 -0.999679 -0.0138473
-9.33706 27.1242 -19.3044 0.0289637 -0.999498 -0.0122501
-9.69269 27.0973 -18.0628 0.0322092 -0.999414 -0.0115613
-9.96724 27.079 -17.0261 0.0379227 -0.999237 -0.00744935
-10.2127 27.059 -16.0684 0.041743 -0.999103 -0.00557618
-10.5511 27.044 -15.079 0.0401582 -0.999191 -0.00183066
-11.0707 27.0119 -13.6582 0.0483938 -0.998799 -0.00770234
-11.8052 26.9773 -12.5396 0.0504444 -0.998727 0.000119305
-12.7112 26.9236 -11.5227 0.0536264 -0.998545 -0.00568669
-13.4741 26.8735 -10.876 0.0669143 -0.997707 -0.0101477
-14.2973 26.8135 -10.3528 0.0723657 -0.997366 -0.00493706
-15.2312 26.7389 -9.99589 0.0827479 -0.996545 -0.00716245
-16.3948 26.6227 -9.7792 0.111871 -0.993704 -0.00606105
-17.4258 26.5054 -9.70118 0.113578 -0.993509 -0.00637366
-18.3786 26.3883 -9.66731 0.124578 -0.992186 0.00691196
-19.7985 26.2032 -9.56553 0.134538 -0.990859 0.00986601
-21.1744 26.0063 -9.2419 0.15214 -0.988359 0.000774829
-22.2778 25.8391 -8.86022 0.148392 -0.988923 0.00336282
-23.3755 25.673 -8.4467 0.151822 -0.988387 0.00641188
-24.2147 25.5461 -8.14562 0.155063 -0.987562 -0.0130307
-25.4307 25.3181 -7.75649 0.18299 -0.981708 -0.0506018
-26.3287 25.0856 -7.47323 0.253683 -0.966913 -0.0269158
-27.3937 24.7932 -7.13262 0.266984 -0.963547 -0.0172414
-28.3874 24.4958 -6.82907 0.327432 -0.944624 -0.0212077
-29.4362 24.1223 -6.46239 0.35353 -0.934953 -0.0158254
-30.5647 23.6551 -5.89416 0.376428 -0.926354 -0.0130647
-31.5198 23.2816 -5.2526 0.357721 -0.933651 -0.0166037
-32.394 22.891 -4.43279 0.400528 -0.915811 -0.0294562
-33.2201 22.5042 -3.64601 0.41732 -0.908413 -0.0250985
-34.0916 22.079 -2.78725 0.425983 -0.904555 -0.0178475
-34.8983 21.653 -1.84833 0.454668 -0.889692 -0.0415448
-35.6837 21.2067 -0.903152 0.458942 -0.887747 -0.0357563
-36.3929 20.7833 -0.0656613 0.487429 -0.871756 -0.0490018
-36.8778 20.4783 0.647518 0.489667 -0.870799 -0.0438484
-37.2192 20.239 1.52035 0.491793 -0.868955 -0.0546014
-37.4879 19.9924 2.75115 0.503087 -0.861335 -0.0707571
-37.6641 19.7982 3.89779 0.508868 -0.857567 -0.0745057
-37.8173 19.5832 5.16963 0.511872 -0.855213 -0.0811671
-37.9258 19.4254 6.14109 0.521168 -0.849712 -0.0798357
-38.0482 19.2317 7.29682 0.526877 -0.845258 -0.0891028
-38.1101 19.0278 8.70186 0.539978 -0.835565 -0.100708
-38.177 18.8432 10.0119 0.544173 -0.83442 -0.0872845
-38.117 18.7416 11.278 0.548369 -0.830554 -0.0973204
-37.9219 18.7425 12.5499 0.548736 -0.833052 -0.0700964
-37.5866 18.8472 13.8185 0.547703 -0.832593 -0.0825297
-37.1748 19.0114 15.0243 0.552308 -0.830972 -0.0666496
-36.7006 19.2446 16.2347 0.555151 -0.830372 -0.0478643
-36.2601 19.4802 17.2945 0.551148 -0.833114 -0.0461023
-35.9133 19.6607 18.1809 0.548852 -0.835573 -0.0240666
-35.5269 19.8836 19.1043 0.522508 -0.852297 -0.0234335
-35.1023 20.1264 20.0766 0.523694 -0.851767 -0.0154346
-34.7128 20.3509 20.8613 0.52475 -0.850973 -0.0213012
-34.1719 20.6772 21.963 0.520366 -0.853723 -0.000339387
-33.6939 20.9663 22.9733 0.514612 -0.856716 0.0348321
-33.2398 21.262 23.8795 0.535301 -0.844632 -0.00681453
-32.7264 21.5619 24.7065 0.476171 -0.879352 0.000812601
-32.1149 21.9252 25.6409 0.496705 -0.86737 0.0308783
-31.3557 22.3798 26.6366 0.475078 -0.879882 0.010441
-30.7727 22.6939 27.2843 0.451277 -0.892053 0.0235341
-29.8266 23.2033 28.0222 0.439422 -0.897597 0.0299881
-28.7817 23.6814 28.5565 0.397218 -0.917158 0.0322156
-27.4933 24.2431 29.1024 0.367255 -0.928463 0.0463953
-26.4303 24.6412 29.5465 0.315975 -0.944487 0.0900227
-25.6399 24.9192 29.9267 0.289537 -0.953952 0.0783884
-24.8866 25.1683 30.3522 0.226419 -0.97125 0.0727414
-23.9788 25.4136 30.8876 0.226081 -0.972137 0.0619399
-22.8065 25.6962 31.5101 0.202752 -0.976626 0.0713747
-21.7952 25.8817 31.7851 0.127398 -0.990886 0.0437487
-21.2793 25.9509 31.8494 0.127398 -0.990886 0.0437488
-21.2905 25.9907 32.7922 0.125818 -0.991304 0.0385492
-20.3788 26.1137 32.8883 0.13046 -0.990825 0.0352857
-18.7967 26.3057 32.8704 0.111404 -0.992947 0.0405766
-17.6183 26.424 32.7421 0.0870995 -0.995648 0.0329662
-16.6775 26.5032 32.6608 0.0784184 -0.996518 0.027071
-15.6957 26.5731 32.5855 0.0731643 -0.997076 0.0220345
-14.3743 26.6509 32.367 0.0554348 -0.998187 0.023148
-13.1744 26.7062 32.0535 0.0539196 -0.998344 0.0197241
-11.7193 26.7688 31.7762 0.0388551 -0.999168 0.0113748
-10.6624 26.8052 31.7214 0.0354538 -0.999337 0.00832003
-9.60416 26.8371 31.9131 0.025923 -0.999635 0.00755593
-8.64911 26.8609 32.3764 0.0198582 -0.9998 0.00223259
-7.85123 26.8749 32.9608 0.00950683 -0.999933 -0.00663699
-7.11533 26.8775 33.6353 0.00935383 -0.999935 -0.00649048
-6.30864 26.8742 34.6415 0.00418936 -0.99996 -0.00782545
-5.70166 26.8632 35.5867 0.00092037 -0.999892 -0.0146366
-5.21344 26.8518 36.4434 0.00132141 -0.999905 -0.0136875
-4.55318 26.8343 37.6467 -0.00303888 -0.999919 -0.0123863
-4.03384 26.821 38.5935 -0.0049095 -0.999905 -0.0128137
-3.60061 26.8073 39.4422 -0.00613658 -0.999899 -0.0128046
-2.8407 26.7882 40.5636 -0.00724627 -0.999894 -0.012614
-2.21832 26.7722 41.2909 -0.0111466 -0.999859 -0.0125217
-1.60648 26.7559 41.989 -0.014695 -0.999788 -0.0144516
-0.899202 26.7364 42.614 -0.0146983 -0.999786 -0.0145259
0.00953563 26.7129 43.1162 -0.0183436 -0.999697 -0.0163932
1.30877 26.6818 43.5844 -0.016487 -0.999666 -0.0198902
2.55832 26.6538 43.9146 -0.0178769 -0.999636 -0.0202014
3.79066 26.6238 44.1914 -0.0201069 -0.999515 -0.0237655
5.25646 26.5832 44.5453 -0.0230282 -0.999408 -0.0255493
6.23952 26.5552 44.8164 -0.0231762 -0.999331 -0.0281706
7.22642 26.5212 45.121 -0.023447 -0.999251 -0.0307325
8.12079 26.4937 45.3985 -0.0200966 -0.999357 -0.029696
9.0438 26.4677 45.6481 -0.0195655 -0.99936 -0.0299524
9.95684 26.448 45.7797 -0.0168401 -0.999449 -0.0286102
11.0739 26.4316 45.7275 -0.0156974 -0.99937 -0.0317576
12.6134 26.4119 45.4906 -0.0164664 -0.9993 -0.0335548
13.5057 26.4098 45.2339 -0.0114475 -0.999402 -0.032634
14.861 26.4047 44.8482 -0.0146509 -0.999377 -0.0321065
15.9475 26.3958 44.6582 -0.0107309 -0.999371 -0.0337744
16.9955 26.3895 44.5366 -0.0100923 -0.999403 -0.0330553
18.2276 26.3806 44.4361 -0.00818719 -0.999495 -0.0306832
19.4999 26.3789 44.2092 -0.00673419 -0.999498 -0.0309509
20.8563 26.3884 43.6755 -0.00508816 -0.999581 -0.0284904
21.9914 26.3952 43.1619 -0.0075419 -0.999565 -0.0285278
22.8265 26.396 42.8159 -0.0129158 -0.999593 -0.0254281
23.8686 26.3954 42.3679 -0.0107915 -0.999606 -0.0259064
25.2194 26.3948 41.8588 -0.00878569 -0.99972 -0.0219507
26.0369 26.3965 41.4215 -0.0139003 -0.999696 -0.020351
26.8471 26.3945 40.9425 -0.0158647 -0.999695 -0.0187861
27.9344 26.3841 40.3947 -0.0187812 -0.999678 -0.0170559
28.8097 26.3742 39.976 -0.0228429 -0.999612 -0.0159141
29.7691 26.3616 39.3859 -0.0227027 -0.999616 -0.0158779
30.6091 26.3543 38.6205 -0.023703 -0.99962 -0.014076
31.4095 26.3458 37.8112 -0.028325 -0.999526 -0.0116116
32.3515 26.3253 36.9198 -0.033252 -0.999406 -0.00848853
33.3299 26.2989 35.8845 -0.042917 -0.998934 -0.0169669
34.3083 26.2608 34.9455 -0.0533802 -0.998412 -0.0177249
35.1201 26.2252 34.3604 -0.0614904 -0.997905 -0.020103
36.2124 26.1763 33.6546 -0.0607854 -0.997838 -0.0249982
37.0799 26.1366 33.051 -0.0726494 -0.996968 -0.0278648
37.8624 26.0954 32.5225 -0.0805996 -0.996147 -0.0329061
38.8911 26.0228 31.8431 -0.0896045 -0.995373 -0.0345436
39.9492 25.9333 31.1524 -0.115658 -0.992709 -0.0332619
40.6491 25.8719 30.5819 -0.119867 -0.99173 -0.0456051
41.2667 25.83 29.9106 -0.134864 -0.989319 -0.0535668
41.9905 25.7654 29.0483 -0.158557 -0.985746 -0.0555721
42.6202 25.7063 28.3405 -0.17439 -0.983278 -0.0524642
43.2473 25.6379 27.5377 -0.1784 -0.981587 -0.0666357
43.7552 25.6178 26.6718 -0.217378 -0.971859 -0.0907571
44.3179 25.5792 25.8095 -0.207666 -0.971591 -0.11352
44.8723 25.554 25.0108 -0.211295 -0.969914 -0.120642
45.4502 25.5228 24.1424 -0.30484 -0.938972 -0.159388
46.1066 25.5192 23.0585 -0.328002 -0.909779 -0.254395
46.5955 25.5604 22.2831 -0.284958 -0.918044 -0.275375
47.2841 25.6907 21.1803 -0.267265 -0.913006 -0.306822
47.7155 25.9674 20.1196 -0.241479 -0.909008 -0.339695
47.984 26.215 19.2946 -0.238128 -0.905494 -0.351249
48.2595 26.4412 18.4594 -0.176362 -0.944998 -0.274235
48.597 26.6641 17.5524 -0.155953 -0.944188 -0.290151
48.9455 26.8579 16.7175 -0.114201 -0.965389 -0.234024
49.4478 27.1284 15.5699 -0.0642571 -0.964071 -0.257756
49.6802 27.3766 14.5287 -0.0668085 -0.969217 -0.236972
49.694 27.6596 13.1912 -0.0284762 -0.984173 -0.174908
49.6785 27.803 12.3004 -0.037168 -0.994545 -0.0974631
49.6477 27.9146 11.0517 -0.024351 -0.998002 -0.0274635
49.5586 27.894 9.91435 -0.0305969 -0.998768 0.0351012
49.4433 27.7509 8.78191 -0.0978017 -0.979289 0.177281
49.4156 27.4205 7.35945 -0.0709538 -0.968467 0.238824
49.2614 27.0594 6.19289 -0.0797669 -0.931735 0.35427
48.8391 26.6824 4.94161 -0.243102 -0.911489 0.331797
48.1992 26.509 3.92902 -0.1819 -0.959854 0.21252
47.5978 26.3974 2.92444 -0.203699 -0.95907 0.194207
47.1072 26.3173 1.94333 -0.189133 -0.965956 0.176518
46.7524 26.2379 0.897723 -0.174279 -0.976636 0.125736
46.4527 26.1732 -0.074331 -0.153377 -0.982703 0.101823
46.0821 26.1096 -1.05411 -0.134162 -0.984932 0.108933
45.68 26.0699 -2.05392 -0.123441 -0.989014 0.0811558
45.229 26.0316 -3.22002 -0.112766 -0.990953 0.0723236
44.5471 26.0247 -4.54257 -0.112969 -0.991626 0.0624972
44.0695 26.0336 -5.33554 -0.10385 -0.993275 0.0511901
43.485 26.0529 -6.12691 -0.0976498 -0.99396 0.0498028
42.8556 26.083 -6.83626 -0.097834 -0.994202 0.0446175
42.1463 26.1148 -7.58496 -0.0899481 -0.995022 0.0423928
41.4683 26.1508 -8.28103 -0.0855239 -0.995586 0.0383457
40.5797 26.1888 -9.21172 -0.0741191 -0.996886 0.0268018
39.7388 26.2216 -10.1897 -0.0705359 -0.997062 0.0298154
39.0237 26.2495 -11.0245 -0.0675872 -0.997504 0.0204471
38.326 26.2815 -11.7879 -0.0679345 -0.997486 0.020169
37.6159 26.3154 -12.5612 -0.0598054 -0.998078 0.0161631
36.7698 26.3532 -13.5606 -0.0626914 -0.99799 0.00925324
35.9384 26.3938 -14.3537 -0.0559104 -0.99838 0.0105219
35.1687 26.4268 -15.0798 -0.051898 -0.998543 0.0147705
34.4437 26.455 -15.733 -0.0538276 -0.99844 0.014815
33.4356 26.4993 -16.494 -0.0533334 -0.998477 0.0140467
32.5184 26.5384 -17.1305 -0.0529768 -0.99848 0.0151701
31.504 26.582 -17.7504 -0.0519442 -0.99851 0.0167102
30.3273 26.6316 -18.3751 -0.0513061 -0.998535 0.0172076
29.4598 26.6675 -18.8681 -0.0511137 -0.998541 0.0174298
28.6387 26.7019 -19.2968 -0.0501498 -0.998614 0.0158879
27.6214 26.7483 -19.6788 -0.0500832 -0.998641 0.014415
26.6769 26.7888 -20.0559 -0.0454595 -0.99887 0.013841
25.5304 26.8327 -20.6098 -0.0439562 -0.998936 0.0138795
24.2825 26.8799 -21.1831 -0.0397686 -0.999124 0.012426
22.9835 26.9208 -21.7565 -0.0345351 -0.999343 0.0107861
21.6361 26.9573 -22.2676 -0.0307677 -0.999463 0.0112329
20.3236 26.9897 -22.9448 -0.0288378 -0.999539 0.0094939
19.4256 27.0081 -23.4379 -0.0251455 -0.99964 0.00937832
18.6039 27.0254 -23.8142 -0.022209 -0.999722 0.00796964
17.6098 27.0455 -24.0567 -0.0221919 -0.999722 0.00801329
16.7144 27.0616 -24.1992 -0.0184611 -0.999803 0.0072944
15.7709 27.0766 -24.393 -0.0142735 -0.999839 0.0108295
14.7402 27.0896 -24.6577 -0.0149338 -0.999822 0.011548
13.8265 27.1001 -24.8307 -0.013404 -0.999846 0.0113691
12.498 27.1171 -25.0788 -0.0160908 -0.999825 0.0093919
11.5289 27.1314 -25.244 -0.0165435 -0.999808 0.0105111
10.6052 27.1442 -25.3437 -0.0142239 -0.999854 0.00939906
9.43618 27.1594 -25.61 -0.0143793 -0.99986 0.00858146
8.44968 27.1708 -25.9648 -0.0146095 -0.999865 0.00756363
7.2591 27.1845 -26.3188 -0.0130306 -0.999901 0.00525798
6.13148 27.195 -26.5881 -0.0078566 -0.999951 0.00596105
5.09333 27.201 -26.8658 -0.00710493 -0.999954 0.00637039
3.92688 27.2085 -27.1246 -0.00860885 -0.99994 0.00682408
2.8128 27.2173 -27.3293 -0.00970817 -0.999931 0.00664097
1.6056 27.2272 -27.5074 -0.00888421 -0.999947 0.00512463
0.281238 27.2386 -27.6612 -0.00853657 -0.999958 0.00245881
-0.801434 27.2456 -27.7166 -0.00486247 -0.999988 0.000594989
-2.1596 27.2508 -27.6595 -0.00272311 -0.999996 -0.000864046
-3.1933 27.2538 -27.4477 -0.00330171 -0.999991 -0.00213233
-4.16742 27.253 -27.1705 0.000280053 -0.99999 -0.00438907
-5.09322 27.2507 -26.7367 0.00195799 -0.999982 -0.00537928
-6.17022 27.2425 -26.0214 0.00363791 -0.999976 -0.00594092
-7.01893 27.2319 -25.2419 0.00741829 -0.999938 -0.00811358
-7.60719 27.2208 -24.5273 0.00842835 -0.999883 -0.0123151
-8.39849 27.1999 -23.627 0.0125234 -0.999859 -0.0111405
-8.96484 27.1788 -22.6514 0.0169705 -0.999777 -0.0125422
-9.55728 27.1468 -21.4182 0.0196263 -0.999681 -0.0157292
-10.0194 27.1177 -20.271 0.0277205 -0.999512 -0.0143683
-10.3841 27.087 -19.0723 0.030614 -0.999412 -0.0151409
-10.7505 27.0555 -17.8057 0.041798 -0.999025 -0.0142101
-11.156 27.0221 -16.4374 0.0419807 -0.999058 -0.0109184
-11.5121 26.9972 -15.2745 0.0556169 -0.99844 -0.00491409
-11.7707 26.9805 -14.4084 0.0549231 -0.998489 -0.00195242
-12.2913 26.951 -13.4142 0.0580818 -0.998298 0.00517806
-13.0623 26.9065 -12.4765 0.0675113 -0.997696 0.00672815
-13.906 26.8457 -11.6737 0.0823762 -0.9966 -0.00154032
-14.7627 26.7779 -11.1276 0.0764473 -0.997069 0.00316651
-15.9858 26.6673 -10.7625 0.0999713 -0.994948 0.00308056
-17.2134 26.5319 -10.6138 0.119596 -0.992784 0.00175167
-18.3769 26.3823 -10.5711 0.1266 -0.991943 0.00235999
-19.7541 26.1996 -10.5299 0.133379 -0.991007 0.010669
-20.8105 26.0417 -10.3372 0.1562 -0.987455 0.0230969
-21.7189 25.907 -10.0714 0.152724 -0.987942 0.0254236
-22.7031 25.7639 -9.72435 0.15227 -0.987993 0.0261475
-23.5349 25.6423 -9.3945 0.152272 -0.98832 0.00610246
-24.4777 25.5104 -9.04244 0.13659 -0.990628 -0.00055602
-25.3699 25.3515 -8.76222 0.218502 -0.975799 -0.00860254
-26.55 25.0618 -8.38865 0.273108 -0.961237 -0.0280808
-27.3839 24.7985 -8.12359 0.295749 -0.955091 -0.0182909
-28.3185 24.5146 -7.84612 0.318189 -0.947952 0.0119515
-29.298 24.1899 -7.51882 0.324146 -0.94587 -0.0026415
-30.0881 23.8658 -7.20866 0.392365 -0.919694 0.0145562
-30.9212 23.5178 -6.76149 0.385252 -0.922584 0.0191621
-31.8513 23.1467 -6.16114 0.379743 -0.924974 0.0147362
-32.8957 22.6708 -5.19289 0.426905 -0.904237 0.0103858
-33.6462 22.3174 -4.46398 0.435385 -0.900243 0.00168058
-34.371 21.9637 -3.78511 0.425348 -0.904965 -0.0108945
-35.18 21.5537 -2.90884 0.453302 -0.890727 -0.0335048
-35.7089 21.2573 -2.24345 0.457117 -0.888362 -0.0429854
-36.4673 20.8198 -1.35541 0.459254 -0.887389 -0.0400904
-37.4039 20.226 -0.213001 0.493497 -0.868508 -0.0461112
-37.89 19.8955 0.77559 0.500142 -0.864885 -0.042796
-38.1765 19.653 1.96873 0.509368 -0.8579 -0.0674665
-38.3732 19.4405 3.10056 0.520976 -0.850255 -0.0751714
-38.5236 19.2525 4.21658 0.519807 -0.851277 -0.0716171
-38.6352 19.0875 5.20568 0.513285 -0.853406 -0.0907591
-38.7523 18.9139 6.18928 0.523247 -0.847812 -0.0859219
-38.8912 18.6765 7.57261 0.54763 -0.831217 -0.0955982
-38.9233 18.4608 9.04358 0.546116 -0.830352 -0.110783
-38.96 18.3228 9.96927 0.553896 -0.826878 -0.0972003
-38.9146 18.2239 11.1291 0.557223 -0.825497 -0.089763
-38.7831 18.2011 12.1692 0.565986 -0.820112 -0.0839901
-38.5344 18.245 13.3941 0.562728 -0.822554 -0.0820639
-38.1109 18.4071 14.7091 0.567751 -0.819923 -0.0728146
-37.7347 18.5759 15.8155 0.554323 -0.83029 -0.0569723
-37.3018 18.8071 16.8512 0.55574 -0.829993 -0.0475751
-36.7905 19.0768 18.1061 0.569821 -0.8204 -0.0464685
-36.3827 19.3062 19.1579 0.562574 -0.825747 -0.0406551
-35.8991 19.5981 20.2991 0.560677 -0.827578 -0.0274821
-35.3866 19.907 21.3388 0.556887 -0.829944 -0.0326966
-34.9535 20.178 22.2241 0.552455 -0.833507 -0.00772971
-34.3365 20.5719 23.5167 0.543368 -0.839368 -0.00997933
-33.9274 20.8227 24.3186 0.535299 -0.844633 -0.00681427
-33.1821 21.2964 25.552 0.526674 -0.849714 0.0234253
-32.6445 21.6487 26.4231 0.515129 -0.856795 0.0233372
-32.04 22.017 27.2049 0.472704 -0.880827 0.0230251
-31.4156 22.3782 27.9021 0.47033 -0.881772 0.0356091
-30.7053 22.7844 28.5273 0.460887 -0.886465 0.0401233
-29.8978 23.1885 29.0525 0.428644 -0.903321 0.0165924
-29.1225 23.5672 29.4355 0.42133 -0.904413 0.0652687
-28.2732 23.9656 29.7795 0.394 -0.915303 0.0835673
-27.4787 24.3154 30.1138 0.355108 -0.932784 0.06174
-26.6156 24.6683 30.4808 0.335543 -0.938635 0.0758831
-25.6079 25.022 31.008 0.289899 -0.953263 0.0851367
-24.6554 25.302 31.5857 0.223996 -0.9725 0.0637904
-23.894 25.5074 32.0312 0.208765 -0.97565 0.0671277
-22.6349 25.8106 32.6181 0.165096 -0.98384 0.0562963
-21.5283 25.9594 32.7674 0.126858 -0.991052 0.0414222
-21.6116 25.9871 33.7513 0.125212 -0.991396 0.0381487
-22.5235 25.865 33.5951 0.154072 -0.98721 0.0278313
-23.4612 25.6871 33.3273 0.193115 -0.979884 0.0419169
-24.2802 25.4871 32.9611 0.213017 -0.97474 0.0671303
-25.385 25.1882 32.2561 0.266351 -0.960146 0.0707173
-26.5298 24.7669 31.551 0.320473 -0.945221 0.0612122
-27.3499 24.4571 31.2019 0.340751 -0.937195 0.0725701
-28.4055 23.9797 30.7223 0.407101 -0.911 0.0659388
-29.3894 23.5062 30.3802 0.435895 -0.897633 0.0651951
-30.1293 23.1216 30.032 0.428953 -0.901697 0.0519983
-31.1202 22.5867 29.3587 0.482822 -0.875111 0.0326213
-32.0308 22.0534 28.5592 0.508264 -0.861044 0.0159103
-32.8219 21.5632 27.6352 0.523265 -0.852048 0.0144632
-33.4231 21.191 26.8227 0.528115 -0.849089 0.00524528
-33.9698 20.8166 25.8556 0.526674 -0.849714 0.0234252
-34.4784 20.4733 24.9887 0.555463 -0.831351 0.0177722
-34.9047 20.1872 24.19 0.547647 -0.836709 0.000697618
-35.3619 19.896 23.2395 0.552886 -0.833192 -0.0103749
-35.8172 19.6055 22.3082 0.558699 -0.829221 -0.0119615
-36.2009 19.3549 21.4939 0.5659 -0.824319 -0.0157838
-36.6542 19.0704 20.5603 0.568603 -0.822088 -0.0293621
-37.1034 18.7923 19.55 0.575639 -0.816959 -0.0343143
-37.5716 18.5261 18.2509 0.56982 -0.820401 -0.0464664
-38.0375 18.2747 17.0995 0.574676 -0.816775 -0.0512488
-38.4259 18.0685 16.2002 0.571752 -0.81772 -0.0665861
-38.7212 17.9316 15.3464 0.571256 -0.818159 -0.0654267
-39.0458 17.7971 14.3605 0.575725 -0.813798 -0.0792042
-39.3737 17.6846 13.192 0.572165 -0.815464 -0.0874473
-39.5777 17.663 12.0672 0.563445 -0.820493 -0.0965437
-39.7033 17.7195 10.8287 0.557381 -0.824399 -0.0981043
-39.7481 17.8133 9.85837 0.551902 -0.827606 -0.10226
-39.7021 17.9766 8.83092 0.546487 -0.830007 -0.111532
-39.6945 18.122 7.75078 0.549839 -0.829116 -0.10121
-39.6506 18.2738 6.6985 0.543682 -0.834072 -0.0933718
-39.5215 18.4643 5.77783 0.540822 -0.835918 -0.0934859
-39.3733 18.7011 4.48179 0.535961 -0.840058 -0.0833944
-39.2258 18.8959 3.33339 0.528829 -0.844847 -0.0806598
-38.988 19.1715 1.96591 0.513659 -0.854752 -0.0740443
-38.7985 19.3485 1.01797 0.511768 -0.857316 -0.0557115
-38.481 19.6072 -0.172944 0.496235 -0.866206 -0.0586326
-37.819 20.0425 -1.17219 0.488954 -0.87115 -0.0449758
-37.2325 20.4076 -1.8392 0.491167 -0.870739 -0.0238228
-36.4575 20.8646 -2.70759 0.485676 -0.873883 -0.0211275
-35.7353 21.276 -3.63513 0.469162 -0.883059 -0.00768222
-34.8968 21.7051 -4.50991 0.442636 -0.896682 0.00464846
-34.2794 22.01 -5.10798 0.43961 -0.898175 0.0015228
-33.6307 22.3154 -5.72689 0.429953 -0.902793 0.0102268
-32.8664 22.6751 -6.49326 0.430835 -0.902429 0.00164698
-32.0179 23.0536 -7.17286 0.410512 -0.911254 0.0330993
-31.2381 23.3696 -7.67452 0.390026 -0.920696 0.0140761
-30.2245 23.7921 -8.18794 0.388668 -0.921127 0.0203263
-29.315 24.1624 -8.51418 0.35435 -0.934232 0.0238355
-28.1523 24.559 -8.89698 0.333815 -0.942636 0.000663448
-26.8855 24.9767 -9.27519 0.294928 -0.955274 -0.0216484
-25.5403 25.3263 -9.6847 0.215474 -0.976348 -0.0177797
-24.3549 25.5102 -10.079 0.139191 -0.989923 0.0260335
-23.4768 25.6288 -10.4515 0.144981 -0.989198 0.0216352
-22.2329 25.8019 -10.9286 0.152484 -0.987486 0.0402465
-21.0533 25.9832 -11.2777 0.172132 -0.984684 0.0277069
-19.6892 26.1972 -11.4669 0.15819 -0.98725 0.0177173
-18.6678 26.3412 -11.4439 0.133315 -0.99107 0.00277115
-17.5724 26.4871 -11.4869 0.119596 -0.992784 0.00174953
-16.2066 26.644 -11.6661 0.103408 -0.994566 -0.00161104
-14.9036 26.7637 -12.0713 0.0923791 -0.995721 0.00231054
-13.8997 26.8469 -12.9109 0.0748303 -0.997158 0.0032285
-13.1356 26.8998 -13.8177 0.0640726 -0.99792 0.0019553
-12.6849 26.9285 -14.6473 0.0611393 -0.998115 -0.00534054
-12.3319 26.9573 -15.9404 0.0510118 -0.998636 -0.0111256
-11.921 26.9961 -17.288 0.0522592 -0.99852 -0.0150321
-11.5176 27.0369 -18.5344 0.0359484 -0.999136 -0.0208547
-11.184 27.0734 -19.7725 0.0353194 -0.9992 -0.0187743
-10.8916 27.1007 -20.6354 0.0253528 -0.999443 -0.021478
-10.4938 27.1305 -21.6132 0.0217545 -0.999564 -0.0199124
-10.0949 27.1551 -22.4887 0.0183955 -0.999591 -0.0214718
-9.63578 27.1795 -23.3947 0.0126081 -0.999755 -0.0181759
-8.87397 27.2083 -24.5758 0.0112803 -0.999823 -0.0150525
-8.26568 27.2234 -25.2505 0.00653866 -0.999919 -0.0108179
-7.67625 27.2355 -25.9461 0.00523709 -0.999923 -0.0111383
-6.86566 27.2453 -26.6549 0.00387118 -0.999953 -0.00885238
-6.07269 27.2518 -27.2245 0.00168569 -0.99998 -0.00604123
-4.94983 27.256 -27.8813 -0.000343556 -0.999989 -0.00469545
-3.85717 27.2569 -28.3109 -0.00194551 -0.999996 -0.00213214
-2.88708 27.2546 -28.5159 -0.00465853 -0.999987 -0.00213041
-1.68714 27.2489 -28.6412 -0.00555896 -0.999984 0.00127037
-0.606068 27.2424 -28.6255 -0.00931738 -0.999945 0.00481615
0.411205 27.2331 -28.5854 -0.00950911 -0.999944 0.00465732
1.43107 27.2238 -28.4978 -0.0091878 -0.999946 0.00479003
2.48154 27.2144 -28.3264 -0.0104311 -0.999929 0.00571687
3.3687 27.2065 -28.1703 -0.0103091 -0.999927 0.00622037
4.35416 27.1994 -27.9905 -0.00801947 -0.999949 0.00618633
5.42401 27.1931 -27.7438 -0.00712207 -0.999955 0.00634549
6.80894 27.1863 -27.3754 -0.00870953 -0.999951 0.000548138
7.94989 27.173 -27.1122 -0.0141818 -0.999891 0.0030309
9.19765 27.1553 -26.7028 -0.0158617 -0.999851 0.00653298
10.5811 27.1362 -26.2874 -0.014966 -0.999846 0.00911208
11.5997 27.1219 -26.2078 -0.0151089 -0.999851 0.00834191
12.502 27.1095 -26.0443 -0.0161782 -0.999838 0.0078891
13.6637 27.0916 -25.7946 -0.0160899 -0.999825 0.00939339
14.6646 27.0791 -25.628 -0.0143934 -0.999826 0.0118379
15.8111 27.0661 -25.3536 -0.0130733 -0.99986 0.0104048
16.8359 27.0525 -25.1364 -0.0195526 -0.999777 0.00789166
17.7441 27.0348 -25.0192 -0.0214094 -0.999736 0.00827407
18.838 27.0118 -24.7548 -0.0249558 -0.999648 0.00889537
19.8736 26.9892 -24.2585 -0.0255951 -0.999639 0.00820493
21.0343 26.9626 -23.6307 -0.0288368 -0.999539 0.00949493
21.997 26.9365 -23.1263 -0.0335046 -0.999389 0.0099278
22.8666 26.9113 -22.8128 -0.0370057 -0.999226 0.0133358
24.0569 26.8734 -22.3301 -0.0408962 -0.999061 0.0137953
24.9552 26.8397 -21.901 -0.0445117 -0.998904 0.0144842
25.9625 26.7977 -21.4647 -0.0503485 -0.998614 0.0153567
27.1346 26.7517 -20.86 -0.0496958 -0.998577 0.0193368
28.1508 26.7068 -20.5137 -0.0513383 -0.998494 0.0193284
29.3242 26.6547 -19.9926 -0.0515459 -0.998524 0.017116
30.2523 26.6153 -19.4981 -0.0536421 -0.998398 0.0179775
31.3664 26.5685 -18.8906 -0.0510235 -0.998491 0.0203163
32.4921 26.5224 -18.2481 -0.050933 -0.998586 0.0152083
33.5651 26.4775 -17.5231 -0.0524894 -0.998523 0.0140571
34.5956 26.4328 -16.819 -0.0521282 -0.99856 0.0126825
35.6399 26.39 -15.9363 -0.0516483 -0.998579 0.0131228
36.371 26.3603 -15.2337 -0.0568105 -0.998328 0.0106196
37.0905 26.3264 -14.5177 -0.0577116 -0.998276 0.0107155
38.1104 26.2717 -13.4267 -0.0604729 -0.998159 0.00458533
38.8221 26.2361 -12.6415 -0.0665853 -0.997713 0.0115973
39.5695 26.1956 -11.8347 -0.0691672 -0.997417 0.0192398
40.2629 26.1646 -11.0154 -0.0697854 -0.997332 0.0214372
41.0652 26.1291 -10.0654 -0.0709978 -0.997154 0.0250884
41.6759 26.0996 -9.40174 -0.0806408 -0.996401 0.0261062
42.6407 26.0485 -8.38993 -0.0803383 -0.996413 0.0265696
43.4347 25.992 -7.55752 -0.1001 -0.994585 0.0279285
44.0819 25.9569 -6.84152 -0.103929 -0.993422 0.0480677
44.7143 25.928 -6.06123 -0.104516 -0.993279 0.0497034
45.3979 25.9092 -4.9307 -0.112324 -0.992523 0.0477727
45.8415 25.9066 -4.11145 -0.11718 -0.991366 0.0584415
46.3548 25.9168 -2.94984 -0.119202 -0.990512 0.0683907
46.7806 25.955 -1.75944 -0.138218 -0.987314 0.0781494
47.1451 25.9892 -0.807819 -0.153379 -0.982702 0.101825
47.528 26.0237 0.30874 -0.171067 -0.979258 0.106845
47.923 26.094 1.59571 -0.189484 -0.970873 0.142567
48.3715 26.1481 2.44783 -0.209584 -0.963952 0.163926
48.9161 26.1967 3.34834 -0.298594 -0.935089 0.19092
49.5029 26.2728 4.28363 -0.238262 -0.921312 0.307272
49.9999 26.4978 5.14691 -0.145265 -0.901421 0.407847
50.2149 26.8952 6.12154 -0.14557 -0.907982 0.392909
50.3471 27.338 7.22891 -0.0682383 -0.954019 0.285227
50.367 27.5641 8.12616 -0.034441 -0.97442 0.220424
50.4025 27.7916 9.33657 -0.0345752 -0.983437 0.17792
50.6062 27.8876 10.606 -0.0489985 -0.996594 -0.0270151
50.636 27.779 11.9827 -0.0865591 -0.992965 -0.0807952
50.6256 27.6394 13.0076 -0.0726871 -0.974345 -0.212671
50.6467 27.4459 13.9051 -0.0830567 -0.971902 -0.219915
50.5924 27.2238 14.8441 -0.0910296 -0.967149 -0.237354
50.3795 26.9482 15.8516 -0.105374 -0.949004 -0.296828
49.956 26.7206 16.7481 -0.121303 -0.938391 -0.323585
49.2817 26.3097 18.3215 -0.178677 -0.918147 -0.34789
48.9079 25.9666 19.2986 -0.244272 -0.903998 -0.350883
48.6048 25.6429 20.2229 -0.318452 -0.833487 -0.45113
48.2068 25.2744 21.2706 -0.377213 -0.842362 -0.382582
47.4481 25.1463 22.4219 -0.383356 -0.87581 -0.285062
46.9734 25.1547 23.2446 -0.36187 -0.900788 -0.236844
46.2938 25.197 24.4485 -0.32146 -0.935635 -0.143962
45.7694 25.2756 25.2513 -0.2815 -0.95485 -0.0948253
45.1748 25.3538 26.1703 -0.243678 -0.963249 -0.106571
44.6566 25.3883 26.9988 -0.209884 -0.974672 -0.0772235
44.0516 25.4505 28.0678 -0.215645 -0.975289 -0.048046
43.4939 25.517 28.7856 -0.189573 -0.980634 -0.0469192
42.6806 25.6276 29.6266 -0.15808 -0.986273 -0.047712
41.9385 25.7057 30.5468 -0.137741 -0.989909 -0.0332719
41.2168 25.7708 31.3929 -0.126198 -0.991137 -0.0406439
40.3269 25.8592 32.0497 -0.115658 -0.992709 -0.0332619
39.2866 25.9574 32.6973 -0.112486 -0.993307 -0.0262142
38.0988 26.0536 33.4882 -0.098566 -0.994997 -0.0162797
36.9454 26.1231 34.2904 -0.069912 -0.997479 -0.0121817
36.0673 26.1657 34.8463 -0.0568619 -0.998377 -0.00325314
35.2445 26.2082 35.3711 -0.0523396 -0.998623 -0.00362822
34.2912 26.2526 36.177 -0.0467889 -0.998894 -0.00470276
33.4161 26.2848 37.1269 -0.0364534 -0.999303 -0.00804604
32.4557 26.3119 38.0877 -0.0332521 -0.999406 -0.00848872
31.7907 26.3219 38.7632 -0.0251552 -0.999617 -0.0109272
30.7625 26.3348 39.7946 -0.0195054 -0.999736 -0.0121104
29.7351 26.3461 40.5456 -0.0199353 -0.99971 -0.0135167
28.7442 26.3587 41.0529 -0.0185722 -0.999731 -0.0138526
27.9122 26.3682 41.4316 -0.0176068 -0.999754 -0.0135149
27.1156 26.3729 41.8575 -0.013621 -0.999738 -0.0184059
26.1184 26.3726 42.487 -0.0103418 -0.999698 -0.0222885
25.1723 26.3704 42.9255 -0.00688525 -0.999665 -0.024952
24.113 26.3701 43.2857 -0.0095305 -0.999653 -0.024574
23.1778 26.3682 43.7083 -0.00868177 -0.999645 -0.0251982
22.2994 26.3676 44.0334 -0.0101507 -0.999585 -0.0268593
21.3613 26.3618 44.4933 -0.00641963 -0.999636 -0.026204
20.5303 26.3542 44.9008 -0.00323546 -0.999553 -0.029704
19.2377 26.3494 45.2461 -0.00579963 -0.999582 -0.0283313
18.0931 26.3531 45.3729 -0.00669509 -0.999543 -0.0294701
16.967 26.3622 45.4546 -0.0105544 -0.999522 -0.0290518
15.4422 26.3721 45.6363 -0.00991015 -0.99955 -0.0283183
14.5303 26.3773 45.8691 -0.0128539 -0.999405 -0.0320178
13.2169 26.3796 46.3004 -0.0132005 -0.999474 -0.029514
12.2922 26.3863 46.5675 -0.0160248 -0.999474 -0.0281842
11.2062 26.3995 46.7072 -0.015445 -0.999422 -0.0302944
10.1744 26.4124 46.7905 -0.0157421 -0.999388 -0.0312264
8.71644 26.4462 46.5691 -0.0199339 -0.99933 -0.030685
7.82766 26.4721 46.3052 -0.0199723 -0.999329 -0.0307182
6.91354 26.5036 46.0191 -0.0255422 -0.999321 -0.0265731
5.81125 26.5413 45.6583 -0.0273206 -0.999307 -0.0251621
4.90214 26.5696 45.4128 -0.0235945 -0.999429 -0.0241979
3.62111 26.6062 45.0937 -0.0211378 -0.999483 -0.0242134
2.55809 26.6329 44.8579 -0.0190099 -0.999556 -0.0229544
1.50365 26.6589 44.6252 -0.0193687 -0.999635 -0.0187714
0.557977 26.6819 44.3345 -0.0192685 -0.999661 -0.0175315
-0.553128 26.7095 43.9367 -0.0191987 -0.999682 -0.0163274
-1.49146 26.7358 43.4014 -0.0181474 -0.999723 -0.0149564
-2.2569 26.7578 42.6989 -0.0152379 -0.999823 -0.011059
-3.27795 26.7854 41.5369 -0.0116937 -0.999891 -0.00816162
-4.006 26.7974 40.6263 -0.0083988 -0.999928 -0.00834956
-4.61174 26.8122 39.4944 -0.00440318 -0.999938 -0.0100996
-5.02294 26.8234 38.687 -0.00410392 -0.999919 -0.0120346
-5.696 26.8378 37.5089 0.000630568 -0.999933 -0.0115575
-6.25065 26.85 36.4753 0.000837654 -0.999916 -0.0128795
-6.73465 26.8603 35.6263 0.00491107 -0.999897 -0.0134908
-7.36811 26.8681 34.7065 0.0072915 -0.999943 -0.0074619
-8.06097 26.8666 33.9496 0.00935327 -0.999935 -0.00649201
-8.96219 26.8565 33.2075 0.0182179 -0.999823 -0.00182942
-9.78905 26.8361 32.7862 0.0241796 -0.999702 0.00326718
-10.9171 26.8048 32.6027 0.0305898 -0.999492 0.00290039
-11.8445 26.7742 32.6799 0.0388551 -0.999168 0.0113749
-13.1004 26.7302 32.9649 0.0371046 -0.999091 0.0209931
-14.1936 26.6827 33.2878 0.0528016 -0.998286 0.0252587
-15.1389 26.6303 33.4952 0.0663674 -0.997406 0.0278678
-16.3453 26.5497 33.5927 0.0705016 -0.997207 0.0246617
-17.4664 26.4648 33.6739 0.0935836 -0.995262 0.0249325
-18.5553 26.3568 33.793 0.105633 -0.994119 0.0232032
-19.8392 26.2134 33.8589 0.113335 -0.993262 0.0242068
-21.0503 26.0604 33.8146 0.125211 -0.991396 0.038148
-20.9055 26.1021 34.7912 0.125007 -0.992083 0.012046
-21.9368 25.9706 34.6652 0.133849 -0.990923 0.00468871
-23.0854 25.8324 34.437 0.135529 -0.983192 0.122337
-24.5434 25.5021 33.8728 0.214961 -0.971159 0.100953
-25.3294 25.3 33.443 0.255451 -0.961675 0.085256
-26.3508 24.9106 32.7248 0.301643 -0.950166 0.0787175
-27.3549 24.5289 32.2285 0.322979 -0.94348 0.0743576
-28.214 24.1402 31.8125 0.409347 -0.910541 0.0578768
-29.0014 23.7643 31.4688 0.414923 -0.908163 0.0550953
-29.9526 23.2724 31.2064 0.450538 -0.892132 0.0334082
-30.9441 22.732 30.6454 0.485604 -0.873356 0.0374925
-31.6022 22.3509 30.1632 0.493294 -0.869177 0.0322886
-32.3465 21.8933 29.4725 0.502468 -0.864099 0.0293059
-32.989 21.4822 28.7737 0.520368 -0.853748 0.0181804
-33.7395 20.9945 27.8586 0.536573 -0.843705 0.0130221
-34.2673 20.6502 27.041 0.541703 -0.840489 0.0116343
-34.7259 20.3234 26.1509 0.565557 -0.824598 0.0118911
-35.1785 20.0091 25.4075 0.563148 -0.826337 0.00552983
-35.6918 19.6617 24.3522 0.564477 -0.825424 -0.00644516
-36.0894 19.3902 23.5598 0.570706 -0.821064 -0.0093614
-36.5313 19.0993 22.7404 0.571 -0.820672 -0.0213606
-36.9016 18.8658 21.8469 0.56908 -0.822019 -0.0207723
-37.497 18.4753 20.6221 0.576597 -0.816718 -0.0210832
-38.0185 18.156 19.4597 0.573044 -0.818554 -0.0398776
-38.3029 18.0007 18.4303 0.582647 -0.811466 -0.0445403
-38.7438 17.749 17.4703 0.581028 -0.812067 -0.0543481
-39.1075 17.5438 16.6404 0.582705 -0.810208 -0.0627404
-39.4057 17.4094 15.7257 0.583681 -0.808805 -0.0717694
-39.7914 17.2444 14.5632 0.582864 -0.808035 -0.0857322
-40.0668 17.1528 13.5968 0.576199 -0.812588 -0.0877251
-40.3055 17.1302 12.3196 0.568228 -0.817141 -0.0969357
-40.4171 17.1668 11.3535 0.562148 -0.820013 -0.106869
-40.5187 17.2801 10.0024 0.551624 -0.827384 -0.105575
-40.5067 17.4121 9.02241 0.556906 -0.82325 -0.110069
-40.4847 17.556 8.03626 0.557854 -0.823836 -0.100469
-40.4613 17.7659 6.57812 0.541381 -0.833735 -0.107879
-40.3125 17.9906 5.44511 0.539209 -0.837153 -0.0918069
-40.1837 18.1966 4.33099 0.531512 -0.840846 -0.101561
-40.0949 18.3503 3.41057 0.524131 -0.84719 -0.0869213
-39.8428 18.6244 2.21252 0.52133 -0.849561 -0.0803825
-39.6359 18.8386 1.25258 0.514369 -0.854851 -0.0667978
-39.3922 19.0886 -0.259376 0.501691 -0.86284 -0.0615345
-38.6792 19.5759 -1.47651 0.493638 -0.868368 -0.0471008
-37.8323 20.0932 -2.50604 0.48362 -0.874755 -0.0302424
-37.1511 20.4943 -3.28488 0.481235 -0.876326 -0.0214372
-36.3503 20.9518 -4.28235 0.473583 -0.880722 -0.00254918
-35.7539 21.2689 -4.9084 0.464812 -0.885342 0.00633035
-34.8802 21.7015 -5.73631 0.45113 -0.892329 0.015207
-34.2566 22.005 -6.35594 0.432072 -0.901702 0.0157177
-33.6385 22.2948 -7.00975 0.441811 -0.897099 0.00403293
-32.9138 22.6289 -7.60744 0.42636 -0.90347 0.04246
-31.779 23.1166 -8.40832 0.40914 -0.911797 0.0327156
-30.3537 23.7153 -9.13044 0.392319 -0.919473 0.0231992
-29.3677 24.1188 -9.53193 0.368943 -0.928951 0.0160974
-28.4121 24.4709 -9.86312 0.349289 -0.936707 -0.0170034
-27.4102 24.8348 -10.1141 0.307984 -0.95027 -0.0265429
-26.4955 25.1001 -10.3926 0.277487 -0.960016 -0.0343831
-25.6387 25.3135 -10.6128 0.130577 -0.988308 -0.0787169
-24.5768 25.4588 -10.9428 0.0889483 -0.995605 0.0288227
