15.2333 64.625 26.8825 -0.0511279 -0.740785 -0.669794
15.2079 63.9599 27.621 -0.0510109 -0.741777 -0.668704
15.1892 63.2702 28.3752 -0.0555641 -0.730463 -0.680688
15.1732 62.6298 29.0786 -0.0540024 -0.747534 -0.662025
15.1629 62.0342 29.7588 -0.0476189 -0.762923 -0.644734
15.1691 61.2203 30.7719 -0.0294825 -0.799186 -0.60036
15.1909 60.5547 31.7227 -0.0533363 -0.839344 -0.540978
15.2262 60.0524 32.5333 0.00428903 -0.866422 -0.499294
16.2405 60.2528 32.1432 -0.0635585 -0.866312 -0.495443
16.2238 60.8567 31.1986 -0.0494103 -0.813649 -0.579252
16.2219 61.5262 30.3029 -0.0612793 -0.781119 -0.621367
16.2315 62.1235 29.5739 -0.0551366 -0.758758 -0.649035
16.2506 62.7536 28.8534 -0.0574313 -0.742101 -0.667823
16.2719 63.3786 28.1624 -0.0637146 -0.73551 -0.674511
16.2984 64.0109 27.4701 -0.0571201 -0.733947 -0.6768
16.3468 64.8773 26.5294 -0.0505503 -0.735378 -0.675769
16.3823 65.5451 25.7682 -0.0566354 -0.750941 -0.657937
16.4171 66.2125 24.9923 -0.0142108 -0.787279 -0.616434
16.4442 66.8139 24.1768 -0.0214276 -0.815462 -0.578413
16.4699 67.375 23.3551 -0.0305471 -0.841046 -0.540101
16.4954 67.8911 22.4792 -0.0466328 -0.871766 -0.487698
16.5137 68.372 21.5362 -0.00690602 -0.906546 -0.422051
16.5301 68.8249 20.5185 -0.0100098 -0.913668 -0.406339
16.5454 69.211 19.4247 -0.00151334 -0.94779 -0.318891
16.5564 69.5305 18.4316 -0.00748185 -0.951664 -0.307051
16.5643 69.773 17.4914 -0.0129974 -0.973821 -0.226946
16.5646 69.9881 16.3692 -0.000170705 -0.983517 -0.180818
16.57 70.1898 15.2134 -0.0172326 -0.985229 -0.170371
16.5749 70.3368 14.0307 -0.0110616 -0.998333 -0.0566498
16.5787 70.3726 12.9273 -0.0386178 -0.998319 -0.0432121
16.5787 70.4065 11.8272 -0.0276171 -0.999465 -0.017531
16.5722 70.4132 10.6911 -0.0289846 -0.999567 0.00513472
16.555 70.3682 9.55938 -0.0311119 -0.996471 0.0779625
16.541 70.2812 8.5045 -0.0345956 -0.994717 0.0966464
16.5247 70.1645 7.38152 -0.0421004 -0.993824 0.102674
16.5068 70.0391 6.43727 -0.0266203 -0.985667 0.166588
16.481 69.8002 5.23666 -0.00714437 -0.97303 0.230566
16.4538 69.5355 4.13596 -0.00906009 -0.970878 0.239403
16.4291 69.2412 3.11317 0.00971532 -0.949015 0.315082
16.4037 68.9333 2.23149 0.0129027 -0.93868 0.344548
16.3717 68.5927 1.39449 0.00795463 -0.909884 0.414785
16.3133 67.9775 0.13631 -0.0291355 -0.885074 0.464538
16.2588 67.34 -1.00248 0.0109224 -0.852764 0.522182
16.1996 66.5859 -2.18508 0.010905 -0.832083 0.554544
16.1553 65.9433 -3.11781 -0.00514208 -0.807761 0.589487
16.113 65.2845 -4.00433 0.000891972 -0.797589 0.603201
16.0866 64.7284 -4.76261 0.0275787 -0.799823 0.599602
16.0616 63.9078 -5.85086 0.0447215 -0.800185 0.598084
16.059 63.22 -6.78823 0.0521813 -0.809301 0.585072
16.0762 62.5021 -7.80153 0.0708849 -0.821551 0.565712
16.0971 61.9252 -8.65936 0.0668027 -0.832504 0.549976
16.1237 61.3843 -9.56496 0.0837456 -0.866154 0.49271
16.1498 60.8948 -10.5125 0.12623 -0.897134 0.423339
16.1757 60.5158 -11.359 0.120077 -0.9156 0.383743
16.1799 60.4537 -11.5104 0.125017 -0.91684 0.379177
17.2422 60.6138 -11.3759 0.0797091 -0.919401 0.385159
17.2117 61.0387 -10.4049 0.080227 -0.909809 0.407198
17.1822 61.5914 -9.37034 0.0655461 -0.866468 0.494912
17.1648 62.1461 -8.45796 0.0661257 -0.841462 0.536255
17.1548 62.6775 -7.65409 0.0619555 -0.828848 0.556033
17.1475 63.2324 -6.86204 0.0427363 -0.812916 0.580811
17.1505 63.7807 -6.10104 0.00451243 -0.814312 0.580409
17.1732 64.5271 -5.08522 0.003126 -0.808753 0.58814
17.2111 65.1162 -4.25691 -0.0104916 -0.817712 0.575531
17.2571 65.7295 -3.40439 -0.00466942 -0.805027 0.593219
17.3053 66.311 -2.59305 -0.00823441 -0.819861 0.572504
17.3675 66.9245 -1.65936 -0.0675254 -0.842603 0.534284
17.4372 67.5189 -0.642785 -0.0725501 -0.879591 0.470165
17.5032 68.1035 0.465408 -0.0256642 -0.891615 0.452065
17.558 68.6145 1.5308 -0.0495242 -0.910638 0.410226
17.5943 68.9662 2.41205 -0.0314014 -0.947167 0.319199
17.6325 69.3077 3.44623 -0.0700525 -0.962086 0.263597
17.6808 69.6425 4.70962 -0.0340142 -0.964226 0.262889
17.7136 69.9052 5.90225 -0.0981512 -0.982631 0.157486
17.741 70.0642 6.98552 -0.0498987 -0.992906 0.107925
17.7631 70.1883 8.04122 -0.0437358 -0.990842 0.127743
17.7811 70.2816 9.08248 -0.0414826 -0.996847 0.067645
17.796 70.3315 10.0521 -0.0639385 -0.997418 0.0327019
17.8028 70.3466 11.1793 -0.080313 -0.996768 0.00164091
17.8068 70.3537 12.2237 -0.0802952 -0.99674 0.00788918
17.8029 70.3071 13.1905 -0.0547621 -0.996976 -0.0551385
17.7967 70.267 14.2746 -0.0576161 -0.995272 -0.0781964
17.7937 70.13 15.2886 -0.0738225 -0.98825 -0.133833
17.7907 70.0028 16.2514 -0.0830648 -0.986697 -0.139744
17.781 69.7011 17.5469 -0.0518108 -0.970156 -0.236882
17.766 69.4538 18.5064 -0.073671 -0.964258 -0.254517
17.7397 69.0733 19.7382 -0.076993 -0.940679 -0.330446
17.7153 68.7278 20.668 -0.08668 -0.927975 -0.36242
17.6781 68.2447 21.7506 -0.0203561 -0.893393 -0.448815
17.6507 67.8052 22.5467 -0.0197899 -0.870959 -0.490958
17.624 67.3488 23.3463 -0.0223749 -0.84802 -0.529492
17.5795 66.7602 24.1744 -0.070151 -0.795678 -0.601643
17.527 66.1081 25.007 -0.0702678 -0.769571 -0.634684
17.4819 65.4208 25.8294 -0.0372954 -0.755734 -0.653816
17.441 64.7424 26.5857 -0.0517464 -0.732175 -0.679148
17.3894 64.0624 27.3153 -0.0618065 -0.730337 -0.680285
17.3333 63.2508 28.1895 -0.0685671 -0.730925 -0.679005
17.293 62.4897 29.0457 -0.0693634 -0.745343 -0.663063
17.2599 61.7169 29.9632 -0.0651987 -0.766234 -0.639245
17.2598 60.934 31.0031 -0.0461238 -0.806946 -0.588821
17.2689 60.2977 31.9442 -0.0202274 -0.854009 -0.519865
18.3032 60.5521 31.4923 -0.0119019 -0.864283 -0.502864
18.2953 61.2068 30.5497 -0.0388597 -0.820854 -0.569814
18.3059 61.7668 29.8046 -0.0551859 -0.783175 -0.619347
18.3468 62.5862 28.8145 -0.087629 -0.746943 -0.659088
18.399 63.3473 27.9671 -0.0785246 -0.727202 -0.681918
18.4613 64.0383 27.2251 -0.0762914 -0.725007 -0.684503
18.527 64.7953 26.4173 -0.0865296 -0.721546 -0.686938
18.6014 65.5575 25.5854 -0.0703555 -0.759263 -0.64697
18.6664 66.284 24.6743 -0.105591 -0.799672 -0.59108
18.7368 66.994 23.704 -0.0808264 -0.808396 -0.583064
18.7994 67.6777 22.6208 -0.099192 -0.881759 -0.461153
18.8571 68.2245 21.5168 -0.0838169 -0.900975 -0.425699
18.8975 68.6428 20.539 -0.119555 -0.920546 -0.371889
18.9384 69.0156 19.5143 -0.137171 -0.939051 -0.315225
18.9717 69.3454 18.4528 -0.127184 -0.94842 -0.290384
18.993 69.5935 17.5803 -0.122444 -0.959943 -0.252027
19.016 69.8257 16.6282 -0.148337 -0.972867 -0.177553
19.0252 69.9717 15.6232 -0.111229 -0.980181 -0.16393
19.0282 70.0929 14.5692 -0.0954909 -0.990906 -0.0948016
19.0246 70.1856 13.4112 -0.130823 -0.989247 -0.0653842
19.0299 70.2464 12.2907 -0.133351 -0.989954 -0.0469862
19.0188 70.2319 11.2281 -0.102121 -0.994771 0.00165821
19.0096 70.2358 10.2729 -0.142076 -0.98947 0.0276387
19.0029 70.1926 9.29468 -0.137922 -0.989496 0.0433116
18.9941 70.1242 8.23514 -0.0935005 -0.991437 0.0911645
18.9694 69.995 7.20666 -0.100839 -0.983854 0.147859
18.9351 69.8103 6.0692 -0.0939164 -0.98178 0.165191
18.9045 69.6252 4.9822 -0.105546 -0.976622 0.187269
18.8582 69.3084 3.87292 -0.0935909 -0.958477 0.269374
18.8052 68.986 2.7227 -0.0941269 -0.949422 0.299564
18.7377 68.5235 1.56108 -0.120481 -0.911511 0.393233
18.6752 68.0706 0.511366 -0.0893815 -0.90006 0.426501
18.6144 67.5851 -0.363986 -0.0641603 -0.8551 0.514478
18.5478 67.1244 -1.14948 -0.0884687 -0.862103 0.49895
18.4668 66.5175 -2.14167 -0.0696897 -0.834609 0.546416
18.393 65.884 -3.12103 -0.0509905 -0.822794 0.566048
18.3335 65.2697 -3.98825 -0.0414907 -0.815198 0.577694
18.2838 64.6247 -4.89467 -0.0379396 -0.818125 0.573787
18.2481 63.9546 -5.86489 -0.037462 -0.822743 0.567178
18.231 63.3707 -6.69943 -0.0122937 -0.819045 0.573597
18.2245 62.7828 -7.57419 0.0129796 -0.824374 0.565897
18.2294 62.1562 -8.53734 0.0318959 -0.841789 0.538864
18.2368 61.6321 -9.42529 0.0334424 -0.869461 0.492869
18.2672 61.0604 -10.5762 0.089028 -0.90128 0.423992
18.2861 60.8332 -11.1025 0.0927255 -0.914396 0.394059
19.3226 61.0691 -10.6877 0.0420179 -0.918037 0.394263
19.2994 61.481 -9.78072 0.0310764 -0.893084 0.448816
19.2836 62.034 -8.76278 -0.00721692 -0.868539 0.495569
19.2873 62.6664 -7.73597 -0.00596671 -0.843126 0.537683
19.3026 63.2748 -6.79595 -0.0365763 -0.834265 0.550148
19.3277 63.8638 -5.92974 -0.0354549 -0.825111 0.563858
19.3636 64.4146 -5.11641 -0.0629049 -0.835457 0.545944
19.4132 64.9406 -4.32833 -0.100403 -0.818921 0.565055
19.4765 65.5164 -3.4934 -0.107173 -0.827976 0.550427
19.5647 66.1702 -2.46974 -0.134539 -0.823607 0.550972
19.6583 66.8166 -1.433 -0.132639 -0.843469 0.520545
19.7368 67.3264 -0.543766 -0.174447 -0.848658 0.499348
19.8239 67.8597 0.427028 -0.183651 -0.870261 0.457076
19.8974 68.2663 1.35057 -0.167447 -0.917109 0.361763
19.9592 68.6067 2.20044 -0.158268 -0.909789 0.383712
20.042 69.025 3.35156 -0.139122 -0.941817 0.305984
20.1009 69.3772 4.5392 -0.189855 -0.947927 0.255715
20.1409 69.5945 5.62172 -0.180035 -0.964553 0.192939
20.1693 69.7514 6.58055 -0.160619 -0.974821 0.154676
20.1921 69.874 7.6277 -0.195654 -0.97417 0.11275
20.2074 69.9644 8.54229 -0.182457 -0.979238 0.0883299
20.2141 70.0191 9.56868 -0.195401 -0.98043 0.0239737
20.2208 70.0499 10.6421 -0.194197 -0.980343 0.0348699
20.2307 70.0693 11.5985 -0.192144 -0.981337 0.00765893
20.2356 70.0475 12.6337 -0.177963 -0.983068 -0.0436658
20.2362 69.9783 13.6867 -0.192249 -0.978908 -0.0691273
20.2337 69.9153 14.7032 -0.220886 -0.97354 -0.0585663
20.2262 69.7993 15.671 -0.185869 -0.966254 -0.178343
20.2106 69.5924 16.7164 -0.167822 -0.962743 -0.212041
20.1881 69.375 17.751 -0.151052 -0.966031 -0.209683
20.1509 69.0883 18.7731 -0.140879 -0.933425 -0.329956
20.1078 68.7367 19.7877 -0.176935 -0.923323 -0.340836
20.0654 68.405 20.7033 -0.175925 -0.922191 -0.344404
20.0059 67.9475 21.7592 -0.151554 -0.874681 -0.460396
19.9492 67.4626 22.6843 -0.150214 -0.86884 -0.471756
19.8823 66.9762 23.5147 -0.12634 -0.827188 -0.547538
19.8137 66.3939 24.341 -0.0934399 -0.787621 -0.609033
19.7288 65.6757 25.2728 -0.117024 -0.785966 -0.607094
19.6301 64.9023 26.1436 -0.119028 -0.717204 -0.686623
19.5621 64.2644 26.8594 -0.131741 -0.728547 -0.672208
19.4699 63.4657 27.6879 -0.0993118 -0.717964 -0.68896
19.41 62.802 28.4222 -0.0926459 -0.73715 -0.669348
19.3721 62.1383 29.1858 -0.0751397 -0.778878 -0.622658
19.3573 61.5406 29.978 -0.0766435 -0.794936 -0.601833
19.3486 60.9359 30.8613 -0.0501375 -0.840276 -0.539836
19.3518 60.8169 31.0582 -0.0302102 -0.850929 -0.524411
20.3908 61.015 30.6498 -0.043933 -0.854191 -0.5181
20.3942 61.5686 29.8391 -0.0533554 -0.81741 -0.573581
20.416 62.2912 28.8748 -0.130188 -0.774926 -0.618498
20.4744 62.8999 28.1382 -0.125446 -0.740199 -0.660582
20.5505 63.5595 27.3995 -0.121068 -0.728155 -0.674635
20.6427 64.2857 26.6027 -0.149662 -0.719473 -0.678203
20.7271 64.9742 25.815 -0.179545 -0.740031 -0.648164
20.8233 65.5929 25.1026 -0.193559 -0.730495 -0.654913
20.9163 66.1589 24.4029 -0.19925 -0.770732 -0.605204
21.0027 66.7098 23.6082 -0.184171 -0.819375 -0.542868
21.0792 67.2205 22.7912 -0.168135 -0.828598 -0.534
21.1589 67.676 21.9265 -0.194077 -0.892308 -0.407578
21.2183 68.0682 20.9995 -0.201064 -0.903881 -0.377587
21.2661 68.4357 20.0229 -0.171718 -0.920817 -0.350156
21.3096 68.7663 19.0263 -0.241958 -0.929805 -0.277343
21.3504 69.0518 18.0345 -0.230929 -0.933721 -0.273564
21.3888 69.2912 17.1483 -0.236948 -0.938843 -0.249859
21.4138 69.4875 16.0789 -0.198812 -0.966347 -0.16324
21.4256 69.6428 14.9848 -0.224321 -0.968273 -0.110123
21.434 69.7278 13.903 -0.229311 -0.972278 -0.0457429
21.4376 69.7767 12.8949 -0.228668 -0.972203 -0.0503236
21.4385 69.8185 11.8592 -0.233307 -0.971986 -0.028489
21.4316 69.8085 10.7738 -0.223772 -0.973611 0.0448122
21.4193 69.7628 9.74087 -0.230121 -0.972414 0.038158
21.4064 69.7249 8.47516 -0.218494 -0.97313 0.072647
21.3827 69.5992 7.34477 -0.20504 -0.97268 0.108871
21.3586 69.4766 6.19518 -0.20093 -0.967523 0.153384
21.3156 69.2684 5.11529 -0.183668 -0.958747 0.216957
21.269 69.0311 4.13697 -0.205105 -0.944057 0.258241
21.2215 68.8037 3.23423 -0.147708 -0.941601 0.302606
21.1451 68.4395 2.3123 -0.16951 -0.910277 0.377706
21.0491 67.9954 1.26244 -0.230255 -0.881752 0.411699
20.9533 67.5123 0.2047 -0.176356 -0.865514 0.468812
20.8619 67.0264 -0.652673 -0.185985 -0.844601 0.502054
20.7779 66.556 -1.49994 -0.190625 -0.85093 0.48947
20.6681 65.9129 -2.56583 -0.145542 -0.830154 0.538202
20.5951 65.4226 -3.36126 -0.139787 -0.835236 0.531828
20.5157 64.8394 -4.24596 -0.138345 -0.83181 0.537544
20.4635 64.3305 -5.06927 -0.120936 -0.837172 0.533402
20.4145 63.8143 -5.86326 -0.0778907 -0.828003 0.555287
20.3796 63.2698 -6.7096 -0.0749027 -0.840776 0.536177
20.3528 62.6787 -7.6356 -0.0509914 -0.850231 0.523934
20.3402 62.1791 -8.49152 -0.0553294 -0.860527 0.506392
20.3412 61.7452 -9.29619 -0.0294711 -0.881315 0.47161
20.3606 61.2231 -10.3816 -0.0181885 -0.905739 0.423444
20.3656 61.144 -10.5675 0.00823147 -0.925175 0.379452
21.4098 61.2278 -10.328 -0.0329514 -0.921353 0.387327
21.4022 61.6579 -9.38447 -0.0503117 -0.897294 0.438556
21.4 62.1229 -8.45668 -0.0593223 -0.874993 0.480488
21.4188 62.6741 -7.4787 -0.0948438 -0.869322 0.485061
21.4608 63.2743 -6.51627 -0.153593 -0.840232 0.520019
21.5122 63.8134 -5.64215 -0.112511 -0.841732 0.528042
21.5675 64.2995 -4.83714 -0.14457 -0.845847 0.513461
21.6334 64.8349 -3.94615 -0.168052 -0.835551 0.52308
21.7121 65.3417 -3.14371 -0.165423 -0.828193 0.535474
21.7989 65.8128 -2.31839 -0.208751 -0.835938 0.507574
21.8967 66.3294 -1.44291 -0.210995 -0.837386 0.504249
21.9854 66.7909 -0.619552 -0.200753 -0.847111 0.492038
22.0875 67.2462 0.244354 -0.242945 -0.847882 0.471248
22.1767 67.6412 1.13434 -0.246506 -0.881964 0.401715
22.2728 68.0578 2.0734 -0.244627 -0.87546 0.416806
22.3697 68.4745 3.10802 -0.273618 -0.891192 0.361815
22.4213 68.7054 3.98745 -0.268347 -0.92949 0.253058
22.4844 68.9736 5.10858 -0.306898 -0.930081 0.2019
22.5367 69.18 6.18175 -0.301907 -0.933246 0.194689
22.5635 69.3061 7.2886 -0.260877 -0.959942 0.102247
22.5935 69.4202 8.37868 -0.275797 -0.955702 0.102808
22.6067 69.4607 9.53204 -0.244126 -0.969573 0.0181913
22.6149 69.4987 10.7025 -0.290654 -0.956607 0.0205786
22.6207 69.5187 11.7424 -0.314348 -0.949258 -0.0097691
22.6176 69.4908 12.7939 -0.275159 -0.959628 -0.0583194
22.611 69.4212 13.8064 -0.302007 -0.951793 -0.0536834
22.613 69.3566 14.7214 -0.277819 -0.954522 -0.108184
22.5986 69.2451 15.6403 -0.293537 -0.948432 -0.119633
22.556 69.0611 16.6241 -0.297975 -0.936027 -0.187256
22.5263 68.8605 17.6514 -0.254692 -0.948185 -0.189942
22.4805 68.5484 18.7327 -0.241878 -0.927195 -0.286014
22.4409 68.2653 19.6823 -0.267375 -0.911739 -0.311839
22.3879 67.9026 20.7401 -0.222549 -0.909447 -0.351253
22.3104 67.5135 21.5729 -0.286463 -0.84665 -0.448467
22.1997 66.9557 22.6516 -0.26173 -0.827736 -0.496337
22.1075 66.4449 23.5304 -0.263089 -0.813606 -0.518487
22.0029 65.8882 24.3534 -0.266219 -0.748646 -0.607171
21.8831 65.2954 25.0956 -0.201538 -0.752883 -0.626537
21.7804 64.6354 25.9184 -0.200383 -0.750701 -0.629519
21.6888 64.0119 26.655 -0.2026 -0.720347 -0.663365
21.5839 63.2333 27.5347 -0.142043 -0.736078 -0.661825
21.509 62.6084 28.2597 -0.124716 -0.760745 -0.636956
21.444 61.9381 29.1165 -0.11351 -0.80712 -0.579373
21.4204 61.4187 29.8515 -0.0962426 -0.831627 -0.546931
21.4226 61.0773 30.4056 -0.0741806 -0.849217 -0.522808
22.4559 61.0433 30.2445 -0.109567 -0.863312 -0.492632
22.4769 61.5855 29.397 -0.111072 -0.823305 -0.556625
22.5273 62.1984 28.5364 -0.121336 -0.796625 -0.59217
22.5944 62.7663 27.8125 -0.15874 -0.758023 -0.632616
22.7021 63.5328 26.8853 -0.222697 -0.73345 -0.642228
22.8199 64.245 26.0149 -0.243929 -0.736791 -0.630585
22.9246 64.8357 25.2713 -0.249072 -0.748687 -0.614355
23.0616 65.5352 24.3451 -0.247764 -0.762393 -0.597804
23.1867 66.0885 23.5139 -0.292962 -0.794928 -0.531283
23.2933 66.6008 22.6517 -0.276165 -0.817125 -0.506003
23.3979 67.0693 21.7234 -0.345834 -0.831785 -0.434204
23.5063 67.5663 20.5578 -0.338217 -0.871797 -0.354372
23.5862 67.9768 19.4637 -0.278922 -0.897919 -0.340506
23.6422 68.2835 18.4946 -0.30515 -0.914962 -0.264062
23.6923 68.5752 17.2614 -0.32527 -0.92546 -0.194226
23.733 68.779 16.1419 -0.337356 -0.927426 -0.161469
23.7695 68.9377 15.1192 -0.337009 -0.929485 -0.149943
23.7751 69.0354 14.0517 -0.341251 -0.939328 -0.0348002
23.7679 69.0849 13.1334 -0.32354 -0.944495 -0.057023
23.7676 69.13 11.8116 -0.330162 -0.943918 -0.00353447
23.7668 69.1344 10.6717 -0.325924 -0.945375 -0.00638961
23.7588 69.1159 9.74374 -0.310416 -0.949814 0.0386614
23.7498 69.0824 8.83554 -0.325855 -0.944779 0.0347997
23.7359 69.0092 7.85486 -0.303571 -0.946572 0.108843
23.7094 68.8927 6.76386 -0.316468 -0.941964 0.11203
23.6661 68.7207 5.67255 -0.294332 -0.929746 0.221225
23.6148 68.5085 4.69118 -0.31743 -0.918396 0.236193
23.5378 68.2182 3.58495 -0.335607 -0.905262 0.260515
23.4567 67.9238 2.65282 -0.310712 -0.880649 0.357651
23.3311 67.442 1.41876 -0.280211 -0.872889 0.399432
23.2209 67.0161 0.478709 -0.289702 -0.851354 0.437344
23.1096 66.5771 -0.409139 -0.254666 -0.848641 0.46363
23.0195 66.1667 -1.20842 -0.259169 -0.839039 0.478377
22.9086 65.6082 -2.17068 -0.227519 -0.832026 0.505932
22.8223 65.1631 -2.96283 -0.234943 -0.833104 0.50074
22.7234 64.6226 -3.9107 -0.222165 -0.832987 0.50673
22.6404 64.0334 -4.89825 -0.210588 -0.833741 0.510419
22.5749 63.5324 -5.74182 -0.187828 -0.842459 0.50496
22.5175 62.9823 -6.68536 -0.157465 -0.845275 0.510603
22.4805 62.4879 -7.54924 -0.149607 -0.865536 0.47798
22.4571 62.0068 -8.46507 -0.102716 -0.890155 0.443929
22.4551 61.4719 -9.61473 -0.0800238 -0.911534 0.403364
22.4552 61.4407 -9.68535 -0.0823728 -0.914061 0.397124
23.5079 61.4321 -9.47273 -0.0675566 -0.92995 0.361426
23.5146 61.8503 -8.49967 -0.104144 -0.910698 0.39973
23.5425 62.3253 -7.51841 -0.185807 -0.870317 0.456096
23.5749 62.7477 -6.7026 -0.200622 -0.855196 0.477903
23.6581 63.3964 -5.55235 -0.215778 -0.850073 0.480434
23.7265 63.9033 -4.65553 -0.232567 -0.837296 0.494822
23.8331 64.5456 -3.49551 -0.258583 -0.827928 0.497665
23.9508 65.1304 -2.45512 -0.262596 -0.827583 0.496135
24.0813 65.7376 -1.35761 -0.273448 -0.825101 0.494403
24.2019 66.2208 -0.410724 -0.32628 -0.824367 0.462559
24.3111 66.6426 0.498967 -0.328633 -0.85687 0.397207
24.4279 67.0584 1.47009 -0.341686 -0.843767 0.413894
24.5338 67.4153 2.39435 -0.336923 -0.888272 0.31218
24.6224 67.715 3.36744 -0.347419 -0.888209 0.300641
24.7004 67.9762 4.2374 -0.349078 -0.889436 0.295039
24.7678 68.2056 5.22094 -0.352195 -0.914998 0.19682
24.8178 68.3767 6.18848 -0.387525 -0.909729 0.149056
24.8624 68.5402 7.37894 -0.352741 -0.927291 0.125319
24.8859 68.6444 8.53213 -0.379813 -0.923169 0.0591733
24.9002 68.7051 9.89308 -0.359968 -0.93278 0.0185669
24.9061 68.7143 11.1075 -0.355077 -0.934829 -0.00391468
24.9114 68.7093 12.1399 -0.364299 -0.931213 -0.011311
24.9106 68.6581 13.3148 -0.358577 -0.931408 -0.0624607
24.9083 68.5934 14.3807 -0.34076 -0.938058 -0.062684
24.888 68.4932 15.3991 -0.327379 -0.935332 -0.134076
24.8531 68.321 16.4568 -0.338712 -0.920253 -0.195981
24.8102 68.0963 17.5734 -0.361924 -0.907425 -0.213522
24.7599 67.8395 18.6592 -0.351454 -0.902765 -0.247981
24.6865 67.5189 19.6688 -0.374762 -0.867315 -0.327595
24.6027 67.165 20.5892 -0.330184 -0.851878 -0.40655
24.503 66.7575 21.4708 -0.325843 -0.832665 -0.447767
24.3971 66.3247 22.3401 -0.331284 -0.826122 -0.455821
24.284 65.8653 23.1856 -0.329158 -0.78256 -0.528446
24.1572 65.3288 24.058 -0.287284 -0.782396 -0.552562
24.0162 64.6769 24.9965 -0.275411 -0.748782 -0.602888
23.9031 64.1227 25.7485 -0.247189 -0.75694 -0.604929
23.7901 63.5246 26.5107 -0.226394 -0.753434 -0.617319
23.6855 62.8889 27.3274 -0.209828 -0.756546 -0.619363
23.5869 62.1231 28.3476 -0.169197 -0.788395 -0.591444
23.5292 61.5241 29.2209 -0.151945 -0.817592 -0.555388
23.5077 61.2465 29.6595 -0.106572 -0.862673 -0.494407
24.5578 61.0413 29.757 -0.127898 -0.865891 -0.483607
24.596 61.552 28.8698 -0.147826 -0.834599 -0.530652
24.686 62.3191 27.7247 -0.185026 -0.797332 -0.574479
24.7916 62.975 26.828 -0.228895 -0.773946 -0.590436
24.9043 63.5446 26.0583 -0.252831 -0.755754 -0.60408
25.0169 64.0762 25.3091 -0.265907 -0.77329 -0.575601
25.1462 64.6605 24.4769 -0.295973 -0.769734 -0.565606
25.2806 65.2154 23.607 -0.322997 -0.795172 -0.5132
25.4072 65.7069 22.7199 -0.333357 -0.813651 -0.476282
25.5239 66.1633 21.823 -0.317976 -0.838222 -0.443029
25.6313 66.5815 20.9202 -0.356033 -0.835051 -0.41944
25.7486 66.9962 19.8829 -0.352051 -0.879123 -0.321253
25.8213 67.2877 18.9804 -0.356199 -0.884322 -0.301822
25.8963 67.5942 17.8501 -0.375084 -0.898047 -0.229832
25.9435 67.7965 16.9353 -0.360221 -0.907435 -0.216338
25.9927 68.0104 15.7697 -0.379393 -0.914872 -0.138092
26.0229 68.1318 14.8277 -0.345386 -0.933536 -0.0960112
26.0339 68.1973 13.91 -0.372034 -0.927299 -0.0413162
26.0337 68.2433 12.9288 -0.370388 -0.927668 -0.0473789
26.0373 68.277 11.7613 -0.360234 -0.932861 -0.00119604
26.0335 68.2706 10.4838 -0.385771 -0.922449 0.0163739
26.022 68.2352 9.43239 -0.385042 -0.920772 0.062628
26.0051 68.1807 8.4489 -0.376085 -0.924824 0.0570971
25.9741 68.089 7.32623 -0.39503 -0.908104 0.138919
25.9257 67.9404 6.33038 -0.381481 -0.912222 0.149411
25.8796 67.7871 5.40936 -0.380612 -0.904101 0.194255
25.8001 67.5469 4.34877 -0.382328 -0.882473 0.273983
25.7176 67.2721 3.41836 -0.388258 -0.866519 0.313688
25.6214 66.9697 2.41505 -0.411759 -0.857544 0.308339
25.4806 66.5484 1.30775 -0.394763 -0.836994 0.378951
25.3324 66.0262 0.0826894 -0.340184 -0.830524 0.441027
25.2258 65.6479 -0.730897 -0.32525 -0.841546 0.431291
25.1074 65.1801 -1.68004 -0.324193 -0.824012 0.464654
24.9591 64.5704 -2.83747 -0.297353 -0.833602 0.465498
24.852 64.033 -3.8108 -0.271299 -0.833137 0.481954
24.7417 63.3276 -5.1362 -0.261022 -0.849368 0.45874
24.6602 62.7557 -6.2205 -0.228589 -0.862936 0.450654
24.6103 62.3222 -7.07402 -0.216275 -0.872135 0.438869
24.573 61.7881 -8.2365 -0.152853 -0.901672 0.404504
24.5668 61.4948 -8.99989 -0.121371 -0.92843 0.351121
25.6282 61.5079 -8.47439 -0.165877 -0.922357 0.348916
25.6464 61.8865 -7.48995 -0.182477 -0.913408 0.363852
25.6916 62.3378 -6.51027 -0.22681 -0.880891 0.415436
25.754 62.7804 -5.5881 -0.258437 -0.857458 0.444944
25.8452 63.3525 -4.43146 -0.287302 -0.842482 0.455721
25.9518 63.9727 -3.23419 -0.319584 -0.819274 0.476083
26.0583 64.4042 -2.36336 -0.349715 -0.818991 0.454921
26.1972 64.8997 -1.36627 -0.372683 -0.811348 0.450357
26.3311 65.3857 -0.318446 -0.377567 -0.825576 0.419366
26.4494 65.7797 0.593514 -0.385842 -0.83575 0.390702
26.5549 66.129 1.49586 -0.392705 -0.84421 0.364818
26.6695 66.4608 2.41286 -0.408616 -0.856037 0.316598
26.808 66.8677 3.67289 -0.420826 -0.858362 0.293463
26.8903 67.1149 4.65585 -0.435043 -0.869329 0.234529
26.9586 67.3084 5.55893 -0.403435 -0.894225 0.19391
27.0138 67.4745 6.50547 -0.433176 -0.887366 0.157923
27.0634 67.6147 7.57981 -0.434305 -0.892962 0.118313
27.0994 67.7097 8.47616 -0.424096 -0.901881 0.0821744
27.1182 67.7673 9.40161 -0.398904 -0.914203 0.0714702
27.134 67.8058 10.4231 -0.39327 -0.919279 0.0162609
27.1374 67.8043 11.5464 -0.403152 -0.915132 -0.00123047
27.139 67.7833 12.8324 -0.40145 -0.9151 -0.0378184
27.1283 67.732 13.81 -0.399893 -0.913044 -0.080224
27.1049 67.6437 14.891 -0.428123 -0.896894 -0.110863
27.073 67.5028 16.0012 -0.414657 -0.897581 -0.149695
27.0243 67.3104 17.0265 -0.394755 -0.891095 -0.223871
26.9605 67.0692 18.0728 -0.417251 -0.874446 -0.247479
26.8747 66.7622 19.1851 -0.405542 -0.865829 -0.293047
26.7836 66.4393 20.1825 -0.363512 -0.857412 -0.364285
26.68 66.077 21.0783 -0.343141 -0.849047 -0.401713
26.565 65.6778 21.9739 -0.3357 -0.823469 -0.457389
26.4385 65.2231 22.8407 -0.31414 -0.809144 -0.496591
26.3128 64.7597 23.6694 -0.298313 -0.802824 -0.516219
26.1876 64.2631 24.4884 -0.286164 -0.777687 -0.559744
26.0654 63.7424 25.2757 -0.254881 -0.780978 -0.570183
25.9548 63.2337 26.0169 -0.248509 -0.777686 -0.577449
25.8433 62.6758 26.8072 -0.230558 -0.785656 -0.574097
25.7314 61.9883 27.8214 -0.184645 -0.816202 -0.547468
25.6684 61.4916 28.6299 -0.176158 -0.847128 -0.501341
25.6253 61.0456 29.3968 -0.166548 -0.860565 -0.481342
26.7008 60.9783 29.2008 -0.133086 -0.884912 -0.446339
26.7504 61.4469 28.3204 -0.179511 -0.849385 -0.496307
26.8281 61.9825 27.445 -0.211103 -0.821201 -0.530155
26.921 62.4917 26.6553 -0.230843 -0.804404 -0.547399
27.0247 63.0015 25.878 -0.23767 -0.796067 -0.556588
27.1346 63.5109 25.1035 -0.261504 -0.78717 -0.558551
27.2602 64.0019 24.3099 -0.286524 -0.794114 -0.535992
27.3815 64.458 23.5085 -0.299029 -0.814839 -0.496607
27.5057 64.8889 22.6758 -0.345935 -0.81078 -0.472192
27.6322 65.3074 21.8123 -0.342614 -0.82707 -0.445613
27.7481 65.689 20.9099 -0.383455 -0.835712 -0.393125
27.8663 66.0583 19.9242 -0.378627 -0.853957 -0.356929
27.9772 66.4206 18.7504 -0.369092 -0.882874 -0.290354
28.0527 66.6741 17.7288 -0.395852 -0.887773 -0.234863
28.1157 66.8877 16.6982 -0.447947 -0.875741 -0.180059
28.1514 67.0235 15.8004 -0.439958 -0.885477 -0.149555
28.1838 67.1576 14.5822 -0.437032 -0.893702 -0.101487
28.2164 67.2555 13.5057 -0.469511 -0.880389 -0.066901
28.2202 67.2951 12.43 -0.432086 -0.901491 -0.0248306
28.2205 67.3241 11.4079 -0.443707 -0.896111 0.0104811
28.1983 67.291 10.3765 -0.458677 -0.887911 0.0350555
28.1753 67.2329 9.08872 -0.456907 -0.887081 0.0657548
28.1405 67.1444 7.98894 -0.483163 -0.868871 0.107782
28.093 67.0219 7.0597 -0.465882 -0.872597 0.146727
28.0429 66.8827 6.09899 -0.446281 -0.880164 0.161691
27.9781 66.7104 5.17608 -0.489232 -0.841376 0.229649
27.8913 66.4676 4.18245 -0.464732 -0.85467 0.231436
27.7781 66.1319 3.01579 -0.440273 -0.837534 0.323569
27.6654 65.8084 2.05054 -0.44205 -0.830366 0.339239
27.5456 65.47 1.12521 -0.439606 -0.815233 0.377016
27.4209 65.0908 0.178678 -0.412184 -0.826286 0.383869
27.3031 64.6949 -0.773872 -0.412791 -0.817679 0.401253
27.1707 64.2349 -1.77072 -0.377897 -0.82143 0.427138
27.047 63.7893 -2.72575 -0.348163 -0.831218 0.433426
26.9536 63.3683 -3.63766 -0.330212 -0.842724 0.425178
26.853 62.7714 -4.89023 -0.298417 -0.857887 0.418303
26.783 62.324 -5.88758 -0.273126 -0.881129 0.386023
26.7348 61.9542 -6.78675 -0.205019 -0.911496 0.35657
26.7102 61.6174 -7.62853 -0.176884 -0.921585 0.345533
26.7066 61.449 -8.17195 -0.145245 -0.946168 0.289259
27.7943 61.4769 -7.49125 -0.2027 -0.929708 0.307499
27.8175 61.8138 -6.45393 -0.221651 -0.921604 0.318616
27.8588 62.1423 -5.5902 -0.255003 -0.892365 0.372369
27.914 62.5462 -4.59966 -0.287011 -0.865228 0.411101
27.9797 62.9062 -3.72657 -0.347609 -0.843335 0.409822
28.0651 63.292 -2.84645 -0.368821 -0.840444 0.39702
28.1744 63.7016 -1.90481 -0.37783 -0.826503 0.417297
28.2936 64.1057 -0.96859 -0.406111 -0.821558 0.400145
28.4105 64.4852 -0.0488963 -0.427896 -0.818061 0.384292
28.5314 64.8398 0.833245 -0.413327 -0.830774 0.372793
28.6449 65.14 1.67762 -0.433158 -0.835112 0.33906
28.7677 65.4697 2.67009 -0.445688 -0.831712 0.331084
28.887 65.8009 3.76157 -0.477747 -0.827701 0.294394
28.9966 66.1169 5.10747 -0.464687 -0.855526 0.228345
29.0853 66.3401 6.14927 -0.461804 -0.858762 0.221957
29.1359 66.47 7.07325 -0.463408 -0.874457 0.14345
29.1896 66.6014 8.26602 -0.468123 -0.877043 0.107963
29.2323 66.6925 9.19806 -0.466277 -0.878195 0.10658
29.2536 66.7386 10.1444 -0.45528 -0.889156 0.0460535
29.2766 66.7784 11.076 -0.480976 -0.876213 0.0302031
29.2775 66.757 12.5041 -0.457536 -0.888133 -0.0433573
29.2662 66.7091 13.5072 -0.439037 -0.896527 -0.0590433
29.2434 66.6268 14.6409 -0.442986 -0.891924 -0.0907458
29.2078 66.4931 15.8606 -0.434938 -0.889409 -0.14064
29.1518 66.3148 16.9328 -0.422865 -0.888127 -0.180042
29.0949 66.1287 17.9353 -0.425425 -0.880795 -0.207877
29.0217 65.9196 18.8156 -0.433759 -0.863337 -0.257879
28.9198 65.6197 19.8801 -0.386126 -0.852227 -0.35301
28.8113 65.2896 20.7794 -0.372312 -0.858678 -0.352216
28.7008 64.9484 21.6704 -0.36147 -0.82459 -0.43519
28.5723 64.5464 22.5118 -0.338907 -0.832003 -0.439218
28.4523 64.1463 23.3539 -0.310725 -0.820209 -0.480319
28.2688 63.508 24.515 -0.299713 -0.805706 -0.510892
28.1288 62.9584 25.428 -0.249073 -0.809546 -0.5316
28.0003 62.3472 26.4301 -0.215515 -0.813046 -0.540841
27.9035 61.8315 27.286 -0.175546 -0.850846 -0.495221
27.8109 61.1537 28.5161 -0.142317 -0.88027 -0.452627
27.8004 61.0539 28.7134 -0.142064 -0.880191 -0.452858
28.8708 60.9296 28.5817 -0.177117 -0.872324 -0.45572
28.9365 61.4378 27.5631 -0.205378 -0.864577 -0.458613
29.0128 61.8829 26.747 -0.224234 -0.851467 -0.47405
29.1485 62.5233 25.6172 -0.264161 -0.82784 -0.494874
29.2861 63.0369 24.6888 -0.287083 -0.819566 -0.495878
29.4633 63.6437 23.5536 -0.301274 -0.832887 -0.464256
29.5939 64.056 22.6652 -0.351142 -0.839611 -0.41443
29.7198 64.4449 21.7569 -0.351551 -0.844412 -0.404203
29.8415 64.8013 20.8269 -0.394154 -0.847987 -0.354346
29.9541 65.127 19.9028 -0.394034 -0.853428 -0.341171
30.04 65.3677 18.9975 -0.456108 -0.859436 -0.230944
30.1128 65.571 18.0828 -0.436351 -0.871539 -0.223648
30.1952 65.7958 16.9234 -0.467959 -0.872176 -0.142564
30.2554 65.9721 15.6659 -0.489952 -0.862094 -0.129389
30.2805 66.0794 14.4637 -0.487835 -0.870313 -0.067617
30.3064 66.1681 13.1782 -0.51427 -0.855535 -0.0598891
30.3073 66.1888 12.1366 -0.487336 -0.873204 0.00432469
30.2971 66.1817 11.2317 -0.500155 -0.865798 0.0154209
30.2778 66.1507 10.0457 -0.510935 -0.857654 0.0580905
30.2476 66.0899 9.02664 -0.507857 -0.858237 0.0742258
30.2051 65.9969 8.02979 -0.515442 -0.847248 0.128417
30.1464 65.8646 6.96942 -0.518418 -0.843413 0.141058
30.0805 65.6982 5.90475 -0.488252 -0.853468 0.182216
30.0068 65.512 4.97965 -0.497945 -0.832305 0.243555
29.8838 65.2013 3.71045 -0.503951 -0.822452 0.26383
29.7577 64.8679 2.57881 -0.482124 -0.820843 0.306223
29.6283 64.5423 1.54692 -0.481829 -0.812984 0.326952
29.5098 64.2327 0.675833 -0.432498 -0.827263 0.358583
29.3975 63.898 -0.225926 -0.411724 -0.831506 0.372935
29.2902 63.5466 -1.12982 -0.411597 -0.832248 0.371417
29.1844 63.1821 -2.02392 -0.385497 -0.835936 0.390645
29.0884 62.8112 -2.96253 -0.319921 -0.867965 0.379853
29.0163 62.4648 -3.84013 -0.316112 -0.878123 0.359129
28.951 62.1203 -4.82294 -0.296071 -0.903364 0.310284
28.9045 61.7 -6.0364 -0.222504 -0.927415 0.300654
28.8784 61.352 -7.17953 -0.191674 -0.948221 0.253254
29.9779 61.3379 -6.43828 -0.19534 -0.944566 0.26389
30.0044 61.6587 -5.28271 -0.253007 -0.922602 0.291194
30.0412 61.9226 -4.40365 -0.266653 -0.91575 0.300498
30.1129 62.3087 -3.28133 -0.306065 -0.899372 0.312176
30.1822 62.6007 -2.42944 -0.354064 -0.866668 0.351462
30.2875 62.9674 -1.41767 -0.377853 -0.853377 0.359131
30.3901 63.3309 -0.389056 -0.41158 -0.846312 0.338168
30.5 63.6612 0.557959 -0.441378 -0.83775 0.321498
30.6187 63.9806 1.5301 -0.45838 -0.826326 0.327222
30.7426 64.2937 2.54246 -0.467344 -0.828534 0.308416
30.8641 64.5863 3.58809 -0.482113 -0.833109 0.271103
30.9666 64.8385 4.61214 -0.488492 -0.835926 0.250205
31.0644 65.0599 5.64729 -0.533494 -0.825963 0.182124
31.1361 65.2292 6.70346 -0.508128 -0.848201 0.149534
31.1933 65.3693 7.80599 -0.508745 -0.850937 0.130707
31.2426 65.4732 8.94389 -0.544452 -0.83551 0.0741325
31.2796 65.5446 10.2012 -0.53706 -0.842252 0.0466677
31.3027 65.5826 11.1906 -0.536834 -0.842582 0.0431748
31.3134 65.5876 12.0909 -0.544887 -0.838289 -0.0192196
31.31 65.5638 13.0292 -0.535706 -0.84411 -0.0223002
31.3004 65.5231 13.966 -0.50766 -0.859903 -0.0533654
31.2809 65.4476 15.0973 -0.510175 -0.856013 -0.0834478
31.244 65.3335 16.221 -0.479422 -0.869676 -0.117549
31.2083 65.2267 17.1309 -0.487857 -0.858231 -0.159482
31.1323 65.0377 18.113 -0.448143 -0.861072 -0.240256
31.0407 64.7902 19.1295 -0.486569 -0.839218 -0.242823
30.9489 64.5301 20.148 -0.433102 -0.850224 -0.299234
30.8346 64.2143 21.1209 -0.457039 -0.820843 -0.342537
30.7096 63.8625 22.0153 -0.408157 -0.826489 -0.387717
30.5698 63.4549 22.9864 -0.390425 -0.821912 -0.414763
30.4441 63.0534 23.9015 -0.361669 -0.834624 -0.41545
30.3035 62.5812 24.833 -0.339063 -0.821903 -0.457724
30.192 62.1471 25.6755 -0.25835 -0.839288 -0.478384
30.0969 61.7256 26.4897 -0.243811 -0.850985 -0.465166
30.0185 61.3143 27.3299 -0.204189 -0.88359 -0.421398
29.9625 60.9328 28.1286 -0.181121 -0.89432 -0.409129
31.0709 60.97 27.5033 -0.221844 -0.89992 -0.375407
31.1618 61.4603 26.374 -0.271799 -0.863949 -0.423931
31.2584 61.8567 25.5521 -0.307684 -0.857039 -0.413297
31.3618 62.2566 24.6715 -0.357542 -0.828798 -0.430416
31.4884 62.6793 23.6934 -0.393183 -0.833253 -0.388711
31.6143 63.0701 22.7355 -0.426959 -0.819753 -0.381722
31.7351 63.4138 21.8119 -0.454274 -0.818725 -0.351176
31.8508 63.729 20.9274 -0.466761 -0.815566 -0.342034
31.9465 63.9845 20.054 -0.506873 -0.810963 -0.292267
32.0527 64.2729 18.8485 -0.519473 -0.827176 -0.214309
32.1398 64.5022 17.7113 -0.53129 -0.822423 -0.203347
32.2203 64.703 16.4249 -0.546241 -0.826942 -0.133371
32.2691 64.8358 15.1905 -0.528288 -0.843551 -0.0966096
32.278 64.8918 14.1033 -0.551995 -0.832816 -0.0414665
32.293 64.9445 13.0596 -0.561505 -0.825959 -0.0500412
32.2901 64.9576 11.943 -0.549278 -0.835639 0.00144612
32.268 64.9331 10.7854 -0.550391 -0.834368 0.0299859
32.2559 64.9126 9.79249 -0.548499 -0.833892 0.0614221
32.2053 64.8191 8.63998 -0.536602 -0.838572 0.0941083
32.1623 64.7241 7.55079 -0.543703 -0.832799 0.104076
32.0946 64.5679 6.42133 -0.52965 -0.832459 0.162735
32.0232 64.4158 5.47398 -0.517027 -0.836502 0.181514
31.9371 64.2234 4.5451 -0.528342 -0.816696 0.232082
31.8355 63.9847 3.56037 -0.514483 -0.818073 0.257029
31.7375 63.756 2.67121 -0.491584 -0.825813 0.276365
31.6134 63.4405 1.56995 -0.466562 -0.833312 0.296498
31.4922 63.0956 0.416586 -0.41079 -0.857923 0.308577
31.4023 62.8101 -0.527484 -0.393179 -0.86741 0.304975
31.3148 62.501 -1.48755 -0.375016 -0.874791 0.306761
31.2237 62.1718 -2.51035 -0.323157 -0.895715 0.305392
31.1633 61.893 -3.48109 -0.277625 -0.922419 0.268452
31.1136 61.5937 -4.48388 -0.261737 -0.921167 0.288001
31.0919 61.3758 -5.38386 -0.196346 -0.954964 0.222467
31.0881 61.3339 -5.56672 -0.192997 -0.953031 0.23342
32.2007 61.2824 -4.69089 -0.220251 -0.948355 0.22828
32.2333 61.5383 -3.60502 -0.266774 -0.940681 0.209647
32.2862 61.7917 -2.52076 -0.310986 -0.911985 0.267529
32.3494 62.0447 -1.62821 -0.361659 -0.889062 0.280661
32.4117 62.2778 -0.754461 -0.382383 -0.882786 0.272897
32.4936 62.55 0.235314 -0.407333 -0.873443 0.266792
32.5769 62.8065 1.17366 -0.422294 -0.86276 0.278052
32.6713 63.0618 2.15879 -0.465902 -0.846143 0.258798
32.7789 63.3218 3.24047 -0.486848 -0.839954 0.2397
32.8664 63.5265 4.11447 -0.505764 -0.835568 0.214545
32.9498 63.7217 5.05246 -0.527029 -0.821586 0.21734
33.0572 63.942 6.37382 -0.54377 -0.82689 0.143414
33.1261 64.095 7.64872 -0.553406 -0.82523 0.112859
33.1717 64.1886 8.63639 -0.558728 -0.824529 0.089305
33.2128 64.2626 9.71823 -0.5708 -0.818648 0.0632696
33.2356 64.2994 10.788 -0.547943 -0.835066 0.049229
33.2511 64.3171 11.7754 -0.552912 -0.833042 0.0181361
33.2518 64.3077 12.6837 -0.577958 -0.815573 -0.0283688
33.2387 64.2648 13.6804 -0.566589 -0.823294 -0.0341187
33.2328 64.2171 14.7603 -0.57238 -0.817792 -0.0599795
33.2128 64.1444 15.802 -0.568396 -0.815015 -0.112591
33.1596 64.0219 16.7509 -0.550817 -0.82457 -0.129171
33.1194 63.9058 17.6723 -0.51582 -0.839587 -0.170362
33.0403 63.7229 18.5646 -0.53035 -0.822298 -0.20629
32.966 63.5226 19.5412 -0.501756 -0.837349 -0.216998
32.8737 63.2759 20.5332 -0.492029 -0.828631 -0.266978
32.7646 62.9823 21.4684 -0.446553 -0.836723 -0.316992
32.6522 62.6619 22.4504 -0.432039 -0.837177 -0.335376
32.5312 62.2987 23.4316 -0.388452 -0.847975 -0.360616
32.4327 61.9743 24.3096 -0.388979 -0.850065 -0.355084
32.337 61.6176 25.1863 -0.318756 -0.864353 -0.388958
32.2444 61.2186 26.2086 -0.299479 -0.886387 -0.35303
32.1691 60.8461 27.1494 -0.22851 -0.910564 -0.344465
32.158 60.7832 27.3232 -0.230234 -0.911289 -0.341386
33.2701 60.6952 26.7197 -0.273514 -0.900764 -0.337365
33.3396 61.0307 25.7681 -0.283032 -0.902347 -0.325057
33.421 61.3792 24.7633 -0.349348 -0.872252 -0.342247
33.5163 61.7243 23.7366 -0.375326 -0.87158 -0.315401
33.6253 62.0681 22.6989 -0.426324 -0.84334 -0.327149
33.7398 62.3976 21.6287 -0.458762 -0.84339 -0.279697
33.8526 62.7183 20.4463 -0.495034 -0.827223 -0.265789
33.9464 62.9652 19.3518 -0.526318 -0.822203 -0.216731
34.0263 63.1705 18.2242 -0.529343 -0.830558 -0.173115
34.1018 63.3569 17.0629 -0.543634 -0.825702 -0.15059
34.1409 63.4633 16.0657 -0.564605 -0.81809 -0.109319
34.169 63.541 15.0691 -0.570348 -0.818942 -0.0635363
34.1846 63.6004 13.9698 -0.571292 -0.819775 -0.0399318
34.1921 63.6453 12.7336 -0.566533 -0.823748 -0.0218965
34.1909 63.6576 11.8127 -0.569489 -0.821901 -0.012667
34.1855 63.656 10.9106 -0.579933 -0.814605 0.00984443
34.1579 63.6131 9.70943 -0.565385 -0.823278 0.0505361
34.1244 63.5521 8.73795 -0.561259 -0.823034 0.0871979
34.0777 63.455 7.5895 -0.554476 -0.825835 0.102727
34.0203 63.334 6.52107 -0.538414 -0.831043 0.139566
33.9502 63.1839 5.46901 -0.526868 -0.830788 0.179448
33.8589 62.9826 4.34275 -0.496518 -0.846035 0.19415
33.7734 62.781 3.32838 -0.488447 -0.842931 0.225582
33.6852 62.5605 2.30946 -0.455081 -0.858855 0.235096
33.587 62.2902 1.15349 -0.411947 -0.881675 0.230106
33.5254 62.0863 0.234625 -0.376564 -0.894458 0.241132
33.4426 61.8032 -0.936958 -0.367431 -0.899665 0.235791
33.3935 61.6059 -1.81682 -0.331472 -0.923859 0.191341
33.3456 61.3652 -2.99773 -0.236547 -0.949224 0.20741
33.3204 61.2003 -3.90697 -0.203626 -0.965908 0.159866
34.4474 61.1271 -2.67999 -0.21107 -0.964961 0.155883
34.4834 61.32 -1.51177 -0.241077 -0.953214 0.182388
34.5386 61.5393 -0.385405 -0.316063 -0.924152 0.214587
34.597 61.746 0.670776 -0.357783 -0.917234 0.175135
34.6558 61.9326 1.65703 -0.407021 -0.89219 0.195784
34.7191 62.113 2.63708 -0.406377 -0.895399 0.181987
34.7932 62.2965 3.59553 -0.446723 -0.870262 0.207564
34.868 62.4732 4.64754 -0.492005 -0.852926 0.174492
34.9398 62.6342 5.79803 -0.49883 -0.855486 0.138972
35.0094 62.7833 7.0461 -0.537462 -0.83586 0.111682
35.0489 62.8634 8.02095 -0.537787 -0.838478 0.0879744
35.0922 62.9459 9.05642 -0.548614 -0.833309 0.0679551
35.1189 62.9948 10.2353 -0.562724 -0.825869 0.0357947
35.1322 63.0113 11.2645 -0.565377 -0.824649 0.0174068
35.1382 63.0053 12.4281 -0.556488 -0.830746 -0.0135223
35.1318 62.9768 13.3523 -0.554828 -0.831391 -0.0308905
35.1175 62.9232 14.5991 -0.555654 -0.830183 -0.0452212
35.0929 62.8468 15.7349 -0.563135 -0.822306 -0.0817986
35.0628 62.7583 16.6835 -0.560484 -0.822132 -0.0997832
35.013 62.6164 17.8715 -0.522797 -0.841499 -0.136242
34.9572 62.4747 18.7728 -0.504605 -0.846223 -0.171116
34.8803 62.2866 19.7898 -0.487822 -0.847748 -0.208215
34.807 62.0883 20.7262 -0.471683 -0.843842 -0.255823
34.7061 61.7921 21.9246 -0.418634 -0.869291 -0.262828
34.6089 61.4903 23.0158 -0.405355 -0.865563 -0.294088
34.5259 61.201 24.0346 -0.34316 -0.892857 -0.291631
34.4473 60.8947 25.0602 -0.335047 -0.897791 -0.285859
34.386 60.5983 26.1394 -0.247059 -0.927215 -0.281484
35.5107 60.5224 25.1795 -0.301006 -0.924462 -0.23402
35.5698 60.7753 24.1591 -0.300347 -0.918352 -0.257725
35.633 61.0156 23.1511 -0.39148 -0.88782 -0.241907
35.7051 61.2556 22.1365 -0.392174 -0.889604 -0.234103
35.7753 61.4741 21.1356 -0.442509 -0.868667 -0.222719
35.8471 61.6789 20.0976 -0.449207 -0.874331 -0.183737
35.9132 61.8501 19.0893 -0.499764 -0.851034 -0.161175
35.9687 61.9883 18.1289 -0.492465 -0.858246 -0.144545
36.0056 62.0971 17.1832 -0.490768 -0.866156 -0.0944524
36.0408 62.2083 15.9934 -0.527987 -0.845363 -0.0811841
36.067 62.2946 14.8018 -0.526913 -0.847961 -0.0576689
36.0821 62.3441 13.7256 -0.527224 -0.848978 -0.0356581
36.0873 62.3717 12.6666 -0.526418 -0.850063 -0.0166693
36.0867 62.3861 11.6015 -0.500809 -0.865553 0.0029101
36.0796 62.3833 10.4614 -0.52782 -0.849191 0.0167299
36.0611 62.3511 9.37412 -0.517725 -0.85382 0.0543306
36.02 62.2755 8.2273 -0.512814 -0.853598 0.0916085
35.9888 62.212 7.2427 -0.505142 -0.858088 0.0922838
35.9407 62.1124 6.2821 -0.50615 -0.854577 0.116237
35.8985 62.0152 5.33511 -0.441725 -0.888381 0.12513
35.8507 61.9029 4.43754 -0.466769 -0.872138 0.146636
35.8041 61.7841 3.52873 -0.421267 -0.89803 0.126791
35.7453 61.6266 2.50712 -0.375822 -0.915402 0.144214
35.6869 61.4517 1.37102 -0.359738 -0.917197 0.171286
35.6323 61.2618 0.118249 -0.295773 -0.946487 0.129157
35.5974 61.1187 -0.928815 -0.289999 -0.945091 0.150677
35.5721 60.9876 -1.98264 -0.220318 -0.96428 0.14705
36.7034 60.8679 -0.837674 -0.218651 -0.9718 0.0882974
36.7243 60.9584 0.218185 -0.28146 -0.952538 0.11598
36.7483 61.0521 1.23239 -0.272443 -0.957157 0.0981087
36.789 61.1831 2.28582 -0.292541 -0.950032 0.108903
36.8312 61.3027 3.25561 -0.357988 -0.922482 0.144471
36.8748 61.4171 4.2611 -0.394381 -0.910852 0.121707
36.9199 61.5305 5.4069 -0.394088 -0.914986 0.0865763
36.9534 61.6085 6.57265 -0.408863 -0.910035 0.068311
36.9916 61.6867 7.51098 -0.469276 -0.879234 0.0820207
37.023 61.7494 8.63777 -0.462674 -0.88424 0.0636564
37.0531 61.8036 9.78866 -0.477824 -0.877923 0.0305993
37.0683 61.8255 10.8469 -0.49168 -0.870666 0.0138192
37.0728 61.8218 11.9242 -0.473875 -0.880502 -0.0125765
37.0659 61.7947 12.9106 -0.480131 -0.876789 -0.0267437
37.0548 61.7595 13.8171 -0.493274 -0.869278 -0.0322002
37.0411 61.7106 14.9443 -0.482648 -0.874675 -0.0446605
37.0259 61.653 15.9115 -0.480965 -0.87431 -0.0652249
37.0018 61.5729 16.8801 -0.482827 -0.869899 -0.100765
36.9744 61.4841 17.8111 -0.445302 -0.887387 -0.119374
36.923 61.3445 18.9519 -0.437723 -0.889997 -0.127686
36.8751 61.2162 19.8716 -0.419678 -0.893818 -0.157988
36.8097 61.0319 20.9608 -0.411191 -0.891063 -0.192168
36.7598 60.8729 21.867 -0.34626 -0.919344 -0.186844
36.7079 60.6891 22.8156 -0.33572 -0.918094 -0.2107
36.6594 60.5006 23.7484 -0.266997 -0.9421 -0.202879
37.8016 60.4137 22.3018 -0.307769 -0.938448 -0.156822
37.8513 60.5887 21.0962 -0.339772 -0.928438 -0.150195
37.8939 60.7205 20.2044 -0.37485 -0.917868 -0.130405
37.9387 60.8536 19.0216 -0.390224 -0.913185 -0.11755
37.9716 60.9521 18.0354 -0.408754 -0.907108 -0.100375
38.0105 61.0709 16.7726 -0.444644 -0.891015 -0.0915642
38.0314 61.1409 15.7693 -0.438927 -0.897413 -0.0446487
38.0419 61.1894 14.6019 -0.425748 -0.904434 -0.027171
38.0534 61.2286 13.6326 -0.461829 -0.885822 -0.0451003
38.0677 61.2719 12.673 -0.447192 -0.894268 -0.017453
38.07 61.2899 11.7262 -0.433352 -0.901088 -0.0156751
38.0698 61.3026 10.6419 -0.451471 -0.892209 0.0117051
38.0577 61.2849 9.73651 -0.433567 -0.900949 0.0176174
38.0398 61.2537 8.73258 -0.431988 -0.900967 0.0405671
38.0117 61.1986 7.49012 -0.408797 -0.911641 0.0423888
37.9825 61.137 6.30089 -0.376933 -0.924456 0.0574704
37.9555 61.074 5.36939 -0.387116 -0.919416 0.0694001
37.9254 60.9975 4.45071 -0.381121 -0.919218 0.0989176
37.8985 60.9253 3.53954 -0.322077 -0.944606 0.0631354
37.8758 60.8599 2.57433 -0.321064 -0.94388 0.0775142
37.851 60.779 1.46979 -0.24316 -0.965777 0.0902707
37.8362 60.7251 0.853598 -0.231966 -0.970044 0.0721499
38.9925 60.6273 3.94392 -0.250352 -0.967403 0.0381499
39.014 60.6779 5.08869 -0.328278 -0.943329 0.0486186
39.0303 60.7155 6.05432 -0.293705 -0.955449 0.0292339
39.0505 60.7548 7.1082 -0.342623 -0.937992 0.0527327
39.0666 60.7857 8.11951 -0.378162 -0.925184 0.0320696
39.0777 60.8033 9.13905 -0.406297 -0.913355 0.0265732
39.0879 60.8164 10.2518 -0.421686 -0.906729 0.00497249
39.088 60.8052 11.3058 -0.429037 -0.903262 -0.00673516
39.0851 60.7844 12.2926 -0.422949 -0.905902 -0.0213583
39.0748 60.7487 13.254 -0.425169 -0.903696 -0.0506373
39.0652 60.7133 14.2773 -0.430866 -0.902119 -0.0231561
39.0651 60.6991 15.2042 -0.384136 -0.922751 -0.0311464
39.0473 60.6328 16.5464 -0.387532 -0.918704 -0.0761735
39.0173 60.5409 17.6144 -0.349935 -0.931839 -0.0960346
38.99 60.4543 18.6962 -0.32901 -0.940977 -0.0794709
38.9621 60.3612 19.8069 -0.332285 -0.938426 -0.0945674
38.9558 60.3405 20.0342 -0.33128 -0.938701 -0.0953657
-39.7571 57.8988 28.8924 0.186312 -0.913302 -0.362171
-39.8178 58.2461 27.9454 0.183706 -0.922474 -0.33955
-39.8744 58.5825 26.9859 0.211342 -0.923014 -0.321528
-39.9277 58.895 26.0808 0.212781 -0.915953 -0.340227
-39.9904 59.2626 25.0223 0.212853 -0.920976 -0.326338
-40.0545 59.6445 23.9228 0.219147 -0.917692 -0.331384
-40.1129 59.9652 22.9987 0.225677 -0.916628 -0.329943
-40.1812 60.3323 21.9378 0.228423 -0.913943 -0.335457
-40.2557 60.7323 20.7989 0.233174 -0.91399 -0.332042
-40.3291 61.1008 19.7247 0.251124 -0.911733 -0.325084
-40.3914 61.3908 18.851 0.25608 -0.913353 -0.31656
-40.4674 61.7192 17.8315 0.280456 -0.911763 -0.300055
-40.54 62.0354 16.8265 0.291699 -0.911471 -0.290054
-40.6223 62.3633 15.7061 0.322139 -0.907127 -0.270828
-40.6876 62.6121 14.7275 0.333791 -0.907691 -0.254325
-40.7579 62.8789 13.5853 0.311342 -0.925032 -0.217672
-40.811 63.082 12.6517 0.31413 -0.922885 -0.222724
-40.8696 63.3 11.5834 0.341877 -0.920137 -0.190966
-40.9287 63.5065 10.4158 0.338405 -0.922674 -0.18481
-40.9848 63.6937 9.36699 0.340815 -0.922008 -0.183703
-41.0308 63.8452 8.45433 0.338728 -0.93033 -0.140534
-41.0767 63.9958 7.26188 0.365636 -0.922664 -0.12248
-41.1017 64.0744 6.31378 0.333729 -0.941239 -0.0519154
-41.1125 64.1164 5.24575 0.337029 -0.941039 -0.0292654
-41.122 64.152 4.17616 0.321636 -0.946321 -0.0320327
-41.127 64.1695 3.21831 0.319282 -0.94757 -0.013043
-41.1234 64.1554 1.76538 0.31376 -0.949431 0.0116217
-41.1128 64.1174 0.856132 0.284385 -0.957618 0.0457472
-41.096 64.0519 -0.296118 0.261497 -0.96236 0.0740499
-41.0814 63.9868 -1.31989 0.246603 -0.966647 0.0691429
-41.0629 63.8921 -2.39168 0.203468 -0.972111 0.116626
-41.0518 63.8274 -2.94038 0.190511 -0.975556 0.109524
-42.1715 63.6172 -2.68014 0.234182 -0.969976 0.06561
-42.1837 63.6827 -1.55027 0.261051 -0.963307 0.062384
-42.1978 63.7439 -0.383943 0.278873 -0.95921 0.0463272
-42.2076 63.7803 0.646918 0.29361 -0.955503 0.0283994
-42.2133 63.7949 1.57145 0.311262 -0.950142 0.0186062
-42.2184 63.8041 2.52449 0.316156 -0.948659 -0.00958233
-42.215 63.79 3.57595 0.34207 -0.939475 -0.0193664
-42.2045 63.7514 4.58758 0.339112 -0.939655 -0.0452841
-42.1922 63.7032 5.75339 0.353456 -0.934861 -0.0332293
-42.1595 63.6063 6.88231 0.380453 -0.918393 -0.10867
-42.1216 63.479 8.08168 0.371599 -0.92145 -0.113328
-42.0646 63.2956 9.25883 0.362677 -0.916871 -0.166771
-42.0148 63.1242 10.3391 0.337427 -0.923276 -0.183587
-41.9498 62.8914 11.6163 0.340563 -0.922234 -0.183034
-41.884 62.6526 12.8828 0.34546 -0.914846 -0.209081
-41.8234 62.4406 13.8092 0.335871 -0.911245 -0.238377
-41.7668 62.2256 14.6993 0.327459 -0.914668 -0.236966
-41.7026 61.9774 15.6959 0.320758 -0.912909 -0.252412
-41.6358 61.7123 16.6939 0.314982 -0.909953 -0.269763
-41.5527 61.3642 17.8976 0.289911 -0.909086 -0.299189
-41.4771 61.0472 18.925 0.289328 -0.907451 -0.304666
-41.4139 60.7633 19.826 0.287478 -0.906783 -0.308384
-41.3529 60.4651 20.7157 0.257605 -0.909481 -0.326318
-41.2793 60.0927 21.8231 0.253461 -0.91199 -0.322539
-41.2089 59.7235 22.8942 0.244126 -0.912646 -0.327841
-41.1392 59.3595 23.9523 0.241898 -0.912546 -0.329765
-41.0819 59.04 24.8923 0.233474 -0.918725 -0.318489
-41.0246 58.7177 25.8341 0.242182 -0.910072 -0.336329
-40.9624 58.3852 26.7818 0.241886 -0.910912 -0.334261
-40.9013 58.0562 27.7363 0.238346 -0.915442 -0.324279
-40.8342 57.7152 28.7013 0.25375 -0.901499 -0.350587
-40.813 57.6164 28.9706 0.253752 -0.901497 -0.35059
-41.8756 57.3506 28.8738 0.265895 -0.898772 -0.34858
-41.9499 57.6847 27.9748 0.251481 -0.906278 -0.339733
-42.0152 58.0013 27.0546 0.246873 -0.909794 -0.333659
-42.0834 58.3421 26.0757 0.25527 -0.908527 -0.330781
-42.1498 58.699 25.0448 0.248679 -0.912242 -0.325535
-42.2128 59.0398 24.0354 0.246461 -0.912215 -0.327292
-42.2766 59.3644 23.085 0.250672 -0.9109 -0.327756
-42.3404 59.674 22.1513 0.265115 -0.91186 -0.313409
-42.4015 59.9746 21.2223 0.273706 -0.909398 -0.313177
-42.4665 60.2766 20.3106 0.276071 -0.909701 -0.310208
-42.5254 60.5456 19.4284 0.29295 -0.911757 -0.287888
-42.5874 60.82 18.5119 0.306433 -0.904896 -0.295402
-42.6709 61.1608 17.3349 0.31808 -0.910931 -0.262734
-42.729 61.3957 16.4572 0.339031 -0.905791 -0.254165
-42.7975 61.6567 15.4274 0.337487 -0.907389 -0.250497
-42.8716 61.9468 14.2237 0.338017 -0.911989 -0.232424
-42.9379 62.182 13.1768 0.33789 -0.914396 -0.222957
-42.9911 62.3683 12.239 0.354579 -0.9159 -0.188151
-43.0407 62.5393 11.3232 0.34874 -0.91704 -0.193436
