12.2215 62.7746 -20.2284 0.390694 -0.920435 -0.0123462
11.5036 62.467 -19.5338 0.389798 -0.920843 0.0102893
10.8199 62.2325 -18.8516 0.344662 -0.937607 0.0458323
9.93326 61.9721 -18.0699 0.301904 -0.950261 0.0718634
9.12103 61.7557 -17.3456 0.279853 -0.956783 0.0727968
7.81672 61.5616 -16.2766 0.204358 -0.973444 0.103169
6.76147 61.5335 -15.358 0.131625 -0.980732 0.1409
5.8518 61.5126 -14.6546 0.101535 -0.985791 0.133812
4.80347 61.5058 -14.0446 0.0483923 -0.996821 0.0632932
3.72065 61.4736 -13.655 0.00467737 -0.997077 0.0568052
2.71698 61.5251 -13.5673 -0.0230993 -0.995366 0.0855988
1.80437 61.5878 -13.648 -0.169611 -0.974861 0.144494
0.781574 61.6789 -13.922 -0.090081 -0.990278 0.105994
-0.11544 61.74 -14.3393 -0.156129 -0.977699 0.140459
-1.13847 61.6561 -14.891 0.010851 -0.985766 0.163154
-2.06159 61.5519 -15.5707 -0.0426777 -0.978112 0.202557
-2.83417 61.4754 -16.2069 -0.0707615 -0.977969 0.196035
-3.67486 61.4313 -16.99 -0.14706 -0.968801 0.199496
-4.81814 61.4239 -18.1 -0.281857 -0.9316 0.229519
-5.49388 61.4687 -18.7747 -0.31559 -0.929209 0.192076
-6.21942 61.5855 -19.4292 -0.323858 -0.926062 0.193717
-7.34006 61.8896 -20.143 -0.390293 -0.907045 0.157924
-8.20865 62.182 -20.5556 -0.395737 -0.914222 0.0843559
-9.0739 62.5411 -20.8913 -0.411321 -0.909362 0.0616359
-9.88728 62.9003 -21.1495 -0.399237 -0.915354 0.0455591
-10.9208 63.3357 -21.327 -0.398627 -0.916969 0.00706171
-11.9017 63.7628 -21.2693 -0.399478 -0.916678 -0.0108466
-12.8977 64.1594 -20.9571 -0.371137 -0.928447 -0.0154818
-13.7599 64.4796 -20.5686 -0.359144 -0.932647 -0.034418
-14.7268 64.8233 -20.059 -0.343446 -0.938331 -0.0397169
-15.491 65.084 -19.6543 -0.333433 -0.941919 -0.0401433
-16.3407 65.3645 -19.1645 -0.327621 -0.943965 -0.0392551
-17.1834 65.6214 -18.4945 -0.320962 -0.946242 -0.0401206
-17.9727 65.854 -17.7534 -0.315239 -0.948138 -0.0407372
-18.7415 66.0766 -17.043 -0.303814 -0.951837 -0.0412749
-19.4534 66.2778 -16.4231 -0.300271 -0.953117 -0.0370455
-20.4441 66.5504 -15.5346 -0.296634 -0.953938 -0.0445285
-21.284 66.7696 -14.6905 -0.292777 -0.955286 -0.041352
-21.9964 66.9459 -13.7997 -0.287253 -0.957 -0.0404587
-22.4708 67.0544 -13.0023 -0.281997 -0.958555 -0.0405979
-22.851 67.1261 -11.8857 -0.27702 -0.960319 -0.0323624
-22.7767 67.0713 -10.716 -0.271814 -0.961808 -0.0314274
-22.338 66.9182 -9.42286 -0.259436 -0.965545 -0.0203667
-21.7647 66.743 -8.52018 -0.264501 -0.964353 -0.00468388
-21.0017 66.5355 -7.71113 -0.261433 -0.965207 0.00402184
-20.1372 66.3087 -6.95436 -0.255205 -0.966824 0.00945583
-19.21 66.0667 -6.37256 -0.262609 -0.964779 0.015413
-18.4108 65.8585 -5.99691 -0.259818 -0.965403 0.0221594
-17.2758 65.561 -5.59245 -0.258617 -0.965641 0.0252958
-16.2068 65.287 -5.30149 -0.254854 -0.966566 0.028284
-14.8209 64.9322 -5.02574 -0.251638 -0.967242 0.033494
-13.3795 64.5703 -4.80857 -0.244553 -0.969073 0.0330408
-12.3767 64.3194 -4.74873 -0.249044 -0.967693 0.0393241
-11.0512 63.9807 -4.68216 -0.249217 -0.96764 0.0395348
-10.1111 63.7304 -4.74808 -0.25429 -0.966574 0.0321161
-8.844 63.3963 -5.0054 -0.262105 -0.964671 0.022394
-7.89746 63.1263 -5.35834 -0.268235 -0.9633 0.0101698
-6.72308 62.7799 -5.9259 -0.288791 -0.957345 0.00945928
-5.54519 62.4039 -6.51171 -0.308441 -0.951152 0.0131978
-4.58981 62.1454 -6.96788 -0.293336 -0.954976 -0.0404224
-3.66614 61.9043 -7.41981 -0.267716 -0.960752 -0.0723548
-2.67323 61.6884 -7.8084 -0.187275 -0.975263 -0.117339
-1.53309 61.5031 -8.04841 -0.144365 -0.977913 -0.143437
-0.506019 61.3794 -8.23326 -0.158876 -0.965656 -0.205587
0.734464 61.2863 -8.30071 -0.0926408 -0.95911 -0.267443
1.7786 61.239 -8.34658 -0.0114848 -0.974075 -0.218597
2.67335 61.2223 -8.4425 0.00413567 -0.983645 -0.175316
3.98452 61.3033 -8.55792 0.028708 -0.976924 -0.209251
4.98428 61.3997 -8.45553 0.11106 -0.987878 -0.108455
6.35202 61.5857 -8.18062 0.212244 -0.97002 -0.117506
7.51878 61.8403 -7.83915 0.283041 -0.95381 -0.100672
8.35585 62.0414 -7.56772 0.282901 -0.957309 -0.0351019
9.40047 62.4078 -7.06366 0.332754 -0.942979 0.00808373
10.1842 62.6967 -6.69658 0.353904 -0.934245 0.0440337
11.0524 63.0421 -6.34823 0.35429 -0.934099 0.0440289
11.9977 63.4238 -6.03925 0.357855 -0.931981 0.0576842
12.9728 63.809 -5.77872 0.358909 -0.931079 0.0647524
13.8212 64.1446 -5.60355 0.348683 -0.934404 0.0728662
14.7144 64.483 -5.47247 0.340416 -0.936033 0.0892105
15.6434 64.8372 -5.30579 0.34164 -0.935486 0.0902622
16.6994 65.2361 -5.17527 0.34069 -0.935601 0.0926299
17.6847 65.5945 -5.18013 0.341018 -0.935493 0.0925185
18.5467 65.8945 -5.31792 0.340127 -0.935878 0.0918981
19.6521 66.2559 -5.72963 0.33996 -0.935977 0.0915116
20.5308 66.5291 -6.20764 0.340043 -0.936138 0.0895157
21.3812 66.7856 -6.73875 0.338969 -0.936468 0.0901481
22.1214 67.008 -7.31295 0.348772 -0.933684 0.0811942
23.1574 67.3123 -8.36201 0.350344 -0.934125 0.06833
23.8735 67.5233 -9.18836 0.35754 -0.932125 0.0571999
24.7953 67.8179 -10.263 0.359237 -0.932064 0.0465203
25.4791 68.0371 -11.3587 0.362867 -0.931441 0.0246689
25.9454 68.2026 -12.4627 0.362494 -0.931922 0.00979053
26.091 68.2538 -13.4757 0.367313 -0.930049 0.00756154
25.9564 68.2154 -14.8568 0.369884 -0.928985 -0.01311
25.5778 68.0883 -15.7984 0.372096 -0.927943 -0.0208621
24.9448 67.8654 -16.8093 0.372253 -0.927272 -0.0390158
24.1291 67.5803 -17.7454 0.375395 -0.925599 -0.0482755
23.1654 67.2363 -18.6208 0.376328 -0.925117 -0.0503445
22.2564 66.9033 -19.2269 0.375703 -0.925004 -0.0566888
21.0742 66.4643 -19.8355 0.377096 -0.924201 -0.0602196
19.9451 66.0377 -20.3232 0.380445 -0.921933 -0.0728065
19.0335 65.6859 -20.6971 0.388175 -0.918462 -0.075809
18.1265 65.3299 -20.9803 0.38847 -0.917844 -0.08157
17.3153 65.0083 -21.2151 0.388438 -0.918241 -0.0770541
16.469 64.6609 -21.375 0.390961 -0.917081 -0.0781788
15.196 64.1206 -21.4788 0.398322 -0.914279 -0.0735867
14.3617 63.7479 -21.4127 0.396303 -0.915625 -0.0671369
13.3454 63.2784 -21.0211 0.404121 -0.913433 -0.0481406
12.3619 62.8353 -20.3415 0.388672 -0.921298 -0.0119962
11.9039 62.6452 -21.1932 0.416832 -0.908831 -0.00496726
12.8232 63.0918 -21.8437 0.413828 -0.909539 -0.0332627
13.6991 63.5092 -22.2288 0.413112 -0.908217 -0.0669407
14.7794 64.0084 -22.4123 0.407289 -0.910295 -0.0736864
15.9926 64.5448 -22.3872 0.394394 -0.914889 -0.0862036
17.2114 65.0578 -22.2167 0.3975 -0.913313 -0.0886156
18.2469 65.466 -21.9372 0.386945 -0.918228 -0.08439
19.055 65.7812 -21.6862 0.3831 -0.920123 -0.0812932
20.0899 66.1731 -21.2838 0.380416 -0.921578 -0.0771704
21.141 66.5654 -20.8453 0.371393 -0.925946 -0.0684889
21.9216 66.8539 -20.4971 0.372047 -0.925776 -0.067222
22.7403 67.1504 -20.0466 0.372775 -0.925559 -0.066176
23.6445 67.4781 -19.4275 0.376516 -0.924827 -0.0541357
24.6889 67.8479 -18.4774 0.374519 -0.925757 -0.0520476
25.5441 68.1411 -17.5209 0.370473 -0.927638 -0.0472947
26.2073 68.3634 -16.5907 0.364104 -0.930698 -0.0350744
26.6549 68.511 -15.6807 0.363199 -0.931403 -0.0235034
26.9548 68.6069 -14.7592 0.362101 -0.931999 -0.0161532
27.0606 68.634 -13.6193 0.36607 -0.930582 0.00315945
26.8872 68.5688 -12.4267 0.360729 -0.932613 0.00729696
26.4917 68.432 -11.36 0.362067 -0.932043 0.0142371
26.0497 68.2915 -10.5163 0.357334 -0.933112 0.0401732
25.2471 68.0397 -9.34387 0.351021 -0.935338 0.0439074
24.4472 67.7883 -8.44686 0.348162 -0.935085 0.0662658
23.4443 67.4971 -7.32015 0.347445 -0.93465 0.0752529
22.6622 67.2761 -6.55273 0.346417 -0.934552 0.0812525
21.7044 66.9909 -5.82885 0.341593 -0.935496 0.0903169
20.8636 66.7362 -5.32471 0.338824 -0.93618 0.093623
19.9302 66.4489 -4.81247 0.340859 -0.935376 0.0942677
18.9703 66.1383 -4.43809 0.339353 -0.935792 0.0955679
17.958 65.7878 -4.25402 0.343379 -0.934445 0.0943606
16.7364 65.342 -4.23696 0.341916 -0.93523 0.0918531
15.669 64.9402 -4.34062 0.34437 -0.934626 0.0887319
14.3865 64.4466 -4.53428 0.34714 -0.934251 0.0816661
13.3237 64.0287 -4.71344 0.360513 -0.929717 0.0743686
12.1724 63.5534 -5.01713 0.358907 -0.93108 0.0647507
11.2365 63.1703 -5.25949 0.377886 -0.925349 0.0305205
10.2151 62.7345 -5.6376 0.381415 -0.924403 -0.00128152
9.05913 62.2564 -6.17812 0.371267 -0.927877 -0.0233168
7.87919 61.7998 -6.71671 0.409962 -0.910689 -0.0507506
6.76271 61.5307 -7.10543 0.276765 -0.945333 -0.172471
5.87044 61.3436 -7.33826 0.221281 -0.960583 -0.167002
4.89624 61.1881 -7.48564 0.160619 -0.963229 -0.21506
3.60135 61.0522 -7.54588 0.0127983 -0.971608 -0.23625
2.37097 60.9748 -7.41669 -0.0177111 -0.948028 -0.317692
1.02173 60.9998 -7.33511 -0.0658752 -0.9443 -0.315932
0.0655284 61.0467 -7.33694 -0.115778 -0.928544 -0.344179
-0.813052 61.2131 -7.22613 -0.157952 -0.965009 -0.209307
-2.05971 61.4028 -7.00102 -0.237659 -0.95458 -0.175225
-2.91522 61.6077 -6.73728 -0.32435 -0.937315 -0.127427
-3.71118 61.8302 -6.37062 -0.289055 -0.954897 -0.0618158
-4.63408 62.1072 -5.89128 -0.331655 -0.942321 -0.0306369
-5.82448 62.5068 -5.33006 -0.31868 -0.947847 -0.000803085
-6.88856 62.8458 -4.81064 -0.28205 -0.95929 0.0113564
-7.87123 63.1297 -4.3455 -0.27127 -0.962457 0.00879383
-9.32321 63.5517 -3.92264 -0.262107 -0.96467 0.0223983
-10.1859 63.7877 -3.74194 -0.259188 -0.965166 0.0357364
-11.1365 64.0433 -3.68946 -0.249045 -0.967693 0.0393256
-12.1546 64.3026 -3.75145 -0.248876 -0.967745 0.0391134
-13.3022 64.5939 -3.81463 -0.245416 -0.96856 0.0406692
-14.4726 64.8797 -4.00724 -0.243904 -0.968856 0.0427559
-15.351 65.0998 -4.15564 -0.243523 -0.969386 0.0314304
-16.3919 65.3619 -4.36664 -0.256204 -0.966309 0.0246206
-17.2695 65.5885 -4.59946 -0.256377 -0.966157 0.0284858
-18.1723 65.8197 -4.88337 -0.258607 -0.965644 0.0252952
-19.0408 66.0454 -5.20527 -0.258775 -0.965686 0.0220642
-19.8243 66.2463 -5.60198 -0.260698 -0.965231 0.0187446
-20.685 66.4628 -6.18175 -0.252162 -0.96758 0.0142551
-21.391 66.6443 -6.76104 -0.25331 -0.96737 0.00544128
-22.237 66.8657 -7.5456 -0.252204 -0.967654 -0.00437745
-22.9044 67.05 -8.43076 -0.259906 -0.965475 -0.017519
-23.4319 67.2104 -9.3429 -0.262979 -0.964493 -0.0238766
-23.7553 67.3299 -10.4002 -0.266283 -0.963369 -0.0315474
-23.842 67.3908 -11.3969 -0.269237 -0.96235 -0.0371593
-23.6963 67.3938 -12.4671 -0.278941 -0.959479 -0.0397286
-23.379 67.3355 -13.3316 -0.281988 -0.958557 -0.0405945
-22.7799 67.2045 -14.3534 -0.284358 -0.957823 -0.0412952
-21.8221 66.9694 -15.4947 -0.290565 -0.955634 -0.0483281
-20.7534 66.6925 -16.5178 -0.296632 -0.953938 -0.0445385
-19.7651 66.4244 -17.3678 -0.300728 -0.952347 -0.0509756
-18.6805 66.1194 -18.3131 -0.315194 -0.947712 -0.0495425
-17.8074 65.8672 -19.1546 -0.319877 -0.946053 -0.0515933
-17.1464 65.6709 -19.735 -0.326307 -0.943836 -0.0518988
-16.3934 65.4362 -20.2169 -0.340642 -0.938839 -0.0504469
-15.429 65.1146 -20.7158 -0.345384 -0.936976 -0.052361
-14.5529 64.8109 -21.2021 -0.356883 -0.932931 -0.0475645
-13.7717 64.5312 -21.6321 -0.365704 -0.929754 -0.0417908
-12.6089 64.077 -22.1574 -0.38305 -0.922993 -0.0368151
-11.6042 63.6465 -22.3126 -0.410567 -0.911459 -0.0260048
-10.734 63.2618 -22.2858 -0.411785 -0.911125 0.0034346
-9.88625 62.8673 -22.1595 -0.430956 -0.902284 0.0126676
-8.87798 62.3899 -21.8585 -0.442622 -0.896196 0.0245726
-7.8613 61.9317 -21.437 -0.440674 -0.892035 0.100403
-7.05917 61.6145 -21.0289 -0.400374 -0.906339 0.132244
-6.27017 61.3851 -20.5867 -0.356164 -0.917216 0.177065
-5.49004 61.2126 -20.0226 -0.315182 -0.923358 0.217272
-4.68313 61.1074 -19.275 -0.28817 -0.935608 0.203952
-4.01362 61.0677 -18.558 -0.241315 -0.938018 0.244884
-3.32155 61.1077 -17.8788 -0.199387 -0.943767 0.263694
-2.54062 61.199 -17.1725 -0.0802699 -0.958641 0.273064
-1.68155 61.3364 -16.4684 -0.110121 -0.947579 0.297104
-0.66046 61.4706 -15.7365 -0.0386375 -0.974532 0.220894
0.230417 61.5657 -15.1899 -0.0803904 -0.967586 0.239404
1.17048 61.5227 -14.7711 -0.158482 -0.975185 0.154589
2.04682 61.4101 -14.5624 -0.0848024 -0.984128 0.129615
3.53503 61.3736 -14.6176 -0.014619 -0.970942 0.237144
4.58123 61.3657 -14.9982 0.0693547 -0.976875 0.196948
5.5613 61.337 -15.563 0.105672 -0.968355 0.226103
6.29366 61.3274 -16.1355 0.146787 -0.971727 0.184933
6.94898 61.3056 -16.7527 0.224576 -0.955684 0.187029
7.74709 61.3832 -17.4827 0.258941 -0.94852 0.182372
8.88781 61.5997 -18.3827 0.331408 -0.936966 0.107357
9.66447 61.784 -19.0494 0.332202 -0.939717 0.0733306
10.5243 62.0708 -19.8341 0.360297 -0.930526 0.0638593
11.3107 62.3842 -20.6428 0.409608 -0.91222 0.00876269
11.5091 62.4715 -20.8303 0.409609 -0.912219 0.00876459
10.9397 62.2084 -21.6008 0.416926 -0.908861 0.00886485
10.3214 61.9252 -20.9472 0.424249 -0.905501 0.00896145
9.60336 61.6761 -20.2281 0.364247 -0.928009 0.0782519
8.59765 61.3651 -19.3593 0.3544 -0.928168 0.1136
7.6029 61.1451 -18.5592 0.261446 -0.949901 0.171272
6.85734 61.0392 -18.0084 0.260197 -0.949209 0.176823
5.94207 61.0416 -17.0798 0.174114 -0.959672 0.218468
5.08505 61.0914 -16.3112 0.148457 -0.947515 0.280115
4.09685 61.1298 -15.7775 0.0999497 -0.968287 0.22892
2.86764 61.164 -15.5168 -0.0146165 -0.970942 0.237142
1.80513 61.1838 -15.5407 -0.0205321 -0.963024 0.268631
0.503733 61.2706 -16.0496 -0.194993 -0.92761 0.318619
-0.553889 61.1564 -16.7687 -0.107823 -0.902743 0.406133
-1.37134 60.9815 -17.3835 -0.136545 -0.924792 0.352654
-2.24086 60.8006 -18.1298 -0.179664 -0.906979 0.380927
-3.2217 60.6959 -19.0164 -0.284105 -0.896998 0.338642
-3.82218 60.6953 -19.6863 -0.328311 -0.907124 0.263123
-4.60889 60.7795 -20.4529 -0.346368 -0.905527 0.24505
-5.39844 60.9265 -21.0898 -0.365038 -0.910799 0.192853
-6.28111 61.1866 -21.6495 -0.387826 -0.911497 0.136986
-7.17835 61.5259 -22.1348 -0.429174 -0.894544 0.124899
-7.98716 61.8999 -22.5331 -0.470608 -0.881039 0.0455469
-9.08198 62.4486 -22.9681 -0.454293 -0.890106 0.0364699
-9.95026 62.8905 -23.1828 -0.444792 -0.895452 -0.00803509
-10.7592 63.282 -23.2903 -0.433578 -0.90093 -0.0183149
-11.9149 63.8153 -23.324 -0.413743 -0.910127 -0.0212484
-13.1279 64.3281 -23.0398 -0.391407 -0.919328 -0.0399921
-13.9068 64.6273 -22.6647 -0.375887 -0.925179 -0.0524731
-14.9665 65.0084 -22.0078 -0.353745 -0.934146 -0.0472913
-15.8502 65.3133 -21.5283 -0.342527 -0.937714 -0.0577744
-16.7002 65.5996 -21.1113 -0.33935 -0.938472 -0.0637367
-17.6195 65.8857 -20.5405 -0.333236 -0.940616 -0.0647777
-18.2845 66.0772 -19.9548 -0.327445 -0.942724 -0.0636447
-18.966 66.2671 -19.2838 -0.318208 -0.945893 -0.0634837
-20.0118 66.5558 -18.3312 -0.310834 -0.948348 -0.0628749
-20.8753 66.7878 -17.6158 -0.299963 -0.952611 -0.0505358
-21.5608 66.9675 -17.0302 -0.292823 -0.954658 -0.0536899
-22.3167 67.1617 -16.3153 -0.290364 -0.95566 -0.0490124
-23.1143 67.3617 -15.4789 -0.287418 -0.956555 -0.0487822
-23.6784 67.4918 -14.7634 -0.284628 -0.957415 -0.0483859
-24.3097 67.6215 -13.6274 -0.279465 -0.958946 -0.0481843
-24.6583 67.679 -12.6897 -0.274334 -0.960718 -0.0419317
-24.7976 67.6733 -11.6889 -0.272867 -0.961173 -0.0410468
-24.7682 67.6286 -10.7915 -0.271285 -0.961686 -0.0395582
-24.6358 67.5581 -9.85269 -0.266777 -0.963371 -0.0273309
-24.3294 67.4487 -8.98935 -0.265438 -0.963634 -0.0306381
-23.8933 67.307 -8.06342 -0.25109 -0.967732 -0.0211827
-23.3033 67.138 -7.35975 -0.253942 -0.967117 -0.010539
-22.6656 66.9727 -6.58876 -0.248192 -0.968708 -0.00230671
-21.9805 66.7977 -5.99581 -0.245379 -0.969408 0.00356819
-21.2804 66.6305 -5.44481 -0.23734 -0.971329 0.0137499
-20.4723 66.4309 -4.87674 -0.254027 -0.96702 0.0185267
-19.5432 66.195 -4.38329 -0.256145 -0.966388 0.0217521
-18.6453 65.9671 -4.03127 -0.253854 -0.966901 0.0256682
-17.689 65.7262 -3.70792 -0.254482 -0.966684 0.027477
-16.751 65.4832 -3.45805 -0.259078 -0.965463 0.0275736
-15.8878 65.2683 -3.28608 -0.244564 -0.968704 0.04243
-14.7337 64.9869 -3.09356 -0.243339 -0.968921 0.0444691
-13.4139 64.6655 -2.85231 -0.246976 -0.967931 0.0458529
-12.4339 64.4151 -2.79289 -0.250442 -0.967029 0.0461784
-11.4422 64.163 -2.7394 -0.246985 -0.968056 0.0432097
-10.3891 63.8844 -2.71708 -0.259324 -0.964942 0.0404794
-9.31624 63.5751 -2.90236 -0.278183 -0.960175 0.0260367
-8.39019 63.2998 -3.12538 -0.276744 -0.960681 0.0219068
-7.48032 63.0235 -3.47419 -0.291205 -0.95655 0.0145768
-6.58188 62.7483 -3.92272 -0.298565 -0.954376 -0.00495471
-5.45384 62.3845 -4.45937 -0.321305 -0.946969 0.00371993
-4.31628 61.9859 -4.9994 -0.349188 -0.937048 -0.00301921
-3.24149 61.6088 -5.5813 -0.353481 -0.933922 -0.0532975
-2.08772 61.2391 -6.03995 -0.324671 -0.915666 -0.236948
-1.1294 60.9712 -6.25397 -0.292175 -0.925989 -0.239118
-0.13252 60.7613 -6.37395 -0.186814 -0.930755 -0.314318
1.09269 60.594 -6.42084 -0.122905 -0.886319 -0.446467
2.00316 60.5625 -6.45885 0.0777543 -0.876874 -0.47439
3.44262 60.7228 -6.58575 0.0413712 -0.91967 -0.390507
4.48152 60.8786 -6.60068 0.20832 -0.915159 -0.335284
5.58917 61.0962 -6.42563 0.248051 -0.938645 -0.235422
6.47858 61.2831 -6.20822 0.25675 -0.949669 -0.178148
7.40537 61.5276 -5.8718 0.360237 -0.926668 -0.0852237
8.46899 61.9859 -5.40612 0.418892 -0.905452 -0.0683753
9.5426 62.44 -4.89814 0.434187 -0.899299 -0.0380077
10.7743 63.0084 -4.37611 0.424175 -0.905385 0.0101571
11.7406 63.4341 -4.09663 0.386359 -0.920593 0.0568859
12.7063 63.8461 -3.85131 0.372664 -0.925996 0.0597036
13.5624 64.1977 -3.68839 0.370875 -0.925 0.0826233
14.6866 64.6518 -3.4971 0.353944 -0.931985 0.0782743
15.8558 65.1005 -3.34814 0.348141 -0.93281 0.0927748
16.7024 65.4257 -3.28847 0.34815 -0.932186 0.0990588
17.9636 65.8902 -3.30062 0.343863 -0.933619 0.10057
18.8745 66.2099 -3.43285 0.340688 -0.934782 0.100561
19.7588 66.4997 -3.72118 0.343295 -0.93333 0.104949
20.6802 66.7945 -4.11388 0.343338 -0.933185 0.106233
21.5354 67.0508 -4.63208 0.345852 -0.932769 0.101526
22.5026 67.3465 -5.24534 0.343519 -0.934275 0.0954335
23.2681 67.565 -5.83154 0.342953 -0.93502 0.0899175
24.1933 67.8184 -6.77166 0.342263 -0.936303 0.0782695
25.1151 68.0846 -7.77464 0.348162 -0.935085 0.0662654
25.8408 68.2985 -8.58173 0.345464 -0.936763 0.0554885
26.5713 68.5177 -9.61326 0.347893 -0.936771 0.0370856
27.1155 68.6904 -10.5719 0.349857 -0.936322 0.0300291
27.5652 68.8421 -11.5856 0.355124 -0.93476 0.0104692
27.8446 68.9403 -12.6625 0.354955 -0.934855 0.000652946
28.0229 69.0048 -13.9163 0.350117 -0.936685 -0.00342943
27.9271 68.9844 -14.8311 0.34713 -0.937628 -0.0188366
27.5613 68.8663 -15.9352 0.360615 -0.932213 -0.0299818
27.1491 68.738 -16.7692 0.36297 -0.931134 -0.0352347
26.6133 68.5678 -17.6263 0.362984 -0.930612 -0.0469493
26.0117 68.3693 -18.3685 0.366461 -0.928931 -0.0528609
25.3011 68.1306 -19.1469 0.372024 -0.92663 -0.0541974
24.5525 67.8766 -19.8765 0.3749 -0.92529 -0.0572072
23.5895 67.5366 -20.6258 0.375492 -0.924224 -0.0693888
22.5027 67.1467 -21.2533 0.372964 -0.924229 -0.0818292
21.2376 66.6922 -21.8672 0.371706 -0.924418 -0.0853452
20.4228 66.3944 -22.2065 0.381806 -0.920445 -0.0836991
19.506 66.0434 -22.5291 0.37844 -0.921173 -0.0903672
18.4622 65.6481 -22.8604 0.378322 -0.92101 -0.0928072
17.3197 65.1916 -23.1281 0.387705 -0.916757 -0.0960678
16.4946 64.8488 -23.2681 0.39795 -0.912577 -0.094016
15.6031 64.4647 -23.3656 0.413963 -0.906527 -0.0826276
14.4952 63.962 -23.3549 0.417237 -0.905372 -0.0785452
13.2847 63.3863 -23.1444 0.424962 -0.90301 -0.0618598
12.3957 62.9284 -22.7188 0.431865 -0.900229 -0.0555091
11.4607 62.4551 -22.0382 0.424048 -0.905446 -0.0187006
11.0708 62.266 -21.7248 0.416829 -0.908833 -0.00496975
10.5513 62.0052 -22.474 0.470788 -0.882207 -0.0083922
11.3971 62.4447 -23.1761 0.441915 -0.89642 -0.0262835
12.4094 63.0047 -23.8553 0.461175 -0.885921 -0.049618
13.4547 63.5419 -24.173 0.436082 -0.89705 -0.070701
14.3092 63.9541 -24.2852 0.42446 -0.902361 -0.0746417
15.4124 64.4674 -24.3282 0.416727 -0.905041 -0.0850851
16.4434 64.9259 -24.2332 0.399099 -0.911999 -0.0947374
17.331 65.3015 -24.0985 0.393254 -0.914221 -0.0974207
18.3383 65.7027 -23.8749 0.384523 -0.917316 -0.103185
19.3699 66.0938 -23.5345 0.378619 -0.920425 -0.097217
20.5832 66.5446 -23.1276 0.378431 -0.921178 -0.0903632
21.5081 66.8877 -22.8154 0.371876 -0.924084 -0.0881859
22.399 67.2028 -22.3593 0.372424 -0.924307 -0.0833704
23.3921 67.5556 -21.8509 0.369205 -0.926001 -0.0788066
24.1428 67.8153 -21.3932 0.368311 -0.926332 -0.0790975
25.3271 68.2192 -20.4021 0.369138 -0.927171 -0.0639554
26.3213 68.5482 -19.3682 0.364989 -0.92916 -0.0586866
27.2684 68.8522 -18.2683 0.357589 -0.932242 -0.0552702
28.012 69.0787 -17.1015 0.351482 -0.93536 -0.0387452
28.4439 69.2108 -16.2444 0.345369 -0.937817 -0.0349235
28.812 69.3201 -15.256 0.346067 -0.938041 -0.0177665
28.9736 69.3638 -14.0812 0.34275 -0.939395 -0.00767863
28.7996 69.2937 -12.7617 0.346015 -0.938229 -0.00100182
28.4923 69.1864 -11.5104 0.343092 -0.939239 0.0108245
28.1467 69.0724 -10.6203 0.345174 -0.938128 0.0258748
27.6589 68.9267 -9.6748 0.354517 -0.93438 0.035367
27.0507 68.7449 -8.68018 0.349823 -0.935515 0.0493521
26.2138 68.4975 -7.64437 0.343254 -0.936904 0.0662435
25.3944 68.2721 -6.64106 0.340316 -0.937666 0.0704767
24.6441 68.0582 -5.9127 0.336951 -0.937788 0.0837694
23.703 67.8122 -4.94405 0.334587 -0.937723 0.0933012
22.8803 67.574 -4.34736 0.336836 -0.936466 0.097729
22.115 67.3464 -3.90398 0.340625 -0.93473 0.101267
21.3027 67.1088 -3.36513 0.343106 -0.933546 0.103714
20.0377 66.7076 -2.82743 0.344559 -0.932474 0.10846
19.1705 66.4166 -2.56695 0.344799 -0.931946 0.112206
18.2475 66.0976 -2.38412 0.345968 -0.93177 0.110017
17.402 65.7893 -2.31857 0.348252 -0.93112 0.108334
16.4598 65.4362 -2.33631 0.34815 -0.932186 0.0990588
15.2289 64.9544 -2.44475 0.35724 -0.929655 0.0901152
14.0068 64.4684 -2.6067 0.355828 -0.930725 0.0842467
12.6693 63.8998 -2.8647 0.384045 -0.920707 0.069348
11.6454 63.4568 -3.11103 0.393976 -0.917197 0.056846
10.7838 63.0353 -3.38273 0.435256 -0.900081 0.0201603
9.9256 62.6236 -3.69246 0.432832 -0.901191 -0.00390439
8.68452 61.9988 -4.26125 0.434189 -0.899298 -0.038006
7.59001 61.5274 -4.77256 0.438066 -0.891485 -0.107075
6.78776 61.225 -5.1154 0.365882 -0.917998 -0.153002
5.87521 60.9211 -5.43884 0.410255 -0.874673 -0.23488
5.03272 60.6575 -5.6429 0.315671 -0.887223 -0.336402
4.12714 60.3869 -5.72212 0.151066 -0.901553 -0.389896
3.15234 60.1955 -5.63505 0.157378 -0.845046 -0.511008
2.11905 60.0726 -5.57049 -0.0323361 -0.898256 -0.438282
0.909179 60.1551 -5.55308 -0.180079 -0.875122 -0.443583
-0.12356 60.4029 -5.47215 -0.212397 -0.895072 -0.389912
-1.01973 60.6563 -5.36986 -0.362135 -0.880061 -0.307166
-2.04815 61.0296 -5.10794 -0.367528 -0.917194 -0.153874
-2.88733 61.3269 -4.74227 -0.433331 -0.893568 -0.110064
-4.0162 61.8034 -4.1168 -0.389492 -0.918704 -0.062289
-5.19309 62.2575 -3.55936 -0.35368 -0.934735 -0.0263061
-6.28645 62.6476 -3.02177 -0.302515 -0.953118 -0.00617036
-7.41463 63.0036 -2.45795 -0.30471 -0.952374 0.00538344
-8.5357 63.3641 -2.07255 -0.292364 -0.956235 0.0117138
-9.57365 63.6797 -1.85561 -0.279886 -0.959551 0.0304363
-10.6014 63.9735 -1.75702 -0.263846 -0.964176 0.0273701
-11.5112 64.2244 -1.77094 -0.250706 -0.967151 0.0420118
-12.568 64.4962 -1.81272 -0.251064 -0.966873 0.0460812
-13.7109 64.7839 -1.93287 -0.244977 -0.96832 0.0484053
-14.639 65.0081 -2.12147 -0.242203 -0.969102 0.0466768
-15.5428 65.2279 -2.2622 -0.240821 -0.969516 0.0451448
-16.7827 65.5333 -2.47805 -0.248427 -0.967905 0.0380086
-18.0507 65.842 -2.78509 -0.249201 -0.968167 0.0231204
-18.8979 66.056 -3.07063 -0.248538 -0.968424 0.0194235
-20.0202 66.3338 -3.55636 -0.246862 -0.968935 0.0149168
-21.1934 66.6241 -4.21305 -0.243107 -0.969942 0.00906099
-22.0051 66.8172 -4.76304 -0.237678 -0.971269 0.0119551
-23.0824 67.0743 -5.59282 -0.231981 -0.972681 -0.00499505
-23.6794 67.2251 -6.26021 -0.238382 -0.971159 -0.00500315
-24.6459 67.4855 -7.29796 -0.251042 -0.967814 -0.0172636
-25.1225 67.6436 -8.35334 -0.262875 -0.964343 -0.0304118
-25.498 67.7841 -9.40606 -0.268022 -0.96285 -0.0329131
-25.6686 67.8644 -10.3583 -0.268629 -0.962493 -0.0377401
-25.7423 67.9269 -11.3499 -0.272149 -0.961432 -0.0397892
-25.6401 67.9583 -12.6293 -0.277555 -0.959582 -0.0464755
-25.3543 67.9251 -13.6062 -0.278881 -0.959111 -0.0482755
-24.982 67.8622 -14.5004 -0.284196 -0.95716 -0.0554708
-24.3061 67.7215 -15.5362 -0.286311 -0.956543 -0.0551908
-23.3361 67.4912 -16.6108 -0.29159 -0.954939 -0.0552512
-22.2489 67.2175 -17.6258 -0.293187 -0.954103 -0.0610718
-21.2168 66.952 -18.5255 -0.300358 -0.951711 -0.0634596
-20.2483 66.6981 -19.3468 -0.303141 -0.950882 -0.0626843
-19.3906 66.467 -20.1306 -0.317904 -0.945965 -0.0639283
-18.4125 66.199 -21.0634 -0.329696 -0.941369 -0.0715894
-17.6029 65.9585 -21.6696 -0.334505 -0.940035 -0.0666423
-16.6139 65.6386 -22.1844 -0.34584 -0.936269 -0.0616042
-15.762 65.3522 -22.6179 -0.345936 -0.936247 -0.0613921
-15.0335 65.1019 -23.1042 -0.366414 -0.929032 -0.0513806
-14.128 64.7716 -23.6246 -0.380841 -0.923465 -0.0458476
-12.9862 64.3151 -24.1274 -0.391409 -0.919327 -0.039982
-11.9046 63.8454 -24.3072 -0.415626 -0.908847 -0.0327216
-10.8259 63.3327 -24.2602 -0.422391 -0.906011 -0.0249236
-10.0076 62.9173 -24.1835 -0.456006 -0.889974 0.0022447
-9.20573 62.5026 -24.0321 -0.478796 -0.877429 0.016746
-8.29005 61.9971 -23.7018 -0.487525 -0.872472 0.0333379
-7.07615 61.3931 -23.1324 -0.468744 -0.877929 0.0881103
-6.05726 60.9085 -22.5404 -0.460685 -0.878512 0.126436
-5.28439 60.6361 -22.065 -0.402727 -0.884449 0.233736
-4.56933 60.4255 -21.5536 -0.428884 -0.870611 0.241028
-3.85796 60.3066 -20.9413 -0.438151 -0.845858 0.304216
-2.92428 60.2416 -20.034 -0.363834 -0.850714 0.379356
-1.90878 60.3525 -19.0042 -0.215584 -0.894463 0.39174
-1.05684 60.5126 -18.2353 -0.183819 -0.879847 0.438251
0.0922422 60.7209 -17.348 -0.178536 -0.871956 0.45587
1.18049 60.8454 -16.6851 -0.15238 -0.884708 0.439288
2.16698 60.9108 -16.4149 -0.0442305 -0.949656 0.310156
3.27179 60.8748 -16.4654 0.0402309 -0.951167 0.305607
4.17388 60.8288 -16.7717 0.0841044 -0.949491 0.300397
4.92076 60.7796 -17.3511 0.178745 -0.944444 0.27582
5.6727 60.711 -18.1573 0.229705 -0.941725 0.245727
6.47934 60.7255 -18.8658 0.267048 -0.936078 0.225251
7.23036 60.848 -19.4261 0.305009 -0.931684 0.197317
8.05576 61.0562 -20.1198 0.397205 -0.908125 0.132431
8.99146 61.3548 -20.9157 0.393552 -0.914743 0.0911503
9.86947 61.6913 -21.7895 0.457108 -0.888108 0.0396468
10.439 61.9444 -22.3778 0.452283 -0.891318 0.0121174
10.056 61.7352 -23.2548 0.484283 -0.874825 0.0123163
9.13574 61.2546 -22.431 0.437991 -0.894495 0.072338
8.25214 60.9496 -21.51 0.437003 -0.89319 0.10602
7.47814 60.6837 -20.8423 0.445515 -0.876655 0.181637
6.64151 60.4634 -20.1283 0.380691 -0.884807 0.268684
5.67801 60.3412 -19.3479 0.304426 -0.900952 0.309047
5.004 60.3319 -18.7343 0.252932 -0.904486 0.339139
4.084 60.4723 -17.7665 0.212464 -0.928579 0.304303
3.21234 60.5505 -17.3061 0.0894643 -0.906733 0.412105
2.25806 60.5069 -17.2596 0.00998833 -0.89094 0.454012
1.19268 60.3979 -17.6317 -0.126742 -0.897423 0.422573
0.308158 60.2257 -18.1612 -0.117507 -0.839317 0.530755
-0.528603 59.9941 -18.873 -0.271951 -0.796357 0.54024
-1.45585 59.7625 -19.7065 -0.299307 -0.789963 0.535138
-2.36875 59.6643 -20.7098 -0.419256 -0.819543 0.390607
-3.0407 59.731 -21.3091 -0.476747 -0.795099 0.37468
-3.863 59.8785 -22.0212 -0.481142 -0.799883 0.358137
-5.0145 60.1895 -22.8944 -0.465482 -0.817986 0.337973
-5.92616 60.6647 -23.4711 -0.530516 -0.822635 0.204509
-6.75777 61.0928 -23.9764 -0.497901 -0.858136 0.125288
-7.79403 61.6857 -24.4991 -0.527956 -0.846208 0.0551579
-8.7279 62.2127 -24.9142 -0.515832 -0.856397 -0.00113068
-9.9537 62.9131 -25.1983 -0.473734 -0.880285 -0.018356
-10.8725 63.3974 -25.2926 -0.473523 -0.880243 -0.0307838
-12.2202 64.0358 -25.2455 -0.421646 -0.905308 -0.0498743
-13.3335 64.5169 -25.0419 -0.394821 -0.917164 -0.0540931
-14.2963 64.9023 -24.6377 -0.386439 -0.920544 -0.0571229
-15.3277 65.2859 -24.1077 -0.37021 -0.926329 -0.0697118
-16.2461 65.5938 -23.4377 -0.356986 -0.930852 -0.0779443
-17.5804 66.0332 -22.7165 -0.340276 -0.937089 -0.0778975
-18.8058 66.4003 -21.9082 -0.328124 -0.941589 -0.0756484
-19.6995 66.648 -21.1043 -0.323203 -0.943331 -0.0752745
-20.4294 66.8326 -20.3734 -0.311171 -0.947408 -0.0747712
-21.1232 67.0131 -19.7772 -0.30441 -0.949567 -0.0749016
-22.1138 67.263 -18.9414 -0.301299 -0.951135 -0.0675336
-22.8762 67.4521 -18.2713 -0.293967 -0.953798 -0.0620718
-23.7774 67.6751 -17.4717 -0.288216 -0.955693 -0.0597816
-24.4355 67.836 -16.8295 -0.288825 -0.955673 -0.057174
-25.1615 68.0048 -16.0193 -0.287378 -0.955968 -0.0594962
-25.8824 68.1476 -14.8962 -0.272111 -0.960696 -0.0549411
-26.2995 68.2036 -13.7787 -0.272962 -0.960756 -0.049318
-26.5435 68.2302 -12.9012 -0.274386 -0.960597 -0.0442252
-26.6637 68.2028 -11.563 -0.278983 -0.95913 -0.0473158
-26.6371 68.1502 -10.6407 -0.272804 -0.961169 -0.0416143
-26.5358 68.078 -9.57547 -0.270902 -0.961998 -0.0339902
-26.2529 67.9689 -8.68107 -0.268484 -0.962681 -0.034091
-25.8605 67.8177 -7.66173 -0.260328 -0.964761 -0.037552
-25.3786 67.6608 -6.58161 -0.252273 -0.967421 -0.0213128
-24.7311 67.4808 -5.87744 -0.239523 -0.970607 -0.0234618
-24.0959 67.3193 -5.19055 -0.230257 -0.973048 -0.0096454
-23.2002 67.0998 -4.43746 -0.225892 -0.974151 -0.00156502
-22.4582 66.9324 -3.94965 -0.233821 -0.972268 0.00484825
-21.3617 66.6737 -3.22776 -0.236562 -0.971584 0.00685951
-20.1405 66.3846 -2.57197 -0.240453 -0.970259 0.0263881
-19.3065 66.1802 -2.18133 -0.252825 -0.967311 0.0176512
-18.3672 65.9466 -1.83008 -0.24039 -0.970577 0.0138753
-17.4547 65.7245 -1.65206 -0.237037 -0.970639 0.0397153
-16.4339 65.4872 -1.40401 -0.242014 -0.969097 0.0474891
-15.5367 65.2697 -1.27846 -0.238243 -0.970476 0.0376378
-14.4784 65.0196 -1.12807 -0.243202 -0.968088 0.0604818
-13.4588 64.7682 -0.922142 -0.247143 -0.967903 0.0456474
-12.546 64.54 -0.783059 -0.252336 -0.966547 0.0459474
-11.3505 64.2252 -0.807284 -0.254022 -0.966194 0.0440564
-10.1609 63.8967 -0.813015 -0.267648 -0.961725 0.0587369
-9.2728 63.6149 -0.895031 -0.285005 -0.958255 0.0228132
-8.45469 63.3644 -1.04226 -0.2966 -0.954616 0.0271279
-7.53451 63.0578 -1.39777 -0.310613 -0.950447 0.0130492
-6.54114 62.7123 -1.8293 -0.325925 -0.945109 -0.00907065
-5.51006 62.3781 -2.3501 -0.346735 -0.937662 -0.0108121
-4.39451 61.921 -2.91977 -0.39875 -0.916884 -0.0114002
-3.62233 61.602 -3.30197 -0.450815 -0.889394 -0.0336177
-2.50048 61.0242 -3.92528 -0.480211 -0.867756 -0.128051
-1.49282 60.5147 -4.25188 -0.408606 -0.874216 -0.259556
-0.268418 59.9949 -4.63455 -0.371582 -0.809569 -0.426957
0.670252 59.7636 -4.68201 -0.30339 -0.772998 -0.545338
1.75068 59.5044 -4.70684 -0.0154555 -0.744076 -0.667916
2.86603 59.5542 -4.74041 0.093239 -0.83004 -0.549855
3.96158 59.7941 -4.86277 0.139087 -0.793031 -0.593091
4.99761 60.1842 -4.78473 0.353103 -0.759368 -0.546514
6.08226 60.6762 -4.50997 0.488992 -0.771359 -0.407297
6.95314 61.0686 -4.05021 0.472636 -0.869115 -0.145787
7.86428 61.4676 -3.55483 0.485121 -0.866832 -0.100789
8.85467 62.0357 -3.09919 0.493353 -0.867962 -0.0501538
9.70506 62.5015 -2.78185 0.481586 -0.876358 0.00844404
10.4513 62.929 -2.46232 0.434535 -0.898925 0.0558021
11.4518 63.421 -2.09062 0.405832 -0.912842 0.0449542
12.4289 63.8645 -1.96277 0.414356 -0.908213 0.0586332
13.4083 64.3139 -1.68598 0.388219 -0.917129 0.0903306
14.2623 64.6627 -1.58362 0.360958 -0.928692 0.0850906
15.2636 65.0676 -1.47028 0.370667 -0.924244 0.0898184
16.1238 65.4169 -1.34235 0.360849 -0.926778 0.104263
17.133 65.7987 -1.35519 0.353544 -0.92915 0.107983
18.2089 66.1921 -1.47041 0.349012 -0.929948 0.115703
19.1818 66.5317 -1.64605 0.34478 -0.93196 0.112149
20.5251 66.9805 -2.02488 0.342201 -0.933122 0.110365
21.4664 67.288 -2.33927 0.338225 -0.934676 0.109477
22.4508 67.5652 -3.01341 0.339424 -0.934703 0.105374
23.5136 67.8795 -3.61347 0.332217 -0.93792 0.0996861
24.3508 68.1078 -4.26839 0.33268 -0.938078 0.0966112
25.1814 68.3156 -5.11209 0.32365 -0.942768 0.0802423
26.096 68.5718 -5.99228 0.338032 -0.938903 0.0647695
26.7865 68.7605 -6.8855 0.341395 -0.937744 0.0638793
27.515 68.9737 -7.63176 0.345917 -0.936447 0.0576423
27.9598 69.0991 -8.40854 0.338075 -0.93967 0.0506941
28.4513 69.2307 -9.2378 0.333619 -0.942317 0.0271291
28.9447 69.3769 -10.2268 0.329834 -0.943631 0.0274723
29.3014 69.4911 -11.0601 0.3408 -0.940006 0.015643
29.6618 69.6076 -12.4239 0.342359 -0.939565 0.00121521
29.9466 69.7115 -13.276 0.341557 -0.939843 -0.00440398
29.8885 69.7006 -14.4631 0.332686 -0.942965 -0.00279894
29.7293 69.6589 -15.483 0.330952 -0.943525 -0.0152065
29.3697 69.5587 -16.5207 0.337103 -0.941017 -0.0291473
28.8627 69.412 -17.4679 0.338441 -0.940048 -0.0417934
28.3676 69.2659 -18.2794 0.341855 -0.938129 -0.0534879
27.5257 69.0201 -19.3583 0.364296 -0.929229 -0.0618188
26.6007 68.721 -20.3862 0.363201 -0.929979 -0.0567863
25.9449 68.5103 -21.0596 0.368851 -0.927312 -0.0635758
24.9717 68.1862 -21.9129 0.365462 -0.927867 -0.0741482
24.1311 67.9074 -22.5443 0.363959 -0.928337 -0.0756473
23.0943 67.5568 -23.1761 0.368148 -0.925609 -0.0878336
22.3285 67.288 -23.5659 0.369562 -0.925127 -0.0869663
21.2171 66.8878 -23.9816 0.36638 -0.925175 -0.0990809
20.2358 66.5187 -24.2073 0.374429 -0.922027 -0.098327
18.932 66.0399 -24.6902 0.377054 -0.920567 -0.101852
18.0356 65.6932 -24.937 0.389211 -0.915404 -0.102716
17.1974 65.356 -25.079 0.392656 -0.913063 -0.109846
16.0301 64.8505 -25.2418 0.417413 -0.902933 -0.102347
14.4021 64.0761 -25.2542 0.433627 -0.897741 -0.0770368
13.4546 63.6199 -25.1822 0.442468 -0.894229 -0.0674784
12.1917 62.9555 -24.8297 0.453606 -0.888853 -0.0646687
11.4944 62.5686 -24.4024 0.453527 -0.888901 -0.0645696
10.7324 62.1016 -23.8125 0.490849 -0.870977 -0.00666544
10.5755 62.0165 -23.6954 0.484117 -0.874916 0.0123368
10.205 61.8158 -23.3823 0.484116 -0.874917 0.0123396
