-6.84034 63.1 -21.0609 -0.392041 -0.8957 0.205537
-5.58747 62.657 -20.8355 -0.3712 -0.897395 0.238207
-4.12524 62.1969 -20.702 -0.318364 -0.89382 0.315117
-3.24308 61.9822 -20.583 -0.264526 -0.901983 0.341251
-2.14632 61.8829 -20.3509 -0.117009 -0.912273 0.392514
-1.18781 61.8702 -20.0744 -0.0640628 -0.862232 0.502135
-0.010343 61.9923 -19.748 0.00273662 -0.859036 0.508691
0.924417 62.1805 -19.5227 0.0519488 -0.86683 0.495891
1.92857 62.3021 -19.2605 -0.0675799 -0.874508 0.480281
2.8204 62.3851 -19.0939 0.0190097 -0.904841 0.425324
4.02971 62.433 -18.9112 -0.0596449 -0.939113 0.338393
5.2385 62.482 -18.8422 0.0863644 -0.933241 0.348715
6.49351 62.6494 -18.9567 0.194946 -0.937789 0.287311
7.73279 62.8662 -19.2603 0.280999 -0.942815 0.179275
8.68734 63.1062 -19.6464 0.349698 -0.919871 0.17762
9.62756 63.3947 -20.1508 0.374735 -0.921359 0.103167
10.7398 63.7735 -20.8718 0.364158 -0.927132 0.0849723
11.5921 64.119 -21.3025 0.395973 -0.917225 0.0436412
13.0488 64.766 -21.6588 0.399773 -0.916541 0.0116082
14.4568 65.3925 -21.5537 0.399784 -0.916219 -0.0267672
15.4943 65.8245 -21.3291 0.388997 -0.919927 -0.0485281
16.2986 66.1575 -21.0942 0.39505 -0.917153 -0.0525871
17.5285 66.6424 -20.6542 0.386145 -0.920138 -0.0650914
18.6809 67.0896 -20.2279 0.378836 -0.923186 -0.0648881
19.5187 67.4132 -19.9288 0.376562 -0.924251 -0.0629458
20.3139 67.715 -19.6035 0.376213 -0.924419 -0.0625499
21.2367 68.0473 -18.9878 0.374159 -0.925614 -0.0569018
21.937 68.3008 -18.2964 0.376928 -0.925019 -0.0474505
22.7056 68.5706 -17.4942 0.374365 -0.926123 -0.046328
23.4734 68.8431 -16.4425 0.38219 -0.923525 -0.0321184
23.8774 68.9707 -15.3664 0.37576 -0.926352 -0.0260024
24.0491 69.0173 -14.087 0.372081 -0.928164 -0.00825462
24.004 68.9955 -13.1308 0.371466 -0.928407 0.00856103
23.7886 68.9185 -12.1305 0.366991 -0.930191 0.00534547
23.4306 68.7968 -11.2752 0.363756 -0.931279 0.020001
22.6257 68.5322 -9.87333 0.355052 -0.933919 0.0416399
21.9965 68.3374 -8.95749 0.350981 -0.934803 0.0540018
21.2905 68.1239 -8.16454 0.351052 -0.93402 0.0660606
20.5893 67.9037 -7.5338 0.351108 -0.933798 0.0688783
19.8523 67.6771 -6.88758 0.340244 -0.937761 0.0695527
19.1444 67.4622 -6.32004 0.342562 -0.936952 0.0690376
17.9296 67.0626 -5.65854 0.344857 -0.936188 0.0680147
17.1074 66.777 -5.41316 0.346478 -0.93517 0.0735546
16.2328 66.4585 -5.34983 0.344611 -0.936367 0.066778
15.3198 66.1239 -5.32396 0.345387 -0.93646 0.061243
14.4315 65.7924 -5.38389 0.350655 -0.934667 0.058298
13.5809 65.4746 -5.43963 0.342263 -0.938789 0.0391278
12.2395 64.9742 -5.55484 0.355132 -0.934177 0.0335615
10.9594 64.4768 -5.7752 0.345815 -0.938215 -0.0128063
9.9852 64.117 -5.96894 0.347925 -0.936613 -0.034756
8.73597 63.6879 -6.15969 0.340475 -0.93876 -0.0518587
7.71701 63.3629 -6.26621 0.306136 -0.946175 -0.105039
6.41428 63.0383 -6.28155 0.232533 -0.968318 -0.091003
5.50484 62.8587 -6.08752 0.149062 -0.971086 -0.186474
4.35007 62.5971 -5.70699 0.125214 -0.968208 -0.211875
3.43271 62.43 -5.32211 0.0911376 -0.967832 -0.234151
2.56406 62.3131 -5.12508 -0.00151647 -0.960576 -0.278012
1.4421 62.3658 -5.30111 -0.0139383 -0.963295 -0.267578
0.564311 62.489 -5.63983 -0.0506757 -0.973798 -0.221699
-0.370974 62.6521 -5.91741 -0.101366 -0.976321 -0.191107
-1.50284 62.8587 -6.13782 -0.167313 -0.964436 -0.204618
-2.69036 63.1394 -6.14371 -0.251683 -0.958404 -0.134603
-3.60216 63.3751 -6.03922 -0.272512 -0.958202 -0.0793223
-4.54747 63.6032 -5.88747 -0.243323 -0.968041 -0.0607486
-5.45098 63.8354 -5.69101 -0.259125 -0.964919 -0.0414715
-6.5041 64.1025 -5.39974 -0.263031 -0.964322 -0.0299778
-7.50837 64.3645 -5.10937 -0.259361 -0.965748 -0.00613036
-8.35552 64.5929 -4.84141 -0.260741 -0.965408 -0.00137154
-9.40241 64.8723 -4.65438 -0.259595 -0.965705 0.00207371
-10.8818 65.2676 -4.58341 -0.256222 -0.966474 0.0166862
-12.2941 65.6361 -4.77308 -0.252147 -0.967414 0.0230463
-13.1831 65.868 -4.96572 -0.256144 -0.966206 0.0289334
-14.053 66.0914 -5.20504 -0.25767 -0.965775 0.0296813
-14.9094 66.3171 -5.48101 -0.261519 -0.96496 0.021457
-15.7661 66.5441 -5.79411 -0.264526 -0.964164 0.0203275
-16.6662 66.7822 -6.22224 -0.264666 -0.964117 0.0207442
-17.896 67.1078 -6.85558 -0.266144 -0.963744 0.019111
-18.7241 67.3271 -7.3143 -0.266812 -0.963671 0.0103761
-19.7218 67.6017 -8.04583 -0.269253 -0.963061 0.00377906
-20.5792 67.8467 -8.93915 -0.272527 -0.962127 -0.00630849
-21.2352 68.0492 -10.126 -0.27484 -0.961255 -0.021263
-21.3141 68.09 -11.1462 -0.284845 -0.958297 -0.0230197
-20.8999 67.9961 -12.4015 -0.285491 -0.958128 -0.0220355
-20.3612 67.8543 -13.347 -0.295749 -0.954946 -0.0244502
-19.7513 67.6884 -14.2038 -0.297468 -0.954312 -0.0282885
-19.0957 67.507 -15.0295 -0.300888 -0.953238 -0.0283525
-18.1868 67.2544 -16.1476 -0.302527 -0.952619 -0.0315434
-17.5747 67.084 -16.9232 -0.306612 -0.951428 -0.0278103
-16.9858 66.9179 -17.7115 -0.315133 -0.948347 -0.0361598
-16.2054 66.6863 -18.546 -0.315706 -0.94831 -0.03222
-15.4098 66.4292 -19.2681 -0.322274 -0.946412 -0.0207163
-14.5694 66.1548 -19.8962 -0.329141 -0.943747 -0.0317551
-13.7865 65.8854 -20.427 -0.347585 -0.937505 -0.0163955
-12.6747 65.4754 -21.0074 -0.3594 -0.933175 -0.00175144
-11.6048 65.0507 -21.3834 -0.369476 -0.928999 0.0202773
-10.3897 64.5507 -21.6085 -0.386689 -0.921457 0.0372577
-9.10761 64.0227 -21.5239 -0.388874 -0.918296 0.0742276
-7.75932 63.4738 -21.2473 -0.392489 -0.904082 0.169082
-7.08919 63.2079 -21.1133 -0.407662 -0.89636 0.173331
-6.92021 62.9428 -22.0378 -0.422834 -0.888639 0.177572
-5.50339 62.3688 -21.7618 -0.381155 -0.892026 0.24292
-4.61492 62.0376 -21.6485 -0.318368 -0.893819 0.315114
-3.64404 61.7029 -21.5567 -0.294437 -0.889063 0.347206
-2.72628 61.4666 -21.4268 -0.26791 -0.864055 0.4252
-1.45868 61.3359 -21.0645 -0.140744 -0.860937 0.484187
-0.263884 61.4123 -20.748 -0.12805 -0.82672 0.541057
0.947848 61.6455 -20.3837 -0.02348 -0.779709 0.625692
1.90554 61.8129 -20.137 -0.00257743 -0.785202 0.619216
2.99284 61.9568 -19.9355 -0.0735602 -0.82275 0.559032
4.14956 61.9929 -19.7935 0.0332591 -0.85274 0.521275
5.2353 62.1659 -19.7814 0.175818 -0.885701 0.429677
6.12852 62.3057 -19.8311 0.215231 -0.9422 0.253724
7.00402 62.4819 -20.0101 0.235515 -0.94661 0.22014
7.88017 62.688 -20.3048 0.325681 -0.928639 0.169692
8.81804 62.9997 -20.7674 0.379688 -0.918117 0.113572
9.76016 63.3198 -21.3158 0.390371 -0.917185 0.0737688
10.7908 63.739 -21.9811 0.40735 -0.910837 0.0636293
11.5982 64.0939 -22.4193 0.426531 -0.903989 0.0295918
12.45 64.4977 -22.6463 0.442462 -0.896649 -0.00782078
13.8249 65.1488 -22.6508 0.412804 -0.910352 -0.0254411
14.8255 65.5931 -22.5042 0.418057 -0.906815 -0.0539842
15.7081 65.9819 -22.3278 0.402148 -0.913683 -0.0582319
16.5599 66.3313 -22.0512 0.397835 -0.915188 -0.0644759
17.5601 66.7321 -21.6859 0.388405 -0.918566 -0.0733343
18.5252 67.1092 -21.3494 0.38218 -0.920965 -0.0759107
19.4418 67.4575 -20.9835 0.374693 -0.924081 -0.0753495
20.6247 67.9049 -20.5481 0.372854 -0.925734 -0.0631376
21.4901 68.2155 -20.0456 0.37342 -0.925649 -0.0608813
22.2446 68.4779 -19.3178 0.378241 -0.924275 -0.0511555
23.2203 68.8205 -18.3278 0.374159 -0.926047 -0.0494242
24.0175 69.1036 -17.4065 0.374566 -0.926129 -0.044345
24.6106 69.2946 -16.2781 0.37032 -0.928054 -0.0395893
24.9021 69.3793 -15.1592 0.374544 -0.926826 -0.0266452
25.0153 69.4072 -14.1223 0.374356 -0.927237 -0.0094206
24.9296 69.3615 -12.8605 0.366596 -0.93038 0.000326257
24.6246 69.253 -11.6867 0.362081 -0.93191 0.020986
24.1235 69.0868 -10.5737 0.36703 -0.929738 0.0295891
23.4859 68.8824 -9.47907 0.360673 -0.93167 0.0436612
22.89 68.699 -8.59418 0.353652 -0.933474 0.0596344
22.2923 68.5215 -7.82956 0.351239 -0.934175 0.0627229
21.377 68.2422 -6.95467 0.350029 -0.934251 0.0682266
20.4782 67.9615 -6.18044 0.350992 -0.933872 0.0684616
19.436 67.6447 -5.34103 0.342711 -0.936569 0.0734054
18.4934 67.3394 -4.79419 0.346724 -0.935076 0.0735884
17.4499 66.9791 -4.45752 0.346801 -0.935093 0.07301
16.3646 66.5852 -4.34096 0.347126 -0.935015 0.072462
15.4042 66.2224 -4.29374 0.350735 -0.934101 0.066191
14.5634 65.9031 -4.36645 0.355919 -0.932876 0.05536
13.3995 65.4601 -4.45625 0.356916 -0.933167 0.0389654
12.2141 64.9919 -4.56594 0.358436 -0.93324 0.024221
11.2902 64.6135 -4.69596 0.389751 -0.920667 0.0215766
10.0983 64.1376 -4.94028 0.364817 -0.930832 -0.021442
9.12223 63.7705 -5.11901 0.340474 -0.938761 -0.0518528
8.12941 63.4068 -5.24986 0.354001 -0.932542 -0.0695167
7.14174 63.0966 -5.3019 0.264322 -0.952841 -0.149087
5.90792 62.7741 -5.18041 0.205417 -0.968833 -0.138439
4.78676 62.4896 -4.8382 0.154328 -0.957075 -0.245337
3.60343 62.1667 -4.3059 0.0690768 -0.944487 -0.321204
2.66591 62.0229 -4.08495 0.0964214 -0.919907 -0.374537
1.68537 62.0508 -4.17468 -0.0174017 -0.917727 -0.39683
0.584837 62.2177 -4.58363 -0.0947479 -0.96361 -0.246671
-0.339786 62.4178 -4.93493 -0.12832 -0.966516 -0.222217
-1.74137 62.7746 -5.19446 -0.242413 -0.956178 -0.160337
-2.83239 63.0418 -5.18327 -0.27669 -0.953384 -0.116248
-4.25764 63.472 -4.95778 -0.272512 -0.958202 -0.0793223
-5.16504 63.7109 -4.75451 -0.266195 -0.962345 -0.0550558
-6.1964 63.9954 -4.46922 -0.276505 -0.96043 -0.0288464
-7.35727 64.3102 -4.10269 -0.271788 -0.962241 -0.0149588
-8.73306 64.6973 -3.71222 -0.269131 -0.963021 -0.00279539
-10.0528 65.0567 -3.53252 -0.262777 -0.964834 0.00656724
-11.0357 65.3283 -3.59077 -0.262041 -0.964828 0.0205547
-12.0182 65.5884 -3.72299 -0.262743 -0.964542 0.0246081
-12.9209 65.8292 -3.87178 -0.259715 -0.965191 0.0308892
-14.0454 66.123 -4.13985 -0.259191 -0.965347 0.030433
-14.9706 66.3631 -4.4361 -0.261305 -0.964816 0.0291361
-15.8418 66.5897 -4.76665 -0.264748 -0.963937 0.0271028
-16.6785 66.8086 -5.15138 -0.264319 -0.964106 0.024873
-17.5656 67.0428 -5.59125 -0.264896 -0.96405 0.0209159
-18.5807 67.3089 -6.10358 -0.263851 -0.96437 0.0191868
-19.372 67.5187 -6.55716 -0.265522 -0.963961 0.016667
-20.51 67.8244 -7.42056 -0.266353 -0.963875 -0.000657053
-21.1395 67.9976 -8.05648 -0.261593 -0.965142 -0.00492112
-21.9164 68.2227 -9.14656 -0.265197 -0.964122 -0.0116768
-22.3286 68.3652 -10.3082 -0.273701 -0.961582 -0.0211549
-22.3248 68.3884 -11.209 -0.278953 -0.960018 -0.0234833
-22.081 68.3404 -12.1416 -0.281216 -0.959234 -0.0276641
-21.5599 68.2193 -13.2879 -0.289953 -0.956595 -0.0292187
-20.7899 68.0187 -14.4208 -0.294245 -0.955324 -0.027577
-19.9124 67.7812 -15.5484 -0.303013 -0.952313 -0.0358126
-19.1744 67.5782 -16.4097 -0.302742 -0.952496 -0.0331093
-18.4071 67.3713 -17.3817 -0.310208 -0.949739 -0.041916
-17.6365 67.1597 -18.383 -0.315125 -0.94835 -0.0361528
-16.8418 66.926 -19.2628 -0.325973 -0.944577 -0.0384395
-16.0475 66.6749 -19.9972 -0.329332 -0.943611 -0.0337405
-15.1827 66.3943 -20.656 -0.329984 -0.943447 -0.0318853
-14.0503 66.0031 -21.4338 -0.351256 -0.935865 -0.0266637
-12.9933 65.6045 -21.954 -0.365422 -0.930696 -0.015556
-12.0193 65.2119 -22.2854 -0.380529 -0.924696 -0.0116476
-10.9365 64.7449 -22.5468 -0.397033 -0.91741 0.0210379
-9.97662 64.3292 -22.6342 -0.435392 -0.898557 0.0550438
-8.75941 63.7843 -22.4437 -0.422024 -0.900545 0.098591
-7.65277 63.2504 -22.1945 -0.422066 -0.89484 0.138701
-7.40544 63.1526 -22.1431 -0.407662 -0.89636 0.173327
-7.02939 62.7697 -23.0147 -0.498721 -0.85461 0.144638
-6.15269 62.3657 -22.8155 -0.438552 -0.868688 0.230334
-5.02804 61.891 -22.6058 -0.407407 -0.862341 0.298892
-4.01271 61.4175 -22.4756 -0.382129 -0.847429 0.360944
-3.07747 61.1118 -22.4041 -0.343079 -0.789062 0.496219
-1.94503 60.8147 -22.117 -0.311302 -0.717526 0.623094
-0.823139 60.7649 -21.7302 -0.151786 -0.64026 0.753012
0.480787 60.9138 -21.3282 -0.0282876 -0.791594 0.610392
1.39587 61.0978 -21.0548 -0.0126827 -0.722381 0.684922
2.6245 61.3149 -20.7656 -0.00257405 -0.785204 0.619214
3.54602 61.4012 -20.6388 0.0179148 -0.817793 0.575234
4.45537 61.4854 -20.5872 0.0423266 -0.816653 0.575251
5.55362 61.8373 -20.6971 0.304194 -0.847008 0.420713
6.53885 62.0844 -20.8292 0.325389 -0.902407 0.272005
7.36871 62.3591 -21.0904 0.396032 -0.89593 0.201165
8.21288 62.6391 -21.5021 0.388074 -0.898842 0.203546
9.03201 62.8822 -21.9623 0.431042 -0.886501 0.151759
9.76679 63.2245 -22.5069 0.446963 -0.889015 0.0913732
10.5625 63.5652 -23.0232 0.449093 -0.892871 0.0331045
11.4032 63.9693 -23.4128 0.440594 -0.897314 0.0113287
12.5071 64.5349 -23.6754 0.442462 -0.896649 -0.00782078
13.7692 65.1592 -23.6539 0.449027 -0.892691 -0.0384403
14.9099 65.6914 -23.5016 0.422204 -0.90532 -0.0451929
15.7282 66.0547 -23.3696 0.415315 -0.906559 -0.0752549
16.8918 66.5434 -22.9837 0.400031 -0.91306 -0.0793506
18.1921 67.0645 -22.5272 0.385538 -0.919823 -0.072702
19.4294 67.5427 -22.1008 0.375697 -0.923731 -0.0746463
20.4194 67.9103 -21.6847 0.372527 -0.924938 -0.0755742
21.6457 68.3553 -21.1117 0.370696 -0.925659 -0.0757568
22.5106 68.6557 -20.4076 0.381344 -0.922567 -0.0587168
23.3126 68.9291 -19.6283 0.371369 -0.926078 -0.0668142
24.1195 69.2103 -18.786 0.376712 -0.925077 -0.0481841
24.7415 69.4244 -18.0293 0.371019 -0.927467 -0.0463607
25.3618 69.6222 -16.963 0.367579 -0.929072 -0.0413602
25.7697 69.7411 -15.6898 0.36555 -0.930425 -0.0254468
25.9569 69.7829 -14.51 0.361327 -0.932311 -0.0147244
25.9445 69.7617 -13.069 0.364346 -0.931169 -0.0120162
25.6757 69.6534 -11.9036 0.364096 -0.931358 -0.00239775
25.2996 69.5263 -10.8749 0.357147 -0.933901 0.0166099
24.8594 69.3883 -10.0039 0.356953 -0.933408 0.0365219
24.4024 69.2507 -9.21136 0.362 -0.9311 0.0448245
23.8488 69.0819 -8.356 0.359903 -0.930832 0.0634189
23.2138 68.8976 -7.48163 0.356293 -0.932041 0.065968
22.4169 68.6586 -6.58695 0.352852 -0.933195 0.0680697
21.5915 68.4021 -5.86493 0.350065 -0.93424 0.068187
20.5769 68.0913 -5.00764 0.350541 -0.933051 0.0806364
19.8173 67.8646 -4.37529 0.34575 -0.935053 0.0783006
19.0521 67.616 -3.95274 0.347142 -0.934623 0.0772797
17.7896 67.1845 -3.50133 0.347027 -0.934526 0.078945
16.675 66.7792 -3.35211 0.351023 -0.933164 0.077351
15.4204 66.3068 -3.27814 0.355708 -0.931799 0.0722712
14.0648 65.7696 -3.41775 0.355853 -0.932862 0.0560072
13.1992 65.4148 -3.48119 0.369191 -0.928637 0.03648
12.2096 65.0086 -3.57852 0.389235 -0.920568 0.032404
11.2734 64.6153 -3.6934 0.401936 -0.915503 -0.00277469
10.3198 64.1832 -3.87226 0.414704 -0.909867 -0.0127584
9.29072 63.7775 -4.08392 0.386322 -0.920899 -0.0519661
8.06468 63.2939 -4.26891 0.337478 -0.9378 -0.0782741
7.10224 62.9741 -4.30396 0.339846 -0.929034 -0.131237
6.16101 62.6403 -4.24099 0.262257 -0.942061 -0.205707
5.30038 62.3669 -4.03632 0.198323 -0.948844 -0.24155
4.52393 62.1034 -3.65942 0.197711 -0.934851 -0.294896
3.48033 61.7095 -3.19351 0.136694 -0.899043 -0.415578
2.28161 61.5637 -3.0616 -0.0124899 -0.919689 -0.39245
1.06616 61.7061 -3.35037 -0.0874204 -0.916466 -0.383897
0.184324 62.0028 -3.70819 -0.157436 -0.915206 -0.37096
-0.706787 62.273 -4.09336 -0.191506 -0.957099 -0.207324
-1.61327 62.5487 -4.22567 -0.275231 -0.94931 -0.151852
-2.52191 62.8157 -4.24824 -0.308535 -0.939314 -0.145771
-3.87509 63.2571 -4.03575 -0.308171 -0.94679 -0.0925584
-5.02775 63.6184 -3.80022 -0.290318 -0.953702 -0.0722268
-6.21942 63.9568 -3.43792 -0.28845 -0.956246 -0.0488879
-7.14624 64.229 -3.12748 -0.298486 -0.953512 -0.0414772
-7.9953 64.4743 -2.88 -0.278668 -0.960346 -0.00400327
-8.94335 64.752 -2.62403 -0.286184 -0.958108 0.00831474
-10.0106 65.0652 -2.51774 -0.267463 -0.963349 0.0205608
-11.0492 65.3507 -2.59488 -0.265578 -0.963856 0.0211925
-11.9199 65.5881 -2.72582 -0.266752 -0.963362 0.027811
-12.9144 65.8594 -2.87626 -0.263233 -0.964303 0.0284285
-13.9771 66.1399 -3.08521 -0.25987 -0.965107 0.0321607
-14.9797 66.3997 -3.39971 -0.26206 -0.964251 0.0392271
-16.0927 66.6885 -3.76947 -0.263727 -0.963948 0.0353802
-16.947 66.9117 -4.1621 -0.265063 -0.963813 0.0283614
-17.91 67.1595 -4.6501 -0.2609 -0.964986 0.0270687
-19.0859 67.4637 -5.25508 -0.261919 -0.964893 0.0194897
-20.0122 67.7042 -5.8063 -0.262652 -0.964743 0.0166297
-20.7822 67.9061 -6.3676 -0.262946 -0.96471 0.0138951
-21.715 68.1536 -7.21877 -0.259572 -0.965723 0.00145046
-22.5374 68.3839 -8.28261 -0.266782 -0.963682 -0.0120606
-23.0425 68.5389 -9.15421 -0.268957 -0.962854 -0.0239059
-23.3771 68.6687 -10.516 -0.271124 -0.962114 -0.0287711
-23.2481 68.6687 -11.6798 -0.276525 -0.960414 -0.0337308
-22.8936 68.6069 -12.9302 -0.284116 -0.958295 -0.0307923
-22.3015 68.4676 -14.0132 -0.288875 -0.956657 -0.0368667
-21.5023 68.2645 -15.1061 -0.296664 -0.95428 -0.036599
-20.7613 68.0682 -16.0105 -0.298723 -0.953506 -0.0396908
-19.9936 67.8636 -16.9136 -0.30714 -0.950585 -0.0453025
-19.3232 67.6853 -17.7435 -0.309493 -0.94962 -0.0490871
-18.7411 67.5317 -18.4941 -0.316771 -0.947288 -0.0479724
-17.9441 67.3104 -19.4736 -0.320474 -0.946289 -0.0428194
-17.2594 67.1053 -20.1896 -0.333234 -0.941873 -0.0418694
-16.3669 66.8275 -21.0015 -0.336227 -0.940634 -0.0463669
-15.3413 66.4913 -21.7531 -0.344373 -0.93825 -0.0330605
-14.4429 66.1721 -22.3443 -0.35566 -0.9344 -0.0200632
-13.4237 65.789 -22.8608 -0.373587 -0.927123 -0.029596
-12.1473 65.265 -23.2857 -0.400659 -0.916098 -0.0153835
-11.2653 64.8823 -23.4887 -0.408716 -0.912587 0.0114328
-10.104 64.3451 -23.6541 -0.434739 -0.900259 0.0230955
-8.97974 63.7918 -23.486 -0.489115 -0.869854 0.0621637
-7.83279 63.193 -23.2213 -0.4612 -0.876465 0.138218
-7.59372 63.074 -23.1623 -0.498719 -0.854611 0.144637
-7.40144 62.7795 -24.0803 -0.531631 -0.830266 0.162006
-8.31404 63.3322 -24.3472 -0.53131 -0.838341 0.122044
-9.28271 63.8788 -24.5836 -0.4807 -0.87527 0.0519828
-10.3269 64.4271 -24.6418 -0.437114 -0.898981 0.0276355
-11.22 64.8571 -24.5293 -0.424174 -0.905576 -0.00284687
-12.2035 65.3035 -24.3101 -0.404892 -0.914339 -0.0068482
-13.1974 65.7243 -24.0001 -0.384446 -0.922836 -0.0228338
-14.3609 66.183 -23.5397 -0.367503 -0.929364 -0.034532
-15.2546 66.5102 -22.9872 -0.355253 -0.934002 -0.0378881
-16.1062 66.8037 -22.415 -0.347474 -0.93642 -0.0487854
-16.937 67.0733 -21.7933 -0.340353 -0.938901 -0.0512428
-17.7903 67.3364 -21.0019 -0.330966 -0.942365 -0.0490918
-18.5438 67.556 -20.2129 -0.326237 -0.94369 -0.0549466
-19.4583 67.8019 -19.1151 -0.317289 -0.946789 -0.0536574
-20.2809 68.0187 -18.0847 -0.311113 -0.948838 -0.0539896
-20.9881 68.1944 -17.1879 -0.304943 -0.950638 -0.0574246
-21.7613 68.3966 -16.2988 -0.297993 -0.953601 -0.0428743
-22.5009 68.5855 -15.4306 -0.29309 -0.954989 -0.0457582
-23.1222 68.7384 -14.6088 -0.288871 -0.956658 -0.036858
-23.7086 68.8722 -13.5819 -0.283004 -0.958384 -0.0375435
-24.0957 68.9424 -12.5393 -0.279191 -0.959537 -0.036343
-24.2765 68.9608 -11.5856 -0.274854 -0.960833 -0.0353983
-24.3635 68.9353 -10.1946 -0.270982 -0.962063 -0.0314823
-24.1101 68.8315 -9.09543 -0.26804 -0.962985 -0.0285239
-23.563 68.6561 -8.04895 -0.263053 -0.964554 -0.0209349
-22.7465 68.4259 -6.90617 -0.255325 -0.966852 -0.00244398
-22.0945 68.2549 -6.21059 -0.251718 -0.967754 0.00953544
-21.1441 68.0123 -5.42596 -0.257004 -0.9663 0.0135898
-20.0975 67.7476 -4.70292 -0.259935 -0.965416 0.0199561
-19.1964 67.5179 -4.19952 -0.256594 -0.96623 0.0236648
-18.2525 67.2788 -3.69852 -0.260906 -0.964985 0.0270664
-17.3802 67.058 -3.25187 -0.260128 -0.965032 0.0323455
-16.2276 66.7641 -2.71594 -0.262863 -0.964241 0.0337119
-15.0949 66.4725 -2.38011 -0.262061 -0.964251 0.0392186
-14.1681 66.2304 -2.10888 -0.262944 -0.963956 0.0406013
-12.8696 65.8772 -1.89595 -0.271653 -0.961891 0.031157
-11.9844 65.6343 -1.74039 -0.272839 -0.961715 0.0257621
-11.0265 65.3667 -1.5849 -0.269211 -0.962785 0.0234848
-10.1429 65.1234 -1.51047 -0.267177 -0.96342 0.0209464
-9.13581 64.8245 -1.53436 -0.292023 -0.956364 0.00953662
-7.74663 64.389 -1.90397 -0.307982 -0.951264 -0.0155884
-6.89304 64.12 -2.16706 -0.300311 -0.953598 -0.0215383
-5.98892 63.8362 -2.47901 -0.319509 -0.946738 -0.0398364
-4.75979 63.454 -2.88724 -0.314543 -0.946161 -0.076434
-3.62178 63.0562 -3.10135 -0.363547 -0.923585 -0.121758
-2.44092 62.6415 -3.28736 -0.344033 -0.929476 -0.132913
-1.07825 62.1322 -3.19271 -0.316067 -0.899048 -0.30301
-0.21885 61.7137 -2.81629 -0.23306 -0.909655 -0.334029
0.865713 61.2954 -2.38958 -0.20539 -0.862011 -0.463413
1.79594 61.0874 -2.18517 -0.0311285 -0.874634 -0.481591
3.25636 61.1376 -2.16948 0.0740247 -0.877125 -0.474524
4.18227 61.5035 -2.47198 0.158093 -0.873015 -0.457156
5.04737 61.8793 -2.88927 0.30911 -0.88699 -0.343074
5.95261 62.3466 -3.21427 0.357622 -0.859731 -0.36465
6.92628 62.6979 -3.30991 0.322513 -0.927966 -0.181483
8.30155 63.2788 -3.26015 0.409464 -0.904103 -0.122209
9.62299 63.84 -3.00313 0.42884 -0.898605 -0.0796957
10.5403 64.2729 -2.80317 0.41614 -0.909289 -0.00456922
11.4056 64.6671 -2.66642 0.409124 -0.912458 -0.006177
12.4518 65.1354 -2.56466 0.41607 -0.908976 0.0137721
13.4302 65.5579 -2.45674 0.377836 -0.924563 0.0492226
14.5062 66.0045 -2.37647 0.378625 -0.923819 0.0561121
15.4492 66.3904 -2.27246 0.377127 -0.92393 0.0638762
16.5644 66.8217 -2.3129 0.355016 -0.931842 0.0749882
17.648 67.2231 -2.45105 0.356203 -0.930522 0.0851313
18.904 67.6636 -2.82449 0.351911 -0.931621 0.090776
20.1535 68.0782 -3.39656 0.350768 -0.932093 0.0903545
21.1204 68.3712 -4.18759 0.356379 -0.930446 0.0851637
22.1698 68.6911 -5.08379 0.351564 -0.932407 0.0837497
23.2203 69.0021 -6.04318 0.352757 -0.932285 0.0800423
23.8319 69.1832 -6.76322 0.351598 -0.933888 0.0650444
24.657 69.4182 -7.92305 0.350834 -0.934809 0.0552139
25.1824 69.5677 -8.7275 0.346591 -0.937105 0.04133
25.7462 69.7376 -9.66525 0.350687 -0.935745 0.0374042
26.2197 69.8851 -10.6673 0.359977 -0.932749 0.0199
26.6338 70.0234 -11.854 0.354605 -0.935016 0.000962217
26.9469 70.1468 -13.0715 0.358495 -0.93346 -0.0116018
26.9796 70.1707 -13.99 0.353403 -0.935295 -0.0180539
26.8308 70.1397 -15.2984 0.36182 -0.931954 -0.0229679
26.5726 70.0721 -16.3736 0.361769 -0.931826 -0.0286933
26.0719 69.9293 -17.6227 0.363791 -0.930367 -0.0451272
25.62 69.7953 -18.3942 0.367701 -0.928627 -0.0492181
24.8976 69.5581 -19.3347 0.370159 -0.927373 -0.0544267
24.2171 69.3221 -20.0723 0.372384 -0.92597 -0.062299
23.4468 69.0681 -20.8099 0.367236 -0.92719 -0.073361
22.5906 68.7781 -21.6138 0.377185 -0.923094 -0.0749089
21.7272 68.4778 -22.1893 0.371129 -0.924966 -0.081802
20.7042 68.1041 -22.6028 0.373119 -0.923847 -0.0853706
19.5376 67.6791 -23.1275 0.376998 -0.922337 -0.0846499
18.377 67.2347 -23.539 0.390067 -0.917048 -0.082864
17.2999 66.8002 -23.8782 0.400533 -0.912809 -0.0797083
16.3841 66.4198 -24.2044 0.409799 -0.908905 -0.0771782
15.2726 65.9314 -24.5013 0.426067 -0.902493 -0.0630376
14.3944 65.5157 -24.5989 0.442657 -0.894185 -0.0669836
13.3205 64.971 -24.6932 0.460721 -0.886691 -0.0360558
12.4822 64.5397 -24.6697 0.485145 -0.874184 -0.0208893
11.3205 63.9105 -24.425 0.487546 -0.872372 0.0188289
10.5564 63.4601 -24.109 0.488612 -0.869031 0.0603889
9.71625 63.0487 -23.6166 0.519672 -0.847348 0.109281
8.98885 62.7141 -23.0902 0.488603 -0.859748 0.148662
8.21266 62.407 -22.5198 0.433059 -0.856532 0.267834
7.19029 62.0395 -21.9711 0.447273 -0.826501 0.340703
6.16349 61.6453 -21.6718 0.432845 -0.830153 0.351225
5.26805 61.2704 -21.5016 0.364438 -0.846908 0.387211
4.35963 61.01 -21.4247 0.205017 -0.877813 0.432911
3.236 60.7692 -21.4281 0.126479 -0.706671 0.696146
1.93831 60.4692 -21.5898 -0.00166464 -0.64527 0.763578
0.971457 60.2044 -21.7864 -0.0764021 -0.614386 0.779608
-0.1909 60.0447 -22.1953 -0.196754 -0.616728 0.76219
-1.31372 60.0095 -22.6256 -0.351244 -0.651006 0.671669
-2.25919 60.1395 -22.9724 -0.419783 -0.613893 0.6629
-3.30565 60.585 -23.2482 -0.394948 -0.73715 0.548294
-4.12254 61.0688 -23.3785 -0.534948 -0.705668 0.464612
-5.37423 61.7081 -23.5672 -0.502723 -0.796751 0.335347
-6.39608 62.2232 -23.8049 -0.526602 -0.826227 0.200099
-7.20069 62.6698 -24.0228 -0.513219 -0.8347 0.199707
-7.03143 62.4088 -24.9292 -0.546306 -0.830024 0.112297
-7.90258 62.9445 -25.2076 -0.555665 -0.827203 0.073052
-8.66677 63.4407 -25.4647 -0.555029 -0.830323 0.0500739
-9.46501 63.9459 -25.6488 -0.478371 -0.877905 0.0210699
-10.429 64.4697 -25.6533 -0.468173 -0.883445 0.0118943
-11.2247 64.8664 -25.5628 -0.422751 -0.906219 -0.00697514
-12.1863 65.3196 -25.336 -0.423907 -0.905421 -0.0198885
-13.3197 65.809 -25.0261 -0.387019 -0.921561 -0.0306749
-14.3916 66.2405 -24.6608 -0.379936 -0.923888 -0.0456072
-15.2472 66.5622 -24.1936 -0.36724 -0.929276 -0.0397566
-16.014 66.8342 -23.6625 -0.358287 -0.932238 -0.0506166
-16.8985 67.1321 -23.0432 -0.349262 -0.934527 -0.0683765
-17.8189 67.4272 -22.3548 -0.344993 -0.93714 -0.0524335
-18.4847 67.6218 -21.6435 -0.332173 -0.941343 -0.0593337
-19.1326 67.8027 -20.9325 -0.327597 -0.942845 -0.0610208
-19.8157 67.9892 -20.1575 -0.324074 -0.944027 -0.0615525
-20.4177 68.142 -19.3348 -0.318307 -0.9458 -0.064046
-21.0086 68.2874 -18.6193 -0.312128 -0.948077 -0.0610502
-21.6693 68.4535 -17.8659 -0.304003 -0.950614 -0.0623495
-22.6073 68.6889 -16.8192 -0.30248 -0.951357 -0.0585256
-23.1915 68.8303 -16.144 -0.288459 -0.956332 -0.0470556
-23.8405 68.9911 -15.4072 -0.287731 -0.956669 -0.044678
-24.4224 69.1172 -14.3689 -0.287204 -0.95681 -0.045043
-24.9022 69.2133 -13.4404 -0.274716 -0.960706 -0.0396818
-25.1848 69.2444 -12.1935 -0.276896 -0.960183 -0.0371079
-25.3356 69.2414 -11.0084 -0.27348 -0.961031 -0.0401123
-25.2739 69.1756 -9.71967 -0.268447 -0.962643 -0.0354129
-25.0444 69.0791 -8.82932 -0.265462 -0.963523 -0.0338082
-24.4786 68.8926 -7.64168 -0.256652 -0.966227 -0.023137
-23.8875 68.7193 -6.77695 -0.247871 -0.968693 -0.013589
-23.293 68.5588 -5.99772 -0.241012 -0.970464 -0.00378217
-22.223 68.2956 -5.06424 -0.247559 -0.968863 0.00428424
-21.4725 68.1177 -4.50903 -0.256034 -0.966458 0.0201473
-20.4113 67.8519 -3.75638 -0.256368 -0.966376 0.0198087
-19.4342 67.6071 -3.19683 -0.252867 -0.967157 0.0254093
-18.5361 67.3864 -2.57573 -0.255779 -0.966334 0.0278468
-17.6919 67.1729 -2.25826 -0.255456 -0.966453 0.0266347
-16.8473 66.9676 -1.86123 -0.258368 -0.965079 0.0432333
-15.9905 66.7508 -1.55399 -0.261962 -0.964129 0.0427867
-14.6889 66.4086 -1.22856 -0.262516 -0.964139 0.0390129
-13.7739 66.1736 -1.03686 -0.276773 -0.959253 0.0568276
-12.6026 65.8331 -0.920122 -0.292493 -0.955855 0.027385
-11.5713 65.54 -0.630189 -0.274099 -0.961547 0.0172492
-10.5765 65.2642 -0.525706 -0.266273 -0.963696 0.0197345
-9.66044 65.0048 -0.514155 -0.300027 -0.953161 0.0362802
-8.61153 64.6779 -0.601626 -0.310147 -0.950032 0.031167
-7.60082 64.3375 -0.789983 -0.310339 -0.950626 -2.35346e-05
-6.56339 63.9869 -1.24331 -0.331993 -0.943022 -0.018101
-5.539 63.6475 -1.59995 -0.322584 -0.94598 -0.0320234
-4.43158 63.2628 -1.95045 -0.348391 -0.934524 -0.0727189
-3.1921 62.7352 -2.22708 -0.418203 -0.893224 -0.156765
-2.29206 62.3611 -2.3034 -0.401942 -0.894071 -0.197688
-1.38282 61.9497 -2.29112 -0.43345 -0.843383 -0.29598
-0.346357 61.3061 -1.74404 -0.297546 -0.860039 -0.414488
0.668508 60.859 -1.44793 -0.275753 -0.833247 -0.472811
1.8224 60.544 -1.26647 -0.0729111 -0.805968 -0.587452
2.76736 60.4878 -1.18202 0.0676874 -0.813041 -0.578258
3.94712 60.8227 -1.42722 0.173556 -0.831661 -0.527087
5.37591 61.616 -2.01984 0.311472 -0.828464 -0.461976
6.14292 62.0435 -2.28245 0.442638 -0.804305 -0.381518
7.39152 62.7034 -2.34109 0.471729 -0.8479 -0.233361
8.40063 63.1691 -2.23107 0.473627 -0.864472 -0.154915
9.32643 63.6467 -1.96011 0.449701 -0.892392 -0.0374915
10.3897 64.1659 -1.80859 0.439805 -0.897227 -0.03943
11.5104 64.7297 -1.6508 0.427462 -0.903556 0.0284957
12.4397 65.1722 -1.42596 0.410606 -0.911189 0.0306696
13.679 65.7102 -1.43303 0.404492 -0.913217 0.0453134
14.7377 66.1627 -1.32688 0.386782 -0.920314 0.0584594
15.5738 66.52 -1.22291 0.381816 -0.921695 0.0685167
16.4464 66.8623 -1.26112 0.361566 -0.929161 0.0770033
17.3892 67.2161 -1.41874 0.367251 -0.925885 0.087776
18.5905 67.6603 -1.67033 0.361475 -0.926845 0.10146
19.7818 68.0596 -2.13895 0.349959 -0.932535 0.0889162
20.8764 68.4229 -2.68222 0.354134 -0.930877 0.0897563
21.7775 68.6922 -3.48086 0.361386 -0.92795 0.0911505
22.4914 68.9001 -4.09025 0.344923 -0.933899 0.0934797
23.2317 69.1221 -4.70824 0.346752 -0.934214 0.0836604
23.9617 69.3256 -5.50335 0.3454 -0.935544 0.0738645
24.6951 69.5247 -6.41084 0.336117 -0.940399 0.051713
25.4222 69.7338 -7.42859 0.348141 -0.935961 0.0521886
26.0706 69.9147 -8.41094 0.34492 -0.936469 0.0633031
26.6954 70.088 -9.49503 0.328988 -0.943858 0.0299986
27.1091 70.2238 -10.3139 0.344956 -0.93846 0.0167719
27.5455 70.37 -11.4727 0.354925 -0.934894 0.0013408
27.7657 70.4473 -12.4195 0.346695 -0.93793 -0.00293711
27.9538 70.529 -13.3656 0.348775 -0.937127 -0.0122004
27.9416 70.5408 -14.3065 0.350207 -0.936513 -0.0167099
27.8748 70.5438 -15.5365 0.355011 -0.934575 -0.0231708
27.5919 70.464 -16.394 0.351392 -0.935816 -0.0275847
27.1744 70.3395 -17.3844 0.344901 -0.938131 -0.0308775
26.6975 70.2138 -18.3414 0.364291 -0.929842 -0.0518294
25.9039 69.9736 -19.547 0.368263 -0.927965 -0.0569317
25.184 69.7411 -20.4327 0.374078 -0.925199 -0.0634755
24.5456 69.5383 -21.2127 0.366709 -0.926712 -0.0820381
23.7569 69.2811 -21.9069 0.379166 -0.922542 -0.0717579
22.961 69.0044 -22.4969 0.376402 -0.922897 -0.0811189
22.0054 68.6751 -23.1368 0.371223 -0.924339 -0.0882481
21.198 68.3842 -23.4744 0.366262 -0.92617 -0.0896791
20.3119 68.0648 -23.8669 0.372889 -0.922998 -0.0949412
19.2723 67.6818 -24.2584 0.381382 -0.919061 -0.0993661
18.2871 67.2981 -24.6238 0.395945 -0.913644 -0.0920933
17.3952 66.93 -24.869 0.410754 -0.907007 -0.0928431
16.0802 66.381 -25.3881 0.41147 -0.908381 -0.0744121
15.1935 65.9841 -25.5575 0.434569 -0.896949 -0.0814402
14.3578 65.5694 -25.6039 0.463746 -0.88284 -0.07438
13.5498 65.1459 -25.6899 0.47589 -0.878057 -0.0494593
12.744 64.716 -25.6624 0.484853 -0.873623 -0.036485
11.5164 64.0167 -25.4914 0.487501 -0.873062 -0.0102222
10.7649 63.5384 -25.2433 0.521877 -0.851551 0.0500465
9.72951 62.8987 -24.7085 0.550349 -0.828101 0.0943574
8.75078 62.3583 -24.0072 0.57626 -0.799556 0.164377
7.94269 61.9574 -23.4497 0.492929 -0.835756 0.241936
7.04997 61.6021 -22.8581 0.554519 -0.770795 0.295759
6.05403 61.1394 -22.5076 0.501818 -0.752675 0.426171
5.25333 60.6494 -22.313 0.488882 -0.657174 0.567642
4.2607 60.307 -22.1258 0.33544 -0.641511 0.686301
3.39428 60.0142 -22.0572 0.131544 -0.526494 0.838895
2.24504 59.7127 -22.0519 0.0619963 -0.427001 0.894696
0.717749 59.3097 -22.3847 -0.170629 -0.455746 0.87044
-0.169885 59.1846 -22.6937 -0.282229 -0.466196 0.836182
-1.4783 59.158 -23.3414 -0.437836 -0.459847 0.772555
-2.6249 59.5321 -23.8394 -0.490569 -0.590416 0.640898
-3.68843 60.2639 -24.1523 -0.600399 -0.640001 0.464754
-4.4746 60.7871 -24.2621 -0.590623 -0.706733 0.384826
-5.45457 61.4008 -24.5316 -0.509448 -0.81624 0.272423
-6.23207 61.8748 -24.6888 -0.568368 -0.798584 0.182802
-6.68323 62.1949 -24.8164 -0.571064 -0.81266 0.112051
