-9.94474 67.1687 -21.7891 -0.349523 -0.93338 0.081287
-8.72943 66.7073 -21.9477 -0.340408 -0.93569 0.0919957
-7.3709 66.1692 -22.1784 -0.327772 -0.933253 0.145836
-6.07014 65.6552 -22.2834 -0.32148 -0.926219 0.194425
-4.74371 65.1416 -22.4358 -0.335015 -0.901664 0.273435
-3.72044 64.7732 -22.6443 -0.291353 -0.903854 0.310475
-2.79472 64.3341 -22.9533 -0.209515 -0.879782 0.426716
-1.73895 63.8184 -23.5581 -0.191893 -0.852735 0.478878
-0.962372 63.2034 -24.2071 -0.167841 -0.788832 0.586802
-0.195382 62.3848 -25.0056 -0.1082 -0.705453 0.693118
0.432279 61.5451 -25.6118 -0.11167 -0.629522 0.768916
1.21809 61.2394 -25.748 -0.0123742 -0.610783 0.78506
1.82664 61.9687 -25.2751 0.05518 -0.643975 0.759477
2.44884 62.6797 -24.6556 0.19339 -0.714334 0.671257
3.11365 63.3065 -24.0702 0.19014 -0.790702 0.581782
3.93647 63.9208 -23.5569 0.308937 -0.826914 0.463812
4.68913 64.3309 -23.2251 0.259691 -0.88468 0.387172
5.87058 64.8192 -22.9148 0.277401 -0.891173 0.358969
6.87706 65.2084 -22.7726 0.309748 -0.918192 0.246939
7.75338 65.5344 -22.777 0.379303 -0.891151 0.248954
8.81892 65.9849 -22.8991 0.426347 -0.884998 0.187068
10.0138 66.5168 -22.9869 0.406314 -0.907228 0.107601
10.9051 66.9381 -22.8425 0.388342 -0.917811 0.0825453
11.7775 67.3354 -22.6451 0.410674 -0.910257 0.0507449
12.7592 67.7693 -22.3837 0.392545 -0.919417 0.0239013
13.6526 68.1541 -22.1252 0.384915 -0.922791 0.0120933
14.8816 68.6683 -21.7194 0.391253 -0.920097 -0.0183919
15.7947 69.0316 -21.327 0.378219 -0.924996 -0.0364993
16.6141 69.3525 -20.8716 0.382241 -0.923087 -0.0424491
17.7059 69.7657 -20.1666 0.374045 -0.926451 -0.0421686
18.5408 70.0723 -19.5398 0.368954 -0.92843 -0.0434886
19.2132 70.3158 -18.9605 0.374854 -0.925819 -0.0483031
20.1139 70.6319 -18.0671 0.370682 -0.927763 -0.0430207
20.8185 70.8702 -17.1173 0.373707 -0.926451 -0.0450548
21.3474 71.0471 -16.0683 0.372152 -0.927846 -0.024588
21.646 71.1309 -14.6996 0.366323 -0.930268 -0.020207
21.6718 71.1197 -13.5156 0.371267 -0.928491 -0.00804562
21.5489 71.0639 -12.4054 0.362596 -0.931915 0.0059349
21.2567 70.9607 -11.4642 0.363395 -0.931574 0.0107008
20.9128 70.841 -10.6365 0.357014 -0.93402 0.011004
20.429 70.6693 -9.47728 0.35094 -0.936082 0.0227548
19.7347 70.4366 -8.34844 0.355843 -0.934287 0.0217604
18.9228 70.162 -7.29519 0.350386 -0.935966 0.0345926
18.2811 69.9429 -6.66342 0.351836 -0.935684 0.0265883
17.5046 69.6728 -6.10393 0.344827 -0.938158 0.0308791
16.3873 69.2787 -5.61462 0.339636 -0.940351 0.0196937
15.3344 68.903 -5.33891 0.34615 -0.938053 0.013274
14.0432 68.424 -5.08161 0.346658 -0.937966 0.00696968
12.8979 67.9952 -4.96058 0.346178 -0.93808 -0.0123934
12.0055 67.6713 -4.86475 0.337416 -0.940859 -0.0277957
11.0941 67.3329 -4.80569 0.345702 -0.937618 -0.0369016
10.0441 66.97 -4.70723 0.331571 -0.941492 -0.0572306
9.08326 66.6246 -4.64278 0.32655 -0.942193 -0.0750875
8.05665 66.2624 -4.56256 0.339595 -0.934939 -0.0988704
7.15211 65.943 -4.33573 0.299888 -0.944763 -0.132249
6.32394 65.652 -4.09463 0.248509 -0.953969 -0.166591
5.06628 65.2103 -3.60491 0.22227 -0.954189 -0.195578
3.85162 64.8819 -3.12221 0.118913 -0.967276 -0.216011
2.82735 64.7523 -2.82903 0.0591677 -0.972973 -0.223209
1.63765 64.7228 -2.86618 -0.0283957 -0.957224 -0.287952
0.570314 64.8765 -3.15078 -0.132404 -0.965196 -0.222834
-0.520931 65.0812 -3.52711 -0.16215 -0.964978 -0.200641
-1.3692 65.3268 -3.85129 -0.202295 -0.962068 -0.18302
-2.65805 65.6936 -4.2192 -0.239152 -0.95931 -0.149981
-3.9111 66.044 -4.37527 -0.259819 -0.958276 -0.117329
-5.10266 66.3654 -4.42284 -0.264448 -0.959188 -0.100123
-6.073 66.6182 -4.38692 -0.250997 -0.9661 -0.0602825
-7.05522 66.8697 -4.30152 -0.260124 -0.96398 -0.0548465
-8.45781 67.2414 -4.15104 -0.25382 -0.966665 -0.0336664
-9.58659 67.5398 -4.19657 -0.256565 -0.966089 -0.0285468
-10.4613 67.775 -4.28024 -0.256833 -0.966377 -0.0123677
-11.3557 68.0152 -4.40159 -0.259656 -0.965602 -0.0138655
-12.442 68.3137 -4.66185 -0.259381 -0.965758 0.00582423
-13.6493 68.6427 -5.15224 -0.271491 -0.962395 0.00942862
-14.4688 68.8684 -5.61285 -0.268439 -0.963229 0.0113659
-15.2516 69.0808 -6.20307 -0.275654 -0.961224 0.00796218
-16.1472 69.3307 -7.04583 -0.275188 -0.961371 0.00568683
-16.8134 69.5216 -7.74573 -0.279556 -0.960122 0.00373772
-17.5585 69.733 -8.61422 -0.276808 -0.960914 0.00443845
-18.2141 69.9205 -9.7164 -0.280373 -0.959891 8.46607e-05
-18.3784 69.9667 -10.6284 -0.28461 -0.958633 0.000691913
-18.2605 69.9393 -11.7085 -0.287578 -0.957684 -0.011874
-17.9303 69.8522 -12.8117 -0.289803 -0.957051 -0.00783466
-17.5912 69.755 -13.6888 -0.291655 -0.956482 -0.00868365
-17.032 69.5976 -15.0154 -0.295473 -0.955314 -0.00826063
-16.4827 69.4386 -16.3066 -0.299269 -0.954126 -0.00876607
-15.8283 69.242 -17.6332 -0.302662 -0.953019 -0.0112862
-15.1109 69.0164 -18.7651 -0.301177 -0.953535 -0.000605908
-14.4827 68.8113 -19.4262 -0.30589 -0.952027 0.00873302
-13.743 68.5607 -20.088 -0.322179 -0.946504 0.0181887
-13.0278 68.3067 -20.6179 -0.325124 -0.945457 0.0198954
-12.1857 68.0033 -21.1177 -0.321153 -0.946617 0.0264029
-11.1284 67.6189 -21.5302 -0.328606 -0.943286 0.0472114
-10.3102 67.3139 -21.7202 -0.346895 -0.935423 0.0656833
-10.5165 67.305 -22.7146 -0.361831 -0.929525 0.0696971
-9.371 66.8441 -22.8677 -0.372682 -0.919474 0.125201
-8.0056 66.2836 -23.0622 -0.368795 -0.91715 0.147831
-7.17085 65.9007 -23.1885 -0.371926 -0.911845 0.17267
-6.13425 65.4539 -23.2252 -0.386434 -0.892762 0.231613
-5.06389 64.9962 -23.3511 -0.368418 -0.890891 0.263309
-4.13627 64.5797 -23.5125 -0.307914 -0.886632 0.34507
-3.18282 64.1118 -23.8098 -0.329353 -0.876076 0.352161
-2.40977 63.5672 -24.2034 -0.311904 -0.793749 0.513213
-1.78634 63.0612 -24.7147 -0.253055 -0.789641 0.557098
-1.07457 62.1862 -25.3727 -0.252056 -0.649236 0.717117
-0.494396 61.3319 -25.946 -0.226368 -0.563147 0.793891
0.0311065 60.4436 -26.3745 -0.162177 -0.5267 0.829845
0.947098 59.9742 -26.5613 -0.0578524 -0.252406 0.96589
1.89589 60.5303 -26.2385 0.123859 -0.445396 0.886725
2.52781 61.3892 -25.798 0.136217 -0.586593 0.797416
3.01649 62.1365 -25.3726 0.193422 -0.62832 0.748727
3.54084 62.7558 -24.89 0.342365 -0.691464 0.636132
4.19205 63.4317 -24.4414 0.314098 -0.790086 0.526391
5.054 64.0534 -24.0539 0.31504 -0.813886 0.485382
5.89546 64.4612 -23.8141 0.282036 -0.862516 0.416705
6.77963 64.8495 -23.6921 0.346546 -0.865752 0.361081
7.61486 65.2216 -23.6978 0.460474 -0.841029 0.282333
8.6638 65.7128 -23.8403 0.430734 -0.872007 0.228192
9.60508 66.1656 -23.9511 0.461779 -0.876299 0.137329
10.566 66.6548 -23.9171 0.423508 -0.897114 0.125808
11.5597 67.1634 -23.716 0.425431 -0.901397 0.0805754
12.4216 67.5757 -23.475 0.412423 -0.910131 0.0357711
13.2462 67.9712 -23.2281 0.412745 -0.910532 0.014678
14.3316 68.4493 -22.9243 0.404797 -0.914404 0.00208886
15.3954 68.9026 -22.5653 0.389446 -0.920864 -0.0184894
16.6349 69.4072 -21.9703 0.392434 -0.918544 -0.0476682
17.7703 69.8465 -21.2743 0.380114 -0.923461 -0.0522866
18.6196 70.1647 -20.67 0.385631 -0.920843 -0.0574533
19.3044 70.411 -20.1157 0.379343 -0.923647 -0.0539589
19.9575 70.6461 -19.5376 0.374514 -0.925827 -0.0507871
20.6913 70.9057 -18.8333 0.376229 -0.925081 -0.0517446
21.2859 71.1076 -18.1264 0.375273 -0.925653 -0.0481757
22.0223 71.3441 -16.8958 0.379235 -0.924175 -0.04549
22.3873 71.4521 -15.896 0.373883 -0.926788 -0.0340396
22.5816 71.5063 -14.855 0.3777 -0.925796 -0.0156659
22.6103 71.4987 -13.7241 0.377641 -0.925814 -0.0159724
22.5492 71.4606 -12.64 0.370766 -0.928677 0.000734013
22.3534 71.3918 -11.7303 0.371805 -0.928246 0.0109019
21.9858 71.2569 -10.788 0.372102 -0.928042 0.0160411
21.5932 71.1163 -9.85842 0.373281 -0.927561 0.016763
21.2026 70.9821 -8.95229 0.358557 -0.932983 0.0313059
20.5951 70.78 -7.95382 0.366926 -0.929811 0.0285661
19.9569 70.5627 -7.07012 0.360598 -0.9317 0.0434801
19.3511 70.363 -6.34797 0.364182 -0.930725 0.0335089
18.6649 70.117 -5.72384 0.364578 -0.930458 0.0363706
17.9566 69.8659 -5.22394 0.345234 -0.938121 0.0272337
16.7801 69.4475 -4.69319 0.346258 -0.937761 0.0266456
15.8319 69.1004 -4.43059 0.357243 -0.933809 0.0192385
14.6263 68.6486 -4.14847 0.362588 -0.931815 0.0113587
13.3442 68.1514 -4.01618 0.353483 -0.935383 -0.00836403
12.3383 67.7659 -3.92094 0.362427 -0.931624 -0.0268863
11.4868 67.4435 -3.84906 0.348476 -0.936851 -0.0295806
10.2646 66.9796 -3.77375 0.347672 -0.935979 -0.0553886
9.39378 66.6578 -3.70803 0.339601 -0.934938 -0.0988654
8.47637 66.2994 -3.63511 0.352655 -0.927681 -0.122648
7.36816 65.8484 -3.41226 0.320596 -0.935303 -0.144419
6.33986 65.4694 -3.09763 0.296888 -0.938911 -0.174082
5.39429 65.1276 -2.71297 0.252809 -0.950501 -0.180653
4.27721 64.7738 -2.25246 0.148429 -0.969421 -0.192613
3.41922 64.616 -1.96252 0.125487 -0.965838 -0.222193
2.49375 64.4663 -1.74563 0.0726106 -0.964662 -0.253288
1.20539 64.4908 -1.9058 -0.0653021 -0.970328 -0.231996
-0.0241773 64.7408 -2.28502 -0.148826 -0.956175 -0.252153
-0.855242 64.947 -2.57467 -0.224908 -0.954602 -0.194135
-1.75143 65.2424 -2.93611 -0.243219 -0.952905 -0.181145
-3.06666 65.6584 -3.34324 -0.271685 -0.947692 -0.164405
-4.02844 65.9498 -3.41589 -0.279912 -0.953081 -0.115268
-5.0483 66.256 -3.45132 -0.268304 -0.959221 -0.0889257
-6.28819 66.6041 -3.40111 -0.276768 -0.956852 -0.0885092
-7.64791 66.9773 -3.23915 -0.26972 -0.96183 -0.0462018
-9.17148 67.4034 -3.16095 -0.265784 -0.963322 -0.0345578
-10.4529 67.75 -3.26393 -0.259853 -0.965359 -0.0236138
-11.6026 68.0762 -3.42962 -0.274861 -0.961468 -0.0039878
-12.7574 68.403 -3.71807 -0.276083 -0.961122 1.46587e-05
-13.6136 68.6429 -4.05042 -0.27234 -0.962148 0.0100798
-14.4107 68.8646 -4.42965 -0.269976 -0.962816 0.00974431
-15.3381 69.1208 -5.01224 -0.277124 -0.960686 0.0168506
-16.0701 69.3228 -5.62017 -0.279029 -0.960153 0.0158033
-16.9137 69.5592 -6.45524 -0.279741 -0.960036 0.00871382
-17.5551 69.74 -7.11526 -0.279648 -0.960079 0.00622597
-18.1801 69.9182 -7.81237 -0.282945 -0.959108 0.00741162
-18.8089 70.099 -8.72443 -0.287718 -0.957712 0.00256869
-19.2723 70.2362 -9.84584 -0.2895 -0.957178 0.000185163
-19.3739 70.2669 -10.8054 -0.289463 -0.957164 -0.0052737
-19.0772 70.1917 -12.2872 -0.289006 -0.957265 -0.0107333
-18.7858 70.1151 -13.2334 -0.302068 -0.953129 -0.0173555
-18.2489 69.9686 -14.4993 -0.303158 -0.952764 -0.0183334
-17.7782 69.838 -15.6113 -0.303803 -0.952655 -0.0123014
-17.278 69.6934 -16.8583 -0.305436 -0.952112 -0.0136634
-16.7932 69.555 -17.8888 -0.304747 -0.952306 -0.0155949
-16.1729 69.3611 -19.0658 -0.308998 -0.951051 -0.00441737
-15.522 69.1576 -19.8007 -0.314148 -0.949324 -0.00353876
-14.7949 68.9097 -20.4728 -0.321434 -0.94693 -3.21556e-05
-14.045 68.6473 -21.1195 -0.333207 -0.942834 0.00604912
-13.2029 68.3427 -21.6684 -0.337047 -0.941157 0.0226757
-12.3955 68.0478 -22.1062 -0.335427 -0.94151 0.0315604
-11.3247 67.6387 -22.5216 -0.357035 -0.932458 0.0534877
-10.6855 67.3742 -22.6839 -0.369157 -0.927582 0.0575786
-10.9479 67.4099 -23.67 -0.379829 -0.921209 0.0842877
-9.41092 66.7468 -23.8635 -0.391112 -0.916337 0.085779
-8.54907 66.3551 -23.967 -0.434125 -0.890632 0.134792
-7.31755 65.7702 -24.1198 -0.399922 -0.89587 0.193506
-6.15542 65.211 -24.1535 -0.413248 -0.872676 0.259711
-5.14087 64.7252 -24.2581 -0.374144 -0.879809 0.293127
-4.28159 64.2889 -24.4114 -0.401341 -0.830214 0.385502
-3.23079 63.6149 -24.8039 -0.367957 -0.801732 0.46832
-2.5846 62.984 -25.268 -0.385471 -0.736218 0.5513
-1.93881 62.1005 -25.8112 -0.338912 -0.662229 0.668275
-1.52858 61.3981 -26.1939 -0.376603 -0.561873 0.736525
-1.03051 60.4148 -26.6628 -0.18414 -0.430316 0.883697
-0.389358 59.293 -26.9312 -0.248315 -0.252381 0.935224
0.459137 58.8909 -26.912 -0.11178 -0.293824 0.949301
1.71458 59.1345 -26.7694 0.0194293 -0.301045 0.953412
2.69496 59.9847 -26.6196 0.140434 -0.224722 0.96425
3.35424 61.1038 -26.255 0.275882 -0.485568 0.819301
3.84081 61.8783 -25.8213 0.326482 -0.56371 0.756513
4.57824 62.9364 -25.2728 0.35864 -0.696601 0.621388
5.48645 63.7421 -24.8422 0.345699 -0.750351 0.559574
6.45879 64.322 -24.6052 0.402554 -0.82605 0.39445
7.43528 64.7881 -24.616 0.48275 -0.824632 0.294848
8.4217 65.2977 -24.7662 0.474921 -0.846847 0.233495
9.3885 65.8579 -24.8988 0.491082 -0.849779 0.189884
10.3487 66.4046 -24.9251 0.508146 -0.849837 0.13987
11.3825 66.9768 -24.7751 0.481583 -0.870373 0.0971652
12.3949 67.5238 -24.5083 0.460406 -0.886673 0.0428568
13.1739 67.9065 -24.264 0.425771 -0.904442 0.0265453
14.0791 68.3479 -23.9914 0.423317 -0.905816 -0.0100068
14.9951 68.763 -23.746 0.417728 -0.908287 -0.0227601
16.1306 69.253 -23.2941 0.397997 -0.916498 -0.0402758
17.1025 69.6501 -22.8006 0.393955 -0.918062 -0.0441178
18.0998 70.0343 -22.208 0.388415 -0.919632 -0.0573171
18.8474 70.3208 -21.6926 0.389824 -0.919338 -0.0534366
19.5562 70.5844 -21.1554 0.381712 -0.922231 -0.0615371
20.354 70.8699 -20.4817 0.380908 -0.922479 -0.0627669
21.1869 71.1572 -19.6809 0.378525 -0.923387 -0.0638302
21.9675 71.4242 -18.7684 0.378255 -0.924066 -0.054922
22.5622 71.6128 -17.8523 0.379235 -0.924176 -0.0454912
23.0182 71.7576 -16.9297 0.382197 -0.923143 -0.0415554
23.3452 71.8447 -15.9402 0.374163 -0.926306 -0.0442548
23.5081 71.8884 -15.0482 0.378888 -0.925293 -0.0166631
23.5435 71.8771 -13.6434 0.375352 -0.926731 -0.0167804
23.4429 71.8235 -12.2204 0.375852 -0.926642 0.00567907
23.1923 71.7337 -11.24 0.373205 -0.927641 0.0136022
22.8232 71.6039 -10.3382 0.372865 -0.927664 0.020265
22.3567 71.4368 -9.27016 0.378074 -0.925553 0.0198897
21.8509 71.2619 -8.21041 0.369802 -0.928415 0.0359549
21.3791 71.1031 -7.458 0.36451 -0.930533 0.0347505
20.7638 70.9006 -6.59687 0.365471 -0.92975 0.0446843
20.1203 70.6868 -5.78165 0.367694 -0.928921 0.0435907
18.9936 70.2872 -4.74824 0.363418 -0.930752 0.04031
18.0947 69.9603 -4.18688 0.362155 -0.93148 0.0344684
17.1999 69.6318 -3.75032 0.35853 -0.932811 0.0363143
16.1877 69.2582 -3.47842 0.359859 -0.93279 0.0201101
15.3096 68.9253 -3.25388 0.362581 -0.931818 0.0113531
14.3903 68.5592 -3.11067 0.367317 -0.930081 0.00384888
13.2098 68.0867 -3.02637 0.372421 -0.927954 -0.0132135
12.1138 67.652 -2.92199 0.376622 -0.925927 -0.0245847
10.774 67.1121 -2.81505 0.357187 -0.932399 -0.0542755
9.46924 66.5743 -2.73763 0.383932 -0.917759 -0.101559
8.20101 66.0494 -2.62256 0.369187 -0.918913 -0.137592
7.05047 65.5612 -2.34401 0.358374 -0.921418 -0.150187
6.01816 65.1343 -1.9314 0.305004 -0.931231 -0.199452
5.16245 64.8277 -1.55914 0.235366 -0.948596 -0.211584
4.04596 64.4752 -1.13191 0.176121 -0.957422 -0.228745
2.86896 64.2452 -0.790378 0.074389 -0.964867 -0.251988
1.51511 64.2056 -0.800503 -0.0255732 -0.956546 -0.290458
0.50009 64.3463 -1.11514 -0.14774 -0.951449 -0.266191
-0.442384 64.6015 -1.40732 -0.175393 -0.959629 -0.219883
-1.4935 64.9435 -1.78802 -0.255651 -0.940595 -0.223437
-2.32984 65.2309 -2.09632 -0.271685 -0.947692 -0.164405
-3.27625 65.5721 -2.36403 -0.29842 -0.943044 -0.147014
-4.20589 65.8793 -2.44994 -0.310827 -0.94045 -0.136612
-5.56566 66.3068 -2.49479 -0.303685 -0.947385 -0.0999714
-6.63582 66.6295 -2.39656 -0.288227 -0.955329 -0.0653545
-7.74091 66.9458 -2.25458 -0.282841 -0.95766 -0.0524357
-8.75114 67.2417 -2.1816 -0.272448 -0.961531 -0.035074
-9.76588 67.5308 -2.22613 -0.278016 -0.96014 -0.0272694
-11.1239 67.9305 -2.34535 -0.277927 -0.960562 -0.00881249
-12.1652 68.2333 -2.52952 -0.274854 -0.961471 -0.00399292
-13.2842 68.5587 -2.83468 -0.280308 -0.959908 0.0019949
-14.1985 68.8171 -3.21704 -0.278625 -0.960307 0.0115372
-15.0516 69.0647 -3.6607 -0.281256 -0.959471 0.0167924
-16.0633 69.345 -4.32457 -0.285055 -0.958209 0.0240196
-16.8882 69.5733 -5.0787 -0.284268 -0.958552 0.019232
-17.976 69.8748 -6.13795 -0.282728 -0.959135 0.0111499
-18.6578 70.0679 -6.87559 -0.283865 -0.958818 0.00939475
-19.3321 70.2587 -7.72538 -0.283852 -0.958841 0.0057619
-19.9461 70.4398 -8.78488 -0.286567 -0.958057 0.0023382
-20.2646 70.5388 -9.83019 -0.291368 -0.956608 -0.00128049
-20.3411 70.5707 -10.9152 -0.299549 -0.954017 -0.011041
-20.1501 70.5257 -12.1209 -0.299722 -0.95394 -0.012843
-19.7561 70.4215 -13.293 -0.297037 -0.954681 -0.0188232
-19.3754 70.3217 -14.2703 -0.303028 -0.952786 -0.0192946
-18.9446 70.2033 -15.1904 -0.303112 -0.952823 -0.0156168
-18.4812 70.0744 -16.3712 -0.314484 -0.949082 -0.0182564
-18.0521 69.9521 -17.439 -0.306355 -0.95179 -0.0155919
-17.5053 69.7988 -18.6048 -0.31588 -0.948595 -0.0181527
-16.8807 69.6035 -19.7197 -0.315293 -0.948926 -0.0114022
-16.1402 69.3718 -20.5891 -0.325764 -0.945262 -0.0145496
-15.1646 69.0372 -21.489 -0.325689 -0.945456 0.00217279
-14.3856 68.7628 -22.1322 -0.339453 -0.940574 -0.000582123
-13.4233 68.4056 -22.701 -0.344684 -0.938606 0.0144248
-12.3706 67.9947 -23.1963 -0.368889 -0.928991 0.0299597
-11.2893 67.5588 -23.5818 -0.374491 -0.924396 0.0709327
-11.4997 67.5802 -24.5841 -0.396144 -0.916915 0.0483314
-12.3748 67.9651 -24.2727 -0.368577 -0.929323 0.0226046
-13.2339 68.3153 -23.8845 -0.368731 -0.929157 0.0262803
-14.1697 68.6753 -23.3866 -0.350923 -0.936346 0.0104397
-14.9996 68.9814 -22.8565 -0.33834 -0.940956 -0.00755006
-15.7811 69.2623 -22.2589 -0.34065 -0.940045 -0.0151372
-16.5158 69.5108 -21.6047 -0.334657 -0.942232 -0.0124941
-17.1253 69.7115 -20.9627 -0.322939 -0.946102 -0.0239421
-17.7964 69.9193 -20.0176 -0.32674 -0.944746 -0.0263779
-18.3172 70.0787 -19.1052 -0.31588 -0.948595 -0.0181526
-18.8315 70.2226 -17.9504 -0.321732 -0.946547 -0.0231721
-19.2058 70.3251 -16.9929 -0.318285 -0.947771 -0.0198427
-19.5657 70.4242 -16.0505 -0.30621 -0.951662 -0.0239749
-20.0455 70.5526 -15.0382 -0.305877 -0.951752 -0.0246525
-20.4723 70.6641 -14.0206 -0.304384 -0.952249 -0.0236014
-20.9669 70.7906 -12.687 -0.304042 -0.95245 -0.0187381
-21.2784 70.8661 -11.2846 -0.297991 -0.954411 -0.0173465
-21.2906 70.8574 -10.3088 -0.294318 -0.955643 -0.011092
-21.0884 70.7856 -9.10541 -0.288699 -0.957416 -0.00291433
-20.7576 70.6834 -8.21337 -0.287268 -0.957846 -4.17523e-06
-20.2504 70.5342 -7.38821 -0.286018 -0.958221 0.00228642
-19.7194 70.3828 -6.60155 -0.281094 -0.959637 0.00909692
-19.1148 70.2145 -5.90893 -0.281184 -0.95955 0.0136768
-18.2 69.9598 -5.00815 -0.281309 -0.959368 0.0218529
-17.289 69.7128 -4.13679 -0.282188 -0.959056 0.0240903
-16.5444 69.5094 -3.49088 -0.284796 -0.958232 0.0260161
-15.4271 69.1923 -2.74345 -0.289183 -0.95704 0.0211402
-14.4792 68.9173 -2.25278 -0.288988 -0.957123 0.0200062
-13.6052 68.6574 -1.88592 -0.287151 -0.957763 0.0124106
-12.7516 68.4098 -1.65298 -0.286782 -0.957958 0.0022067
-11.8398 68.1296 -1.46843 -0.285582 -0.958299 -0.00567052
-10.9041 67.8517 -1.29979 -0.286854 -0.957779 -0.0193347
-9.58276 67.4561 -1.21043 -0.283588 -0.958749 -0.0194596
-8.3641 67.0791 -1.20889 -0.303197 -0.951516 -0.048825
-7.37699 66.7822 -1.33001 -0.294594 -0.953483 -0.0639182
-6.02225 66.3629 -1.49025 -0.305608 -0.948063 -0.0874555
-4.92765 66.0009 -1.53405 -0.303691 -0.947382 -0.0999788
-3.80844 65.6081 -1.49496 -0.337459 -0.928487 -0.154579
-2.84259 65.2389 -1.26241 -0.299623 -0.935395 -0.187781
-1.47062 64.696 -0.748696 -0.269991 -0.930573 -0.245057
-0.523555 64.3436 -0.396045 -0.211078 -0.942027 -0.260829
0.635207 64.0333 0.0138194 -0.105187 -0.961472 -0.253983
1.99988 63.8924 0.269782 0.0118426 -0.963649 -0.266908
3.00153 63.9606 0.183965 0.109564 -0.953271 -0.280049
4.14438 64.2441 -0.121881 0.194566 -0.940296 -0.279262
5.21353 64.5889 -0.527456 0.249085 -0.939665 -0.23449
6.11288 64.957 -0.917724 0.327752 -0.919081 -0.215511
6.92113 65.307 -1.26844 0.340217 -0.922028 -0.183848
7.97657 65.8039 -1.61743 0.388344 -0.907643 -0.159217
9.29021 66.3869 -1.77959 0.403343 -0.904226 -0.137427
10.6247 66.9733 -1.84399 0.39325 -0.915975 -0.0796562
11.839 67.4992 -1.93057 0.379154 -0.924591 -0.0363542
13.0094 67.9923 -2.01876 0.376616 -0.92593 -0.02459
13.843 68.3376 -2.07342 0.385094 -0.922862 0.00532663
14.731 68.7053 -2.10903 0.380283 -0.924856 0.00506386
15.8524 69.1565 -2.35744 0.37728 -0.926009 0.0129193
16.9023 69.56 -2.61621 0.370031 -0.928558 0.0292706
17.9252 69.9408 -2.98021 0.365143 -0.929915 0.0429485
18.7827 70.2587 -3.45803 0.368592 -0.928707 0.0405253
19.9349 70.6815 -4.27785 0.370068 -0.928146 0.0399256
20.7605 70.9716 -5.08884 0.365512 -0.929742 0.0445178
21.5833 71.2445 -6.1426 0.369598 -0.928159 0.0435652
22.1931 71.4501 -7.01378 0.372934 -0.92682 0.0438688
22.6736 71.6068 -7.78767 0.370566 -0.927779 0.0435847
23.2555 71.8083 -9.03285 0.374002 -0.927143 0.02298
23.6777 71.9548 -9.96987 0.373032 -0.92756 0.0218254
24.0378 72.0837 -10.821 0.384177 -0.923099 0.0172316
24.2976 72.1775 -11.6935 0.386862 -0.922091 0.0080604
24.4257 72.2261 -12.9256 0.382878 -0.923789 0.00251693
24.4765 72.2626 -13.9356 0.378216 -0.925505 -0.01984
24.4349 72.2694 -15.1158 0.383585 -0.923249 -0.0207869
24.1679 72.2065 -16.4793 0.381261 -0.923337 -0.0455916
23.6803 72.0685 -17.6712 0.378329 -0.924389 -0.0486971
23.0687 71.8773 -18.7954 0.382552 -0.922112 -0.0579921
22.3776 71.6519 -19.7405 0.380529 -0.923012 -0.0569741
21.7126 71.4259 -20.4632 0.377218 -0.923928 -0.0637494
21.0786 71.2097 -21.0827 0.378519 -0.923389 -0.0638377
20.3927 70.9704 -21.7161 0.383236 -0.921139 -0.0680737
19.5043 70.6477 -22.3827 0.388971 -0.919014 -0.0641382
18.5227 70.2776 -23.0556 0.394041 -0.916692 -0.066393
17.4737 69.86 -23.6753 0.399159 -0.915389 -0.0522882
16.1922 69.3237 -24.3052 0.4087 -0.911844 -0.0387941
15.3611 68.9556 -24.6335 0.41903 -0.907288 -0.0350262
14.5429 68.5653 -24.908 0.428892 -0.903352 0.00274423
13.426 68.0205 -25.2404 0.449193 -0.893221 0.0167756
12.4793 67.5149 -25.5118 0.483467 -0.874726 0.0333855
11.4107 66.9067 -25.7834 0.503632 -0.860513 0.0765789
10.5118 66.3378 -25.9042 0.533533 -0.835905 0.123884
9.31193 65.5691 -25.8369 0.573715 -0.797536 0.186513
8.18317 64.8284 -25.6383 0.595601 -0.754489 0.275691
7.38898 64.401 -25.5141 0.520741 -0.747372 0.401241
6.13346 63.5738 -25.5129 0.40921 -0.720035 0.559554
5.30847 62.7726 -25.8727 0.383791 -0.706958 0.591712
4.8548 62.0502 -26.1994 0.389357 -0.536832 0.748178
4.44756 61.3002 -26.5287 0.400607 -0.414555 0.804032
4.01605 60.3831 -26.7563 0.259364 -0.365636 0.89389
3.25615 59.0928 -26.9222 0.160913 -0.238911 0.957616
2.42834 58.3779 -26.9248 0.100048 -0.166825 0.980897
1.4802 57.9781 -26.9822 -0.0398859 -0.175597 0.983654
0.324204 57.8781 -27.0896 -0.164867 -0.150507 0.974391
-0.913055 58.3637 -27.3045 -0.281822 -0.138759 0.94938
-1.68075 59.5807 -27.2323 -0.324165 -0.275768 0.903311
-2.1405 60.7756 -26.8917 -0.349852 -0.462399 0.812999
-2.57616 61.7105 -26.4749 -0.388704 -0.494131 0.775011
-3.16177 62.678 -25.9635 -0.392502 -0.66369 0.634899
-3.82051 63.4647 -25.538 -0.466761 -0.717078 0.510112
-4.87793 64.2121 -25.1975 -0.401342 -0.830217 0.385494
-6.1786 64.9487 -25.0735 -0.42259 -0.851956 0.304084
-7.28074 65.5289 -25.066 -0.457415 -0.865783 0.202956
-8.19706 66.0176 -25.0768 -0.443468 -0.879068 0.169963
-9.12989 66.5069 -24.9066 -0.421533 -0.898418 0.119665
-10.0117 66.9043 -24.8077 -0.413098 -0.905924 0.0900219
-10.9206 67.324 -24.696 -0.396144 -0.916916 0.0483314
-10.9915 67.2909 -25.6746 -0.418462 -0.90714 0.0445657
-9.98437 66.8115 -25.8123 -0.427115 -0.901583 0.0687073
-9.15007 66.3687 -25.9354 -0.462228 -0.879227 0.112939
-8.38395 65.9503 -26.0687 -0.49818 -0.855573 0.140754
-7.34386 65.3571 -25.9835 -0.545677 -0.824558 0.139767
-6.38246 64.7287 -26.0191 -0.495855 -0.817175 0.293858
-5.57453 64.282 -25.9825 -0.46217 -0.833583 0.302554
-4.87868 63.7032 -26.0666 -0.412629 -0.77697 0.475453
-4.14919 63.0209 -26.3877 -0.520894 -0.657191 0.544766
-3.66316 62.2154 -26.6764 -0.451659 -0.566508 0.685305
-3.26621 61.3872 -27.09 -0.447686 -0.479912 0.754494
-2.94675 60.5274 -27.3845 -0.419424 -0.354735 0.834126
-2.58863 59.3123 -27.6455 -0.414428 -0.278215 0.865113
-2.09825 58.1681 -27.7208 -0.321212 -0.199789 0.925693
-1.47658 57.5359 -27.5417 -0.23139 -0.0705085 0.970303
-0.364111 56.9868 -27.2854 -0.229105 -0.010369 0.972544
1.06587 56.8824 -27.081 -0.0751559 -0.0269935 0.996681
2.58827 57.3625 -27.0497 0.0610853 -0.0495208 0.996903
3.67085 58.0838 -27.1261 0.172445 -0.0878749 0.980082
4.41982 59.0498 -27.1688 0.267609 -0.120286 0.954127
4.90201 60.0411 -27.1132 0.297223 -0.164234 0.939617
5.24226 60.8995 -27.021 0.396122 -0.286155 0.872469
5.81774 62.1156 -26.6814 0.45976 -0.490624 0.736329
6.53227 63.1548 -26.34 0.435116 -0.703457 0.56198
7.44907 63.8746 -26.3893 0.574124 -0.685136 0.448297
8.17096 64.5007 -26.5488 0.659528 -0.68196 0.295966
9.27116 65.3424 -26.764 0.613994 -0.76615 0.179194
10.4454 66.1758 -26.8527 0.574575 -0.808974 0.120766
11.3331 66.7804 -26.8186 0.540311 -0.837443 0.0750596
12.0908 67.2478 -26.7225 0.485156 -0.873474 0.0408201
12.9066 67.7144 -26.4341 0.49688 -0.867165 0.0283339
13.9 68.2553 -26.1051 0.473738 -0.880628 -0.00812424
14.7575 68.6928 -25.8766 0.449545 -0.893101 -0.0151758
15.6982 69.1445 -25.5783 0.42026 -0.906861 -0.031388
16.6267 69.5626 -25.1377 0.41617 -0.9075 -0.0569718
17.7328 70.0366 -24.6026 0.413246 -0.908377 -0.063442
18.5456 70.3664 -24.1291 0.412423 -0.908291 -0.0700378
19.6369 70.7904 -23.4664 0.395102 -0.914273 -0.0894373
20.4388 71.0791 -22.9044 0.387683 -0.919255 -0.0683101
21.3583 71.4042 -22.0903 0.387675 -0.919067 -0.0708827
22.4597 71.7753 -21.0435 0.380192 -0.922376 -0.0683932
23.3012 72.0537 -20.0697 0.381199 -0.922685 -0.0577872
23.8212 72.225 -19.3139 0.38672 -0.920175 -0.0610402
24.3443 72.3811 -18.3727 0.384637 -0.921243 -0.0577962
24.8874 72.54 -17.1604 0.38723 -0.920712 -0.0483142
25.2786 72.6458 -15.8336 0.39429 -0.918487 -0.0296432
25.4442 72.6776 -14.5516 0.388374 -0.920909 -0.0330418
25.4423 72.6513 -13.5299 0.383331 -0.923546 -0.0109655
25.3511 72.6119 -12.4675 0.381219 -0.924465 0.00599514
25.1423 72.5341 -11.4483 0.378883 -0.925391 0.00993098
24.9102 72.4511 -10.5623 0.381927 -0.924046 0.0163781
24.6115 72.3439 -9.66804 0.379905 -0.924718 0.023829
24.1807 72.1889 -8.81534 0.378248 -0.925463 0.0208599
23.7357 72.039 -7.80956 0.378388 -0.92511 0.0315224
23.2492 71.8765 -6.89872 0.368203 -0.928738 0.0432804
22.6618 71.6867 -6.07135 0.37413 -0.925987 0.0503823
21.9127 71.4333 -5.04967 0.376 -0.92521 0.0509764
21.3086 71.2316 -4.31371 0.373608 -0.926342 0.0478274
20.6633 71.0012 -3.66938 0.373646 -0.926551 0.0434921
19.9965 70.7587 -3.10681 0.371013 -0.926868 0.055744
19.1136 70.4423 -2.51298 0.378836 -0.923275 0.0636078
17.9269 69.9973 -1.86741 0.371698 -0.927435 0.0412814
16.8187 69.565 -1.56516 0.374153 -0.926454 0.0411395
15.8645 69.1789 -1.32502 0.377814 -0.925659 0.0203125
14.7542 68.7204 -1.07963 0.38585 -0.922477 0.00983411
13.688 68.2787 -1.07626 0.399757 -0.916373 -0.00692939
12.8525 67.898 -1.07293 0.4015 -0.915456 -0.0229416
11.5662 67.3274 -0.965905 0.415942 -0.907555 -0.0573802
10.3612 66.753 -0.835076 0.425636 -0.899224 -0.098113
9.39874 66.3002 -0.723905 0.422434 -0.898783 -0.11721
8.37836 65.8169 -0.695169 0.433823 -0.88526 -0.160905
7.55736 65.4106 -0.511094 0.389171 -0.89452 -0.219954
6.76846 64.9797 -0.137876 0.357905 -0.903222 -0.234607
5.5512 64.4551 0.360714 0.247826 -0.939662 -0.235834
4.71392 64.1066 0.676535 0.22526 -0.926127 -0.297772
3.79104 63.823 1.00714 0.165433 -0.931514 -0.322961
2.36985 63.5447 1.21774 0.0841488 -0.933059 -0.345679
1.24459 63.5442 1.21049 -0.0542318 -0.936797 -0.345644
0.313295 63.7248 0.99118 -0.149971 -0.933154 -0.326699
-0.695899 64.0641 0.615931 -0.214108 -0.915437 -0.340782
-1.80338 64.5468 0.144197 -0.311938 -0.918829 -0.241762
-2.81288 65.0014 -0.284115 -0.310962 -0.919315 -0.24117
-3.62009 65.3679 -0.534039 -0.345383 -0.921579 -0.177211
-4.6711 65.7826 -0.571912 -0.353678 -0.927401 -0.121818
-5.70588 66.1519 -0.555352 -0.321858 -0.939959 -0.113514
-6.92709 66.5685 -0.400813 -0.310599 -0.947823 -0.0718363
-8.10856 66.9554 -0.227103 -0.317158 -0.946861 -0.0535291
-9.36386 67.3631 -0.210945 -0.29768 -0.954583 -0.0125664
-10.6054 67.7429 -0.287095 -0.286681 -0.957881 -0.0166532
-11.4744 68.0058 -0.410027 -0.287266 -0.957693 -0.0173912
-12.6736 68.3785 -0.634221 -0.292716 -0.956133 -0.0112841
-13.521 68.6555 -0.8311 -0.293688 -0.955427 0.0301186
-14.3939 68.9145 -1.10763 -0.28948 -0.956878 0.0239785
-15.2635 69.1694 -1.53867 -0.290116 -0.956757 0.0211618
-16.1334 69.4221 -2.01809 -0.289569 -0.956933 0.0207054
-17.0248 69.6783 -2.65362 -0.29319 -0.955266 0.0388042
-17.807 69.8841 -3.30898 -0.275398 -0.960789 0.030568
-18.6445 70.1114 -4.09599 -0.283043 -0.958869 0.0212154
-19.5106 70.3444 -4.92675 -0.278769 -0.960128 0.0206792
-20.2818 70.5571 -5.694 -0.285362 -0.958334 0.0124205
-20.9139 70.7377 -6.51668 -0.287669 -0.957709 0.00636182
-21.4651 70.8977 -7.54389 -0.294702 -0.955545 0.00867869
-21.9927 71.0551 -8.75426 -0.283487 -0.95897 -0.00346844
-22.1926 71.1282 -9.7121 -0.294174 -0.955687 -0.0110993
-22.2206 71.1614 -11.1802 -0.301537 -0.95324 -0.0200215
-22.0886 71.1369 -12.1082 -0.304502 -0.952251 -0.0218752
-21.742 71.0583 -13.3568 -0.307554 -0.951212 -0.0246321
-21.2264 70.9239 -14.6119 -0.3091 -0.950709 -0.0246758
-20.8783 70.8399 -15.4408 -0.312552 -0.949356 -0.0317791
-20.3761 70.7039 -16.4691 -0.316971 -0.947986 -0.0291936
-19.939 70.5919 -17.6242 -0.324626 -0.94552 -0.0247078
-19.5751 70.4908 -18.5776 -0.321971 -0.946461 -0.0233809
-18.9161 70.3061 -19.9573 -0.325722 -0.945027 -0.0285706
-18.3722 70.1444 -20.9435 -0.328759 -0.944069 -0.0255085
-17.4343 69.8537 -22.0547 -0.335476 -0.941514 -0.0300252
-16.5481 69.5509 -22.8863 -0.343773 -0.93863 -0.027919
-15.8201 69.2948 -23.4846 -0.347265 -0.937575 -0.0189642
-14.8264 68.9325 -24.1321 -0.358228 -0.933571 -0.0108283
-14.0488 68.6325 -24.6401 -0.378842 -0.925302 0.0171677
-13.2673 68.3066 -24.9624 -0.377966 -0.925666 0.000359544
-12.4571 67.9578 -25.314 -0.397694 -0.917409 0.0141838
-11.7557 67.6506 -25.518 -0.407619 -0.91247 0.0297085
-11.253 67.4137 -25.6311 -0.418006 -0.907334 0.0448949
