-1.24169 64.1763 -24.3275 -0.158676 -0.844855 0.509314
-0.617819 63.5913 -24.9675 -0.168213 -0.768305 0.617047
-0.0960325 62.8951 -25.6482 -0.178685 -0.689084 0.695948
0.256995 62.135 -26.1682 -0.104405 -0.618488 0.774113
0.607612 61.3333 -26.7012 -0.0467993 -0.459693 0.886844
1.11657 60.6081 -27.0385 -0.068291 -0.441045 0.894883
1.63425 61.5461 -26.5367 -0.0575457 -0.450368 0.890864
2.15413 62.5163 -25.8272 0.160059 -0.644555 0.747616
2.61041 63.1767 -25.3556 0.142848 -0.691385 0.70519
3.37249 63.9776 -24.6776 0.222209 -0.776454 0.58436
4.25891 64.5709 -24.0666 0.282724 -0.806094 0.509221
5.03245 65.0384 -23.7606 0.314082 -0.878306 0.36046
5.95665 65.4517 -23.4965 0.305123 -0.897813 0.313413
6.7899 65.8238 -23.3711 0.329681 -0.900699 0.281403
7.75159 66.2178 -23.3404 0.398318 -0.884074 0.244451
8.63871 66.6214 -23.2759 0.428567 -0.885695 0.178535
9.77826 67.1565 -23.156 0.39702 -0.908289 0.130143
10.6792 67.5824 -23.0875 0.398738 -0.910267 0.108256
11.7622 68.0842 -22.8129 0.408835 -0.909932 0.0698467
12.9992 68.6279 -22.4894 0.38314 -0.922577 0.0393588
14.1618 69.1232 -22.0927 0.391567 -0.920141 0.00394581
15.4044 69.6325 -21.5076 0.385377 -0.922551 -0.0177801
16.4581 70.0474 -20.8753 0.37537 -0.926346 -0.0308455
17.5378 70.4521 -20.135 0.371382 -0.927767 -0.036375
18.3153 70.7335 -19.535 0.36743 -0.929015 -0.043886
19.1913 71.0417 -18.7582 0.369562 -0.928009 -0.0469955
19.8942 71.2849 -17.9512 0.373164 -0.926702 -0.0443856
20.4089 71.4538 -17.1844 0.370112 -0.927892 -0.0450975
20.9766 71.6337 -16.0066 0.371215 -0.92808 -0.0294561
21.2657 71.723 -15.1269 0.371697 -0.928085 -0.0223136
21.4075 71.7584 -14.1944 0.372188 -0.928028 -0.0127627
21.3424 71.728 -13.1842 0.369304 -0.929289 -0.00534724
21.2103 71.6695 -12.2067 0.372573 -0.927985 -0.00578475
20.8579 71.5302 -10.8677 0.355879 -0.934523 0.00400842
20.4287 71.3734 -9.80869 0.359141 -0.933174 0.0143123
19.9039 71.186 -8.84324 0.35941 -0.933075 0.0139757
19.2617 70.9614 -7.93616 0.351678 -0.935778 0.0253481
18.5743 70.7217 -7.19628 0.348789 -0.936911 0.0228011
17.8856 70.484 -6.58694 0.345422 -0.93821 0.0209562
17.0077 70.1741 -6.02982 0.341153 -0.93982 0.0187802
16.2041 69.8859 -5.61509 0.343718 -0.938991 0.0119858
15.1914 69.5197 -5.18864 0.346086 -0.938183 0.0050669
14.0071 69.0761 -4.79437 0.351327 -0.936207 -0.00763513
12.8687 68.6538 -4.60788 0.351037 -0.936152 -0.0171276
11.8769 68.2809 -4.5315 0.335294 -0.940695 -0.0516855
10.6378 67.8308 -4.45001 0.341026 -0.938566 -0.0528657
9.48646 67.4066 -4.33481 0.334174 -0.93754 -0.0966779
8.55677 67.0611 -4.20641 0.336231 -0.936761 -0.0971003
7.64447 66.738 -4.01789 0.294901 -0.949143 -0.11028
6.44317 66.3371 -3.6678 0.26964 -0.948402 -0.166358
5.39085 65.9614 -3.25586 0.222037 -0.954009 -0.195455
4.53283 65.7144 -2.86174 0.181037 -0.959353 -0.216491
3.69638 65.4702 -2.47913 0.156051 -0.961203 -0.225877
2.56647 65.2604 -2.14191 0.0763506 -0.977532 -0.191834
1.39276 65.2872 -2.34132 -0.0557255 -0.969255 -0.232746
0.328476 65.4941 -2.68584 -0.114374 -0.966418 -0.230108
-0.593838 65.7072 -3.02276 -0.157145 -0.969837 -0.186336
-1.85162 66.0496 -3.45449 -0.231739 -0.952147 -0.19928
-3.14811 66.4274 -3.78488 -0.246672 -0.959837 -0.133666
-4.44748 66.795 -3.97692 -0.255995 -0.957287 -0.134415
-5.73188 67.1424 -4.03769 -0.256518 -0.963092 -0.0815607
-6.87013 67.4353 -4.02493 -0.239963 -0.967601 -0.0785304
-7.78561 67.6789 -3.98466 -0.249873 -0.967035 -0.0490605
-8.85236 67.9603 -3.93652 -0.261442 -0.964115 -0.0461525
-9.82935 68.2247 -3.94175 -0.264341 -0.964053 -0.0269336
-10.7379 68.4768 -4.04694 -0.268334 -0.96299 -0.0251138
-11.6051 68.7212 -4.3252 -0.265476 -0.964038 -0.0123597
-12.4176 68.9458 -4.64512 -0.25929 -0.965752 -0.0096137
-13.3235 69.1974 -5.03088 -0.271909 -0.962317 0.00297259
-14.1058 69.4161 -5.49594 -0.273026 -0.961999 0.00343653
-15.0438 69.682 -6.14794 -0.275269 -0.961364 0.00221322
-15.9322 69.9383 -6.86351 -0.283431 -0.958949 0.00881253
-16.6579 70.1449 -7.78142 -0.277616 -0.960689 0.00209807
-17.2293 70.308 -8.60083 -0.280727 -0.959783 0.00287321
-17.6898 70.4384 -9.44499 -0.279164 -0.960224 0.00613379
-17.8902 70.4938 -10.4233 -0.280616 -0.959814 -4.23994e-05
-17.8042 70.4703 -11.5428 -0.28334 -0.959019 -0.00124195
-17.5753 70.4052 -12.744 -0.284166 -0.958738 -0.00451015
-17.3133 70.3354 -13.6776 -0.289093 -0.957253 -0.00953954
-16.9974 70.2466 -14.7663 -0.289414 -0.957192 -0.00481655
-16.5224 70.1058 -15.824 -0.288188 -0.957574 -0.000934349
-16.1559 69.9946 -16.689 -0.288727 -0.95741 0.00195439
-15.6603 69.8394 -17.8666 -0.293564 -0.95592 0.00605375
-15.2134 69.6967 -18.6463 -0.298518 -0.95434 0.00932856
-14.2288 69.369 -19.7443 -0.310773 -0.950282 0.0173243
-13.3118 69.0446 -20.5961 -0.308348 -0.950798 0.0296888
-12.2203 68.6663 -21.1896 -0.326035 -0.944403 0.0389073
-11.2157 68.2968 -21.5895 -0.321163 -0.945502 0.0536582
-10.1918 67.9143 -21.8797 -0.328342 -0.941 0.0819107
-9.15297 67.525 -22.0419 -0.344127 -0.931965 0.113155
-7.91671 67.0767 -22.1348 -0.353307 -0.924856 0.137026
-6.60105 66.5773 -22.3042 -0.341226 -0.922199 0.180791
-5.73745 66.2231 -22.5274 -0.313013 -0.923842 0.220316
-4.64574 65.8075 -22.7419 -0.320253 -0.91177 0.254114
-3.80477 65.4704 -22.9912 -0.270197 -0.910476 0.313093
-2.48403 64.8809 -23.5254 -0.269845 -0.870974 0.410595
-1.60138 64.389 -24.0671 -0.235226 -0.850931 0.469664
-1.50542 64.3251 -24.1349 -0.184825 -0.857878 0.476705
-2.09892 64.0994 -24.8006 -0.218823 -0.83835 0.499286
-1.44407 63.4461 -25.3593 -0.217956 -0.771252 0.593937
-0.975033 62.7276 -25.9816 -0.170609 -0.623368 0.763089
-0.562253 61.797 -26.6068 -0.159073 -0.566493 0.808567
-0.197389 60.8344 -27.1261 -0.216625 -0.486419 0.846446
0.166923 59.9086 -27.4294 -0.186988 -0.34597 0.919424
0.782993 59.3036 -27.5317 -0.111198 -0.332847 0.933136
1.85525 59.8756 -27.3161 0.039124 -0.319861 0.945683
2.33915 60.723 -27.0013 0.0958811 -0.465048 0.880078
2.6543 61.7021 -26.6126 0.204937 -0.464262 0.856747
3.36655 62.9232 -25.8493 0.257456 -0.694932 0.671037
4.05581 63.7025 -25.2675 0.315809 -0.707153 0.627372
4.81892 64.3861 -24.8113 0.382473 -0.787574 0.483158
5.63327 64.8963 -24.4932 0.357737 -0.840889 0.402486
6.43693 65.3422 -24.3215 0.346473 -0.873873 0.341033
7.49402 65.8352 -24.2602 0.414704 -0.861245 0.291167
8.53847 66.3518 -24.2346 0.452813 -0.860585 0.231013
9.49149 66.8432 -24.1318 0.467268 -0.861837 0.190623
10.3697 67.3253 -24.0581 0.430498 -0.897529 0.0954686
11.2328 67.7448 -23.9439 0.41291 -0.906207 0.0910777
12.0917 68.1683 -23.7128 0.430937 -0.900883 0.0493221
12.9627 68.5757 -23.4645 0.413985 -0.90975 0.0311638
13.934 69.0092 -23.1704 0.394293 -0.918628 0.025608
14.7746 69.3852 -22.8731 0.398466 -0.917036 -0.0128997
15.5662 69.7157 -22.4989 0.39394 -0.918876 -0.0218605
16.6413 70.1524 -21.8513 0.383654 -0.922785 -0.0357382
17.422 70.4571 -21.3536 0.379694 -0.924226 -0.0401862
18.2811 70.7784 -20.7431 0.377625 -0.924891 -0.0444532
19.292 71.1455 -19.9282 0.374733 -0.925669 -0.0520813
19.9815 71.3873 -19.2784 0.374288 -0.925974 -0.049731
20.9049 71.6978 -18.1146 0.370518 -0.92755 -0.04865
21.4021 71.8544 -17.2606 0.371754 -0.927262 -0.0445379
21.9178 72.0099 -16.0556 0.369294 -0.928867 -0.0287862
22.2016 72.0942 -15.1404 0.368084 -0.92947 -0.0239378
22.2976 72.1098 -13.8501 0.369328 -0.929229 -0.0104691
22.2052 72.0684 -12.5608 0.368683 -0.929555 -0.000797153
21.976 71.9742 -11.4331 0.374552 -0.927206 4.9916e-05
21.6371 71.8414 -10.3483 0.370407 -0.928769 0.0123476
21.1166 71.6552 -9.13543 0.373093 -0.927651 0.0163197
20.634 71.4826 -8.2914 0.361691 -0.931917 0.0266301
20.0414 71.2757 -7.42959 0.363574 -0.931219 0.0254077
19.22 70.9849 -6.50647 0.363079 -0.931155 0.0335181
18.0912 70.5819 -5.54699 0.359004 -0.932731 0.0335878
17.128 70.2357 -5.02525 0.346315 -0.937998 0.0149821
16.1023 69.8661 -4.50172 0.351053 -0.936234 0.0140193
15.1795 69.5192 -4.1468 0.359208 -0.93321 0.00408787
14.0915 69.1018 -3.83121 0.359574 -0.933064 -0.00842915
13.2353 68.7682 -3.70047 0.358159 -0.933434 -0.0192907
12.178 68.3626 -3.6044 0.357638 -0.933241 -0.0332101
11.2947 68.0171 -3.56727 0.369712 -0.927533 -0.0543112
10.1742 67.5807 -3.47112 0.35106 -0.932892 -0.0804164
9.22541 67.216 -3.36258 0.350769 -0.932129 -0.0894877
8.11993 66.7811 -3.17447 0.344197 -0.930963 -0.121808
6.80114 66.2873 -2.80803 0.324071 -0.933158 -0.155544
5.78145 65.9114 -2.39971 0.266502 -0.947455 -0.176932
4.90804 65.5836 -1.98429 0.216237 -0.952744 -0.209777
4.10501 65.3376 -1.58312 0.154525 -0.964578 -0.211625
3.10385 65.1307 -1.21635 0.13762 -0.958758 -0.243898
1.91163 65.0309 -1.20459 0.0656745 -0.962503 -0.263202
0.578138 65.2063 -1.6014 -0.119391 -0.958488 -0.258933
-0.773966 65.5205 -2.09836 -0.166093 -0.956681 -0.239114
-1.86613 65.8662 -2.49439 -0.253357 -0.94867 -0.188782
-2.96005 66.2131 -2.80213 -0.257361 -0.950064 -0.176478
-3.8801 66.5021 -2.99117 -0.284384 -0.94705 -0.148951
-4.86182 66.8009 -3.0877 -0.273218 -0.955918 -0.107575
-5.82794 67.0766 -3.11677 -0.268551 -0.957238 -0.107589
-7.24095 67.4732 -3.07434 -0.26534 -0.962247 -0.0606269
-8.53814 67.8339 -2.99218 -0.271134 -0.961283 -0.0477836
-9.4725 68.0911 -2.96189 -0.274202 -0.961 -0.0359511
-10.4508 68.3702 -3.02603 -0.268324 -0.962993 -0.0251053
-11.4841 68.6681 -3.24937 -0.269212 -0.962832 -0.0215509
-12.3352 68.9149 -3.57012 -0.276327 -0.961007 -0.0104356
-13.4291 69.2292 -4.02141 -0.272508 -0.962152 0.00173616
-14.403 69.5038 -4.52445 -0.276697 -0.960917 0.00615148
-15.4029 69.7956 -5.21214 -0.286939 -0.957898 0.00986275
-16.4201 70.0898 -6.02006 -0.285316 -0.958389 0.00909506
-17.1829 70.3052 -6.90034 -0.282016 -0.959353 0.0104556
-17.7913 70.4782 -7.70508 -0.285453 -0.958344 0.0096229
-18.2745 70.6139 -8.52364 -0.283092 -0.959063 0.00625011
-18.6813 70.7311 -9.3533 -0.290127 -0.956967 0.00634703
-18.8728 70.7846 -10.2962 -0.291057 -0.956697 0.00411694
-18.7807 70.7586 -11.3908 -0.290357 -0.956834 -0.00790559
-18.6165 70.7234 -12.4349 -0.297829 -0.954546 -0.0113984
-18.1899 70.6033 -13.9678 -0.300333 -0.953774 -0.0103079
-17.7494 70.4809 -15.3297 -0.294789 -0.955539 -0.00537759
-17.2643 70.3359 -16.3581 -0.30695 -0.951678 -0.00856178
-16.8105 70.1974 -17.5201 -0.304301 -0.952557 -0.00608777
-16.4273 70.0801 -18.4452 -0.308827 -0.951112 -0.00337906
-15.731 69.859 -19.5447 -0.315682 -0.948825 -0.000955813
-15.0166 69.6124 -20.321 -0.312874 -0.949698 0.00825704
-14.2522 69.3488 -21.0348 -0.31852 -0.947816 0.0137941
-13.2328 68.9853 -21.7597 -0.332745 -0.942794 0.0204915
-12.2645 68.6294 -22.2356 -0.339828 -0.939285 0.0475402
-10.9522 68.1217 -22.696 -0.346426 -0.934911 0.0770052
-9.61494 67.5938 -22.9701 -0.357465 -0.927517 0.109226
-8.65803 67.2234 -23.0564 -0.353313 -0.924855 0.13702
-7.70695 66.8214 -23.1181 -0.375827 -0.913297 0.15698
-6.8162 66.4628 -23.2675 -0.358579 -0.914223 0.188724
-5.90269 66.0495 -23.4562 -0.371616 -0.891588 0.258515
-4.822 65.5777 -23.6581 -0.31342 -0.905035 0.286871
-3.73841 65.0853 -23.9527 -0.312814 -0.869858 0.380668
-2.91198 64.662 -24.2997 -0.321304 -0.83744 0.435621
-2.42116 64.3239 -24.5648 -0.218826 -0.838347 0.49929
-3.00695 64.1155 -25.2549 -0.357286 -0.799106 0.483416
-2.3682 63.493 -25.7232 -0.258165 -0.734819 0.627209
-1.82787 62.632 -26.3531 -0.342572 -0.596925 0.725482
-1.48946 61.8063 -26.8533 -0.276124 -0.54935 0.787752
-1.17601 60.9851 -27.2777 -0.262342 -0.374042 0.889529
-0.730262 59.4907 -27.7705 -0.240046 -0.310883 0.916874
-0.239478 58.6843 -27.8654 -0.147441 -0.204867 0.967621
0.630819 58.2192 -27.8134 -0.16876 -0.176907 0.969651
1.6342 58.4682 -27.7232 -0.0154229 -0.190893 0.98149
2.40938 59.0387 -27.6083 0.0801051 -0.185831 0.978509
2.98038 59.8412 -27.4397 0.136902 -0.322246 0.936704
3.34844 60.8129 -27.1687 0.199682 -0.365662 0.909076
3.67399 61.7641 -26.7927 0.273586 -0.528623 0.797376
4.12884 62.7503 -26.3562 0.347311 -0.575424 0.736509
4.84698 63.7071 -25.7817 0.371388 -0.726921 0.576743
5.52146 64.3101 -25.4571 0.450684 -0.738436 0.501594
6.24768 64.833 -25.2696 0.411343 -0.774368 0.480782
7.45521 65.4748 -25.1684 0.447068 -0.843368 0.297406
8.3642 65.9681 -25.1893 0.480116 -0.83195 0.278114
9.52722 66.6751 -25.1239 0.506171 -0.84712 0.161799
10.5359 67.256 -25.0222 0.450082 -0.88108 0.145343
11.7519 67.9307 -24.8225 0.454606 -0.88633 0.0880415
12.9158 68.5094 -24.4652 0.416749 -0.907911 0.0449147
14.009 69.0413 -24.1429 0.423258 -0.90593 0.0119843
15.0214 69.498 -23.8235 0.402992 -0.915195 -0.00393855
15.7828 69.8317 -23.474 0.398466 -0.917036 -0.0128995
16.569 70.1554 -22.9892 0.391525 -0.919918 -0.021438
17.7329 70.6211 -22.2633 0.381916 -0.923499 -0.0359017
18.9677 71.0898 -21.3892 0.377759 -0.924838 -0.0444192
19.668 71.3468 -20.7991 0.374231 -0.925864 -0.0522122
20.442 71.6249 -20.1347 0.381789 -0.922466 -0.0573929
21.0411 71.8284 -19.4734 0.37682 -0.924526 -0.0570233
21.5937 72.0114 -18.7509 0.377207 -0.92453 -0.0543882
22.221 72.2088 -17.6575 0.382499 -0.922676 -0.0486145
22.6465 72.3317 -16.6362 0.384196 -0.922024 -0.0476002
23.0289 72.4472 -15.6053 0.382392 -0.923367 -0.0342031
23.1797 72.4854 -14.6799 0.387832 -0.921571 -0.0171257
23.1601 72.4597 -13.7391 0.387083 -0.921869 -0.0179415
23.1271 72.4339 -12.8236 0.368128 -0.929775 -0.00103354
22.9156 72.3541 -11.4905 0.370116 -0.928955 0.00759224
22.5105 72.1961 -10.0988 0.375649 -0.926645 0.0134388
22.1383 72.0647 -9.18541 0.372479 -0.927804 0.020751
21.5987 71.8623 -8.13852 0.377965 -0.925695 0.0137536
21.0699 71.6861 -7.28156 0.364128 -0.930622 0.0367889
20.5197 71.4832 -6.532 0.375204 -0.926438 0.0296362
19.8276 71.2475 -5.79127 0.359562 -0.932472 0.0345852
19.2067 71.0267 -5.17343 0.363507 -0.931034 0.0322276
18.3414 70.7132 -4.54975 0.36025 -0.932399 0.0291993
17.1387 70.2653 -3.93029 0.362854 -0.931428 0.0278941
16.3392 69.9681 -3.56164 0.359208 -0.93321 0.00408797
14.9698 69.4335 -3.08187 0.364184 -0.931289 0.00377902
13.8615 68.9992 -2.83071 0.369079 -0.929278 -0.0129155
12.9338 68.6276 -2.69463 0.368825 -0.929113 -0.0267051
12.02 68.2577 -2.60921 0.378449 -0.924159 -0.0519437
11.0139 67.8493 -2.61242 0.369706 -0.927535 -0.0543138
9.91044 67.3858 -2.51534 0.387347 -0.918559 -0.0788213
9.08346 67.0551 -2.38356 0.360393 -0.927279 -0.101343
8.21388 66.7014 -2.23952 0.366011 -0.921544 -0.126804
7.36665 66.3454 -2.01532 0.322195 -0.930405 -0.174747
6.42934 65.9545 -1.67209 0.325721 -0.928701 -0.177254
5.27295 65.5037 -1.12223 0.251659 -0.948096 -0.194376
4.4881 65.1996 -0.722195 0.220601 -0.937773 -0.263392
3.26482 64.8713 -0.287954 0.105799 -0.954053 -0.276872
2.15438 64.7669 -0.179045 0.0680591 -0.957298 -0.28043
0.805378 64.8881 -0.528367 -0.0775052 -0.966418 -0.240573
-0.113116 65.0915 -0.832162 -0.139088 -0.95964 -0.24443
-1.04333 65.3806 -1.18964 -0.226827 -0.938085 -0.261811
-2.03557 65.7138 -1.56611 -0.265414 -0.944634 -0.192484
-3.2389 66.1432 -1.92952 -0.291378 -0.938727 -0.184094
-4.51031 66.5624 -2.14491 -0.299127 -0.944547 -0.134411
-5.47401 66.8811 -2.18458 -0.290983 -0.950544 -0.106458
-6.48581 67.1738 -2.14478 -0.295448 -0.951377 -0.0871318
-7.4759 67.4755 -2.08159 -0.280396 -0.956811 -0.0738835
-8.37281 67.7314 -2.0279 -0.286424 -0.957367 -0.0375457
-9.50294 68.0682 -2.00815 -0.285501 -0.957637 -0.0377023
-10.4328 68.3405 -2.06924 -0.281988 -0.959083 -0.0253643
-11.4087 68.6293 -2.24329 -0.276409 -0.960919 -0.0151008
-12.5547 68.9674 -2.60822 -0.280334 -0.959832 -0.0108672
-13.3899 69.2176 -2.93307 -0.288063 -0.957608 0.00266162
-14.2031 69.4577 -3.30006 -0.282716 -0.959196 0.00378085
-15.1841 69.7424 -3.88611 -0.287064 -0.957879 0.00793615
-16.0312 69.9911 -4.50201 -0.287005 -0.957887 0.00890029
-17.0629 70.2902 -5.35465 -0.287247 -0.957787 0.011567
-17.9515 70.5371 -6.3556 -0.282664 -0.95912 0.0134444
-18.7286 70.761 -7.3693 -0.287307 -0.957794 0.00911011
-19.2216 70.8996 -8.24268 -0.287453 -0.957768 0.00637806
-19.6409 71.0227 -9.18477 -0.289955 -0.957036 0.00092495
-19.8428 71.0811 -10.2421 -0.293072 -0.956083 0.0036895
-19.7406 71.0588 -11.397 -0.299476 -0.953998 -0.0142107
-19.564 71.0197 -12.4953 -0.300764 -0.953564 -0.0158881
-19.2737 70.9425 -13.6114 -0.302383 -0.953106 -0.0123799
-18.9847 70.8631 -14.597 -0.302371 -0.95312 -0.0115713
-18.5469 70.7379 -15.6941 -0.303562 -0.952716 -0.013522
-18.1629 70.6276 -16.5641 -0.306951 -0.951678 -0.00855658
-17.6901 70.482 -17.7611 -0.320818 -0.947077 -0.0107909
-17.3245 70.3724 -18.7389 -0.31292 -0.949711 -0.0114461
-16.8416 70.2233 -19.6309 -0.318618 -0.947826 -0.010381
-16.2872 70.0449 -20.3468 -0.315683 -0.948825 -0.000955485
-15.4977 69.7802 -21.1698 -0.325274 -0.945586 -0.00800507
-14.709 69.5017 -21.8622 -0.336931 -0.941528 0.00151594
-13.8664 69.1942 -22.4526 -0.341524 -0.939705 0.0143747
-13.1241 68.9208 -22.899 -0.346918 -0.93742 0.029851
-12.1266 68.5404 -23.3132 -0.358857 -0.932143 0.043493
-10.932 68.0446 -23.7127 -0.365121 -0.927483 0.0774127
-10.0344 67.6558 -23.8992 -0.369847 -0.924124 0.0953258
-9.19231 67.311 -23.9776 -0.391591 -0.911054 0.128983
-8.08894 66.8293 -24.0607 -0.386997 -0.912931 0.129577
-6.93216 66.2737 -24.2091 -0.399623 -0.886393 0.231424
-6.0308 65.8419 -24.3563 -0.371617 -0.89159 0.258507
-5.00786 65.3418 -24.5459 -0.380193 -0.862575 0.333667
-4.03936 64.8328 -24.7887 -0.35372 -0.863989 0.357066
-3.30852 64.3611 -25.0728 -0.352545 -0.796698 0.490902
-3.26175 64.326 -25.0962 -0.352545 -0.796698 0.490902
-3.5825 63.9731 -25.9324 -0.399427 -0.73837 0.535141
-2.85259 62.9592 -26.5479 -0.347493 -0.705023 0.610782
-2.44297 62.0861 -27.0338 -0.313363 -0.553273 0.771811
-2.1118 61.1401 -27.4864 -0.260579 -0.375891 0.889272
-1.80164 59.9641 -27.8905 -0.240049 -0.310881 0.916874
-1.48039 58.8484 -28.112 -0.227602 -0.235824 0.944595
-0.96891 57.9704 -28.1487 -0.202341 -0.104318 0.973743
-0.296369 57.386 -28.0494 -0.225234 -0.0761231 0.971326
0.944163 57.1784 -27.901 -0.0904173 -0.0389856 0.994351
2.12361 57.5664 -27.8506 0.0125606 -0.0508967 0.998611
3.01367 58.2585 -27.806 0.0801062 -0.185833 0.978508
3.68769 59.1158 -27.7548 0.145428 -0.178342 0.973111
4.08125 60.2055 -27.574 0.210094 -0.321635 0.922061
4.37795 61.2693 -27.3017 0.336283 -0.291028 0.895665
4.68722 62.0973 -27.0243 0.308149 -0.439719 0.843618
5.13203 62.9714 -26.6218 0.406417 -0.603512 0.680099
5.59618 63.7015 -26.3356 0.45745 -0.635457 0.616088
6.34704 64.3678 -26.1132 0.455251 -0.727333 0.508484
7.22302 64.9532 -26.0403 0.522871 -0.740288 0.422588
8.14226 65.5232 -26.0958 0.545107 -0.755773 0.354166
8.94484 66.0661 -26.0936 0.53772 -0.814597 0.217459
9.75279 66.5885 -26.0621 0.518902 -0.82737 0.214942
10.9314 67.3613 -25.9453 0.500689 -0.856646 0.124376
11.9167 67.9184 -25.7968 0.471247 -0.878682 0.0725943
12.8317 68.4387 -25.4899 0.450089 -0.892026 0.0413429
13.6117 68.8416 -25.2088 0.434273 -0.900585 0.014146
14.522 69.2797 -24.9825 0.437466 -0.899214 -0.00620306
15.7551 69.8491 -24.5364 0.414048 -0.909826 -0.0277448
16.62 70.2246 -24.0497 0.406519 -0.912927 -0.035019
17.6139 70.6306 -23.4077 0.40057 -0.915287 -0.0423457
18.6607 71.0421 -22.7704 0.391741 -0.918558 -0.0528313
19.7358 71.448 -21.9661 0.386556 -0.920421 -0.0582884
20.6306 71.7714 -21.209 0.381899 -0.922141 -0.0617145
21.4656 72.0612 -20.3898 0.380749 -0.922538 -0.0628877
22.0477 72.2523 -19.6702 0.381037 -0.922599 -0.0600924
22.5925 72.4314 -18.9179 0.380885 -0.922952 -0.0555159
23.0589 72.5767 -18.0578 0.38118 -0.923232 -0.0484167
23.5125 72.7021 -16.8433 0.381779 -0.92311 -0.0459712
23.8826 72.814 -15.9463 0.383111 -0.923037 -0.0329928
24.0741 72.8622 -14.7289 0.381007 -0.924351 -0.0196742
24.0697 72.8418 -13.7904 0.386347 -0.922163 -0.0187691
24.0248 72.807 -12.8186 0.387075 -0.922005 -0.00835831
23.8029 72.7151 -11.4347 0.382933 -0.923726 0.00966584
23.5485 72.6181 -10.4475 0.37853 -0.925548 0.00876735
23.2325 72.4982 -9.45649 0.381386 -0.924307 0.0131558
22.8504 72.3661 -8.59291 0.373015 -0.927529 0.0234478
22.1762 72.1264 -7.3962 0.379497 -0.924481 0.0362919
21.4357 71.8709 -6.17908 0.37839 -0.924909 0.036926
20.783 71.6385 -5.44825 0.36755 -0.929209 0.037895
20.1686 71.4167 -4.79987 0.366753 -0.92975 0.0324458
19.4695 71.1701 -4.13678 0.362822 -0.93081 0.04419
18.7353 70.8982 -3.65014 0.373418 -0.926864 0.0384984
17.5847 70.4655 -3.04944 0.362831 -0.931431 0.0281189
16.365 69.9913 -2.52079 0.37874 -0.925358 0.0163608
15.3627 69.5923 -2.201 0.379019 -0.925386 -0.00247706
14.3069 69.1642 -1.97371 0.36908 -0.929277 -0.0129275
13.4512 68.8107 -1.81293 0.380159 -0.924316 -0.0334697
12.5672 68.4359 -1.70278 0.39091 -0.919774 -0.0347214
11.4895 67.9817 -1.67299 0.391372 -0.916789 -0.0795323
10.2483 67.4495 -1.60227 0.387042 -0.918608 -0.0797348
9.1354 66.9437 -1.44767 0.382458 -0.913402 -0.138205
8.01931 66.4568 -1.22789 0.365971 -0.918478 -0.149882
6.82512 65.927 -0.851769 0.325071 -0.919966 -0.219069
5.92214 65.5087 -0.414738 0.319561 -0.923125 -0.213824
5.14079 65.1835 0.00604206 0.269731 -0.926532 -0.262268
4.07668 64.7958 0.459881 0.174254 -0.947044 -0.26964
2.97824 64.5554 0.712955 0.0922467 -0.956381 -0.277175
1.87685 64.48 0.738624 0.0398295 -0.957787 -0.284707
0.967315 64.5586 0.555373 -0.0935849 -0.953434 -0.286713
-0.135123 64.8134 0.192984 -0.148491 -0.940627 -0.305241
-1.23699 65.17 -0.229673 -0.254311 -0.937068 -0.239226
-2.33709 65.6054 -0.680604 -0.286385 -0.927285 -0.241092
-3.3773 66.0168 -1.03283 -0.309648 -0.937026 -0.161554
-4.37684 66.3928 -1.21781 -0.332324 -0.929676 -0.158943
-5.47358 66.765 -1.27634 -0.305984 -0.94437 -0.120575
-6.36707 67.057 -1.2125 -0.307986 -0.948003 -0.0791787
-7.32967 67.354 -1.1255 -0.307707 -0.949179 -0.0655119
-8.47229 67.7177 -1.08026 -0.292515 -0.954816 -0.0525447
-9.36666 67.9939 -1.06587 -0.288223 -0.957163 -0.0276888
-10.3556 68.2946 -1.1207 -0.290691 -0.956447 -0.0266055
-11.3559 68.5969 -1.26719 -0.289332 -0.957073 -0.0172502
-12.525 68.9512 -1.59208 -0.28749 -0.957744 -0.0065951
-13.6583 69.3009 -2.00267 -0.290464 -0.956871 -0.00174469
-14.5324 69.561 -2.3528 -0.292273 -0.956253 0.0124913
-15.7409 69.9233 -3.10159 -0.295545 -0.955235 0.0132103
-16.4669 70.1379 -3.65073 -0.290582 -0.956706 0.0166002
-17.4265 70.4153 -4.40208 -0.289753 -0.956923 0.0184722
-18.2421 70.6423 -5.24824 -0.284109 -0.958634 0.017414
-18.8448 70.8097 -5.96733 -0.288596 -0.957385 0.0112489
-19.5044 70.9989 -6.82138 -0.287307 -0.957794 0.00911012
-20.0937 71.1663 -7.83944 -0.291746 -0.956439 0.0104454
-20.473 71.2753 -8.68603 -0.289959 -0.957035 0.000936419
-20.7706 71.3677 -9.63881 -0.295613 -0.955306 -0.000660889
-20.8014 71.3844 -10.5423 -0.301143 -0.953549 -0.0075267
-20.6639 71.3512 -11.5706 -0.300762 -0.953564 -0.0158969
-20.4418 71.3034 -12.7975 -0.302649 -0.952981 -0.0149052
-20.1248 71.2206 -13.9744 -0.309038 -0.950855 -0.0192243
-19.7271 71.1137 -15.1689 -0.311899 -0.949929 -0.0187841
-19.3584 71.0112 -16.0593 -0.312742 -0.949641 -0.0193216
-18.8407 70.8631 -17.2959 -0.31351 -0.94944 -0.0166176
-18.434 70.7403 -18.4178 -0.32119 -0.946975 -0.00865432
-18.0492 70.6243 -19.4062 -0.325765 -0.945269 -0.01856
-17.2849 70.385 -20.6237 -0.31925 -0.947566 -0.014078
-16.474 70.1196 -21.5438 -0.32683 -0.944964 -0.0138618
-15.836 69.9045 -22.1546 -0.336989 -0.941486 -0.00651189
-14.8899 69.5642 -22.9096 -0.342497 -0.939518 0.000931758
-14.144 69.2884 -23.4025 -0.351463 -0.936058 0.0152667
-12.9613 68.8297 -24.0083 -0.351252 -0.936042 0.0211393
-11.7617 68.3292 -24.4465 -0.376259 -0.925346 0.0465194
-10.4166 67.7294 -24.846 -0.385359 -0.919875 0.0729991
-9.53256 67.3323 -24.917 -0.401208 -0.9102 0.102807
-8.26045 66.7427 -25.0219 -0.411265 -0.895117 0.172124
-7.29029 66.2348 -25.1684 -0.460314 -0.867814 0.187111
-6.34898 65.7385 -25.2481 -0.470642 -0.840365 0.268855
-5.38479 65.1821 -25.3943 -0.416151 -0.856476 0.302472
-4.61783 64.7239 -25.5465 -0.419812 -0.773663 0.474557
-4.05591 64.3292 -25.6929 -0.390919 -0.787591 0.475241
-4.29065 63.9663 -26.4874 -0.552304 -0.628451 0.543796
-5.38367 64.7752 -26.3574 -0.509286 -0.778434 0.366973
-6.28559 65.4091 -26.1842 -0.521859 -0.806583 0.271275
-7.25008 66.0149 -26.114 -0.497221 -0.842237 0.202121
-8.27832 66.5908 -26.0226 -0.457371 -0.875444 0.152841
-9.26851 67.0803 -25.9479 -0.424096 -0.895902 0.132298
-10.2303 67.5465 -25.8757 -0.418698 -0.906119 0.0603371
-11.2838 68.051 -25.6136 -0.411906 -0.909925 0.0457467
-12.2041 68.4691 -25.3011 -0.400659 -0.915657 0.0320454
-13.0892 68.8467 -24.956 -0.382292 -0.923933 0.0141687
-13.8774 69.1735 -24.6112 -0.371259 -0.928445 0.00752312
-14.6733 69.4874 -24.1383 -0.360977 -0.932543 -0.00234582
-15.7616 69.8897 -23.418 -0.349739 -0.936732 -0.0146664
-16.6144 70.1904 -22.7294 -0.342808 -0.939189 -0.0201465
-17.4198 70.4567 -21.8975 -0.330616 -0.94354 -0.0206134
-18.074 70.667 -21.1889 -0.32689 -0.944903 -0.0173592
-18.681 70.8593 -20.2871 -0.325777 -0.945264 -0.018592
-19.0455 70.9688 -19.4418 -0.327317 -0.944739 -0.0180587
-19.3584 71.061 -18.5102 -0.326234 -0.945154 -0.016005
-19.8554 71.2021 -17.2029 -0.322351 -0.946387 -0.0210253
-20.1932 71.2947 -16.3355 -0.318299 -0.947716 -0.0228
-20.7434 71.443 -14.9635 -0.312712 -0.949554 -0.0235236
-21.1359 71.5467 -13.8895 -0.307592 -0.951255 -0.0221566
-21.448 71.6243 -12.612 -0.30931 -0.950827 -0.0157752
-21.6922 71.6716 -11.1389 -0.30563 -0.951916 -0.020738
-21.7928 71.6854 -10.0977 -0.303417 -0.952685 -0.0180546
-21.629 71.6325 -8.9573 -0.294514 -0.955647 0.000330101
-21.1532 71.4902 -7.78893 -0.292557 -0.956198 0.00980257
-20.6319 71.3414 -6.85772 -0.290941 -0.956711 0.00546074
-19.8403 71.1093 -5.71678 -0.283538 -0.958918 0.0090427
-19.2606 70.9474 -5.03149 -0.281506 -0.959417 0.0165354
-18.4872 70.737 -4.13731 -0.286535 -0.957826 0.0215963
-17.59 70.4899 -3.32277 -0.291462 -0.956197 0.0264979
-16.6624 70.2148 -2.59827 -0.300606 -0.953694 0.0087996
-15.7486 69.9391 -1.94711 -0.296165 -0.95502 0.0146132
-14.9191 69.6876 -1.44506 -0.291918 -0.956427 0.0055382
-13.7069 69.3225 -0.997603 -0.294448 -0.955607 0.00870303
-12.3444 68.8849 -0.547143 -0.303584 -0.952645 -0.00995579
-11.4629 68.6144 -0.337213 -0.294265 -0.955539 -0.0178392
-10.1368 68.2014 -0.158511 -0.290733 -0.956441 -0.0263723
-9.10966 67.8839 -0.126436 -0.303762 -0.952614 -0.0160076
-7.99874 67.5164 -0.169202 -0.326549 -0.94383 -0.0483218
-6.60481 67.043 -0.214977 -0.324371 -0.942707 -0.0766254
-5.40531 66.6538 -0.347402 -0.316415 -0.944481 -0.0885224
-4.17682 66.1724 -0.298907 -0.340481 -0.929603 -0.141107
-3.24608 65.7616 -0.0199316 -0.321665 -0.924358 -0.205167
-2.4696 65.4202 0.288575 -0.325463 -0.92296 -0.205473
-1.62672 65.0097 0.693591 -0.280018 -0.916861 -0.283845
-0.822124 64.6386 1.13003 -0.216713 -0.930059 -0.292708
0.0272094 64.4292 1.29645 -0.181732 -0.927847 -0.324943
0.991453 64.2291 1.52889 -0.0980644 -0.93219 -0.348433
1.88317 64.1725 1.63742 0.0117863 -0.946285 -0.321951
2.95333 64.2494 1.63661 0.114901 -0.936412 -0.331558
3.8538 64.4379 1.47475 0.152696 -0.935491 -0.318654
5.04663 64.8369 1.06348 0.252621 -0.922848 -0.290736
6.24762 65.4114 0.426916 0.31737 -0.909665 -0.266724
7.22116 65.8833 0.00314246 0.366821 -0.901943 -0.225693
8.0435 66.2707 -0.27884 0.367553 -0.907504 -0.203323
9.002 66.7511 -0.457345 0.412256 -0.897964 -0.150025
10.0387 67.2224 -0.5603 0.411838 -0.902749 -0.124231
10.9437 67.6669 -0.710221 0.431117 -0.898892 -0.0767192
11.9885 68.1348 -0.697869 0.405168 -0.912792 -0.0514745
12.8875 68.5304 -0.796673 0.402948 -0.914157 -0.0428463
14.1777 69.0946 -1.03445 0.388819 -0.921255 -0.0104513
15.6414 69.7072 -1.29127 0.379697 -0.925107 0.00275507
16.5248 70.0762 -1.56101 0.379119 -0.92509 0.0218667
17.3505 70.4071 -1.87693 0.385583 -0.922302 0.0250119
18.457 70.8461 -2.33367 0.38072 -0.923759 0.0414972
19.4526 71.2183 -2.96008 0.375406 -0.92566 0.0470834
20.2013 71.4909 -3.47517 0.370033 -0.927649 0.0504231
20.8234 71.709 -4.11161 0.380772 -0.923747 0.0412689
21.5875 71.989 -4.89545 0.382562 -0.922971 0.04207
22.3757 72.2657 -5.94728 0.383917 -0.922338 0.0435268
23.0601 72.4895 -7.20501 0.367564 -0.929385 0.0337766
23.561 72.6702 -8.08461 0.378246 -0.925388 0.0241871
24.0883 72.8612 -9.10287 0.384246 -0.923064 0.0175472
24.3567 72.9545 -10.072 0.387948 -0.921512 0.0171993
24.5984 73.0455 -10.9382 0.37963 -0.925122 0.00542474
24.8197 73.1372 -12.1136 0.386588 -0.922223 -0.00723839
24.9589 73.2104 -13.6822 0.386709 -0.922071 -0.0150265
25.0077 73.2497 -14.6665 0.384243 -0.923083 -0.0166041
24.897 73.2238 -15.5607 0.391195 -0.919599 -0.0350339
24.6348 73.1565 -16.4813 0.38809 -0.920609 -0.0431952
24.1346 73.0021 -17.6755 0.386787 -0.920485 -0.0545566
23.8003 72.928 -18.7311 0.388776 -0.919491 -0.0582195
23.3378 72.7811 -19.5143 0.389293 -0.919356 -0.0568821
22.587 72.5259 -20.4355 0.37612 -0.924723 -0.0584844
21.9966 72.338 -21.205 0.376975 -0.923814 -0.0666233
21.2597 72.0838 -21.9194 0.38696 -0.919879 -0.0639036
20.5424 71.8225 -22.4804 0.390014 -0.918401 -0.066542
19.8603 71.5681 -23.0441 0.393565 -0.917612 -0.0555697
18.8603 71.1885 -23.7679 0.392065 -0.917925 -0.0607493
18.0753 70.8774 -24.2209 0.404666 -0.912821 -0.0547936
16.9157 70.3944 -24.9362 0.416218 -0.908331 -0.0411639
16.154 70.0623 -25.3469 0.42325 -0.905391 -0.0316052
15.0051 69.5246 -25.8482 0.436124 -0.899552 -0.024548
13.9235 68.9882 -26.1874 0.439892 -0.898041 0.00407485
13.0825 68.5305 -26.4506 0.474367 -0.880247 0.00623944
11.9191 67.8659 -26.7245 0.487135 -0.872197 0.0444018
11.1658 67.3613 -26.889 0.527682 -0.842742 0.0988022
10.086 66.6538 -27.0411 0.578738 -0.804211 0.135302
9.30399 66.0867 -26.974 0.622185 -0.764195 0.166641
8.48805 65.4204 -27.0078 0.560439 -0.771106 0.302166
7.70473 64.8399 -26.9623 0.643401 -0.683197 0.332625
6.97057 64.2075 -26.905 0.514854 -0.681933 0.519513
6.30127 63.587 -26.9453 0.528124 -0.499835 0.681623
5.70957 62.589 -27.2645 0.457315 -0.436249 0.774877
5.20926 61.1715 -27.6605 0.362601 -0.296239 0.883602
4.87365 59.7101 -27.9204 0.322343 -0.181276 0.929068
4.56756 58.7281 -28.0141 0.289783 -0.116253 0.946773
4.08035 57.9464 -27.9583 0.109694 -0.064036 0.9919
3.23769 57.0619 -27.935 0.0955106 -0.0776633 0.992394
2.05956 56.4092 -27.8865 -0.00458718 0.0343875 0.999398
0.881342 56.1823 -27.9122 -0.0831184 0.0370832 0.995099
-0.0396883 56.2668 -28.021 -0.163822 0.0516814 0.983636
-1.17072 56.7533 -28.2663 -0.193457 0.000626277 0.981109
-1.88813 57.5526 -28.4197 -0.273191 -0.128764 0.953303
-2.40788 58.7998 -28.428 -0.32884 -0.185884 0.921246
-2.64461 59.711 -28.2447 -0.355592 -0.268442 0.895251
-2.94233 61.1677 -27.8113 -0.408901 -0.398197 0.821121
-3.20174 62.0599 -27.4798 -0.42192 -0.480174 0.763943
-3.68128 62.9756 -27.0386 -0.394768 -0.639821 0.659384
-3.90921 63.3636 -26.7985 -0.39477 -0.639821 0.659383
-4.15446 63.7002 -26.6187 -0.493974 -0.609651 0.60913
