-8.06863 68.3795 -3.88144 -0.253861 -0.965749 -0.0527551
-7.13756 68.1362 -3.85702 -0.252167 -0.964316 -0.0806575
-6.2078 67.8891 -3.8423 -0.247751 -0.964354 -0.092957
-5.05549 67.5789 -3.8081 -0.255677 -0.960601 -0.10841
-4.16005 67.3433 -3.74682 -0.256668 -0.958404 -0.123754
-3.23052 67.0716 -3.59755 -0.250343 -0.9587 -0.134995
-2.1381 66.7622 -3.31015 -0.230233 -0.961185 -0.152039
-1.31307 66.5187 -3.03795 -0.222007 -0.9566 -0.188515
-0.501112 66.3122 -2.69381 -0.161181 -0.968404 -0.190299
0.773956 66.0247 -2.08913 -0.0498714 -0.96968 -0.239236
1.6475 65.9171 -1.82725 0.0161629 -0.973682 -0.220657
3.04747 66.0253 -1.98715 0.0523667 -0.98199 -0.181532
4.33138 66.3144 -2.52917 0.185947 -0.957062 -0.218965
5.32618 66.6583 -2.99384 0.236827 -0.946572 -0.218892
6.62666 67.0716 -3.49217 0.272031 -0.951068 -0.145599
7.7055 67.4501 -3.8394 0.293167 -0.945597 -0.141065
8.60867 67.76 -4.05393 0.290745 -0.95078 -0.107163
9.50373 68.0814 -4.20298 0.326508 -0.941181 -0.0870103
10.8546 68.5669 -4.33231 0.339281 -0.938691 -0.0612137
11.9917 68.9884 -4.488 0.342085 -0.938991 -0.035689
13.1631 69.425 -4.74602 0.342048 -0.939005 -0.0356909
14.3057 69.8469 -5.04672 0.344923 -0.938516 -0.0138429
15.2848 70.2138 -5.39565 0.345782 -0.938281 -0.00377378
16.2175 70.5526 -5.79982 0.3466 -0.937997 0.0029893
17.001 70.8365 -6.23717 0.342946 -0.939288 0.0112684
17.7161 71.0931 -6.81159 0.350459 -0.936496 0.0115926
18.5404 71.3888 -7.7135 0.347949 -0.937394 0.014247
19.0909 71.5848 -8.43665 0.351319 -0.936119 0.0159343
19.6291 71.7696 -9.3323 0.352557 -0.935632 0.0170551
20.0341 71.919 -10.2888 0.365307 -0.930851 0.00813543
20.5336 72.1179 -11.7698 0.360467 -0.932702 -0.011423
20.7944 72.2341 -13.3884 0.367548 -0.929908 -0.011161
20.6841 72.2074 -14.6001 0.37365 -0.927533 -0.00821247
20.4085 72.1187 -15.5708 0.364781 -0.93053 -0.0301604
20.0392 72.0119 -16.4158 0.366059 -0.929594 -0.0430853
19.5399 71.8543 -17.4026 0.364929 -0.930434 -0.0334477
18.7538 71.5952 -18.6102 0.36522 -0.929968 -0.0421096
18.0829 71.365 -19.378 0.366402 -0.929674 -0.0381463
17.083 71.005 -20.2884 0.370218 -0.928205 -0.0370783
16.1795 70.6629 -20.9185 0.378011 -0.925317 -0.0299404
15.3946 70.3572 -21.3799 0.379159 -0.924964 -0.0257038
14.6252 70.046 -21.7885 0.379689 -0.925053 -0.0106164
13.6205 69.6259 -22.2179 0.384872 -0.922931 0.00848933
12.6442 69.2074 -22.5368 0.404543 -0.913754 0.0373039
11.4882 68.6979 -22.8242 0.387137 -0.918947 0.0747633
10.5362 68.2594 -23.0988 0.406443 -0.908214 0.0994738
9.43363 67.7455 -23.2681 0.379003 -0.913975 0.143724
8.54414 67.334 -23.4319 0.397099 -0.900791 0.175747
7.21594 66.7432 -23.5629 0.367376 -0.903309 0.221511
5.93851 66.1985 -23.7355 0.311045 -0.883046 0.351398
4.99828 65.7872 -24.0123 0.266145 -0.884252 0.381397
4.11011 65.2971 -24.4153 0.233511 -0.874219 0.421464
3.38841 64.886 -24.8284 0.191561 -0.800943 0.56727
2.65147 64.2304 -25.4018 0.266776 -0.725119 0.634848
2.06117 63.4929 -26.0805 0.0387699 -0.729115 0.682551
1.67646 62.8573 -26.5885 0.0252012 -0.603376 0.797059
0.984091 62.1095 -27.1357 -0.0688739 -0.504616 0.860592
0.573244 62.7399 -26.6771 -0.0336544 -0.624222 0.780393
0.161996 63.5776 -25.989 -0.0921992 -0.70261 0.705577
-0.28736 64.1673 -25.3302 -0.0263727 -0.782309 0.622332
-0.944619 64.7939 -24.6799 -0.167608 -0.875715 0.452803
-1.95533 65.3968 -23.9406 -0.20541 -0.864645 0.458471
-2.86546 65.7916 -23.4924 -0.257551 -0.89326 0.368448
-3.84516 66.2085 -23.1207 -0.252701 -0.923035 0.288292
-5.34079 66.8127 -22.6757 -0.263852 -0.931043 0.247408
-6.7156 67.3204 -22.462 -0.317935 -0.932037 0.173851
-7.55906 67.6361 -22.3072 -0.308174 -0.93829 0.155558
-8.39462 67.9386 -22.1002 -0.309806 -0.940558 0.139179
-9.71345 68.4173 -21.8398 -0.317319 -0.94429 0.0873204
-10.8231 68.8191 -21.529 -0.32692 -0.94288 0.0640316
-11.9387 69.2237 -21.0803 -0.31211 -0.948266 0.0581289
-12.9521 69.575 -20.5836 -0.304894 -0.951561 0.0396524
-13.7076 69.8371 -20.0294 -0.301244 -0.95316 0.0271582
-14.4833 70.1056 -19.249 -0.299288 -0.953903 0.0211314
-15.1172 70.3203 -18.2157 -0.29756 -0.954628 0.00958282
-15.7316 70.5182 -17.04 -0.2878 -0.957633 0.00963295
-16.2532 70.6813 -15.7892 -0.285536 -0.95836 0.002923
-16.6621 70.8033 -14.5874 -0.286956 -0.957941 0.00101601
-17.0282 70.9072 -13.3345 -0.280623 -0.959815 -0.00252809
-17.2373 70.9677 -12.4089 -0.280253 -0.959926 -6.68231e-05
-17.4502 71.0279 -10.9322 -0.280355 -0.959893 -0.00231782
-17.2782 70.9781 -9.90689 -0.279174 -0.960233 0.00375996
-16.9644 70.8905 -8.98925 -0.278698 -0.960378 0.000864891
-16.5414 70.7665 -8.14513 -0.282931 -0.959138 -0.001072
-15.728 70.5303 -7.06709 -0.279713 -0.960068 0.00536126
-14.7295 70.244 -6.11807 -0.280175 -0.959941 0.00381177
-13.6502 69.9373 -5.37451 -0.268689 -0.963193 -0.00812459
-12.7794 69.69 -4.90316 -0.269748 -0.962893 -0.00851084
-11.9713 69.4604 -4.5459 -0.2742 -0.961576 -0.0125695
-11.0252 69.1954 -4.26632 -0.261713 -0.964831 -0.0246334
-10.0487 68.9186 -4.08678 -0.263685 -0.963826 -0.0370779
-9.16548 68.6799 -3.97138 -0.260456 -0.964421 -0.0453332
-8.58331 68.5204 -3.92138 -0.260452 -0.964422 -0.0453373
-8.66869 68.4882 -2.95391 -0.268352 -0.961241 -0.0632658
-10.1351 68.9125 -3.09549 -0.272686 -0.961473 -0.0344725
-11.0272 69.1702 -3.25997 -0.267042 -0.963284 -0.0271226
-12.0679 69.4721 -3.52747 -0.278624 -0.960277 -0.0153539
-12.8945 69.7122 -3.86459 -0.274452 -0.961557 -0.00741302
-13.7347 69.9578 -4.30875 -0.275405 -0.961328 -0.000615319
-14.9141 70.301 -5.03698 -0.282024 -0.959407 -0.000474674
-15.6268 70.5073 -5.61106 -0.282031 -0.959397 0.00310657
-16.4768 70.753 -6.46823 -0.281608 -0.9595 0.00754086
-17.2398 70.974 -7.45698 -0.284782 -0.958592 0.000581349
-17.7382 71.1193 -8.38004 -0.282825 -0.959159 0.00485563
-18.1084 71.2242 -9.33772 -0.285386 -0.958372 0.00887988
-18.3839 71.3004 -10.4081 -0.280017 -0.959994 -0.00121452
-18.3737 71.3024 -11.4957 -0.289319 -0.957146 -0.010444
-18.1092 71.2267 -12.8391 -0.294726 -0.955536 -0.00802161
-17.8928 71.1661 -13.7222 -0.293698 -0.955849 -0.00639996
-17.641 71.0985 -14.653 -0.287873 -0.95765 -0.0031638
-17.2454 70.977 -15.8528 -0.29675 -0.95488 -0.00518775
-16.8142 70.8486 -16.8964 -0.301671 -0.953385 -0.00712883
-16.2931 70.6858 -18.0062 -0.304623 -0.952473 0.000806509
-15.8919 70.5562 -18.8363 -0.306206 -0.95194 0.00675769
-15.3791 70.3841 -19.702 -0.308081 -0.951316 0.00893336
-14.4134 70.0566 -20.7171 -0.312269 -0.949929 0.0110968
-13.4928 69.7297 -21.4165 -0.318865 -0.947256 0.0310589
-12.6856 69.4366 -21.8223 -0.329953 -0.943069 0.0418513
-11.7496 69.091 -22.229 -0.321032 -0.945668 0.0499868
-10.8238 68.7335 -22.5713 -0.335046 -0.938242 0.0862902
-9.72498 68.3186 -22.8276 -0.338529 -0.934273 0.111947
-8.6125 67.898 -23.051 -0.336375 -0.932505 0.129534
-7.52512 67.4549 -23.3012 -0.339279 -0.929323 0.145765
-6.49647 67.0338 -23.4765 -0.329999 -0.917563 0.221761
-5.34614 66.5356 -23.7054 -0.363972 -0.899224 0.242734
-4.43848 66.1409 -23.9328 -0.347546 -0.873602 0.340633
-3.33944 65.6129 -24.2997 -0.28487 -0.876047 0.386259
-2.4895 65.1468 -24.6902 -0.256519 -0.871641 0.417661
-1.7785 64.7077 -25.1698 -0.271837 -0.803131 0.516186
-1.23587 64.152 -25.6392 -0.239076 -0.755105 0.610458
-0.705158 63.4242 -26.2739 -0.245473 -0.652302 0.717106
-0.372056 62.686 -26.8337 -0.243743 -0.653445 0.716658
-0.122572 61.9688 -27.3341 -0.203731 -0.456753 0.865603
0.202816 60.8338 -27.8835 -0.0630569 -0.40683 0.908401
0.31127 59.7038 -28.287 -0.109065 -0.291632 0.948595
0.818321 58.8913 -28.4679 -0.0526989 -0.210142 0.973384
1.77643 59.5396 -28.2688 0.0678896 -0.301718 0.950977
2.05599 60.6549 -27.9136 0.105482 -0.348891 0.931208
2.26663 61.7207 -27.4301 0.0880706 -0.4871 0.868894
2.59895 62.5682 -26.9118 0.171375 -0.599864 0.775791
2.92879 63.3182 -26.4758 0.241318 -0.6175 0.745973
3.43603 63.9971 -25.998 0.244521 -0.695926 0.673115
4.13724 64.6858 -25.4211 0.365265 -0.772364 0.519649
4.85345 65.2096 -25.0841 0.280945 -0.855694 0.434578
5.94004 65.8507 -24.6707 0.359882 -0.848859 0.379828
6.77677 66.2294 -24.5311 0.424083 -0.846966 0.320628
7.89027 66.7893 -24.4729 0.421352 -0.879465 0.221367
8.79677 67.2322 -24.3676 0.426429 -0.885122 0.18157
9.66591 67.7104 -24.2078 0.428629 -0.891381 0.147368
10.5293 68.1501 -24.0594 0.420944 -0.89824 0.12372
11.4816 68.6109 -23.8311 0.423314 -0.903242 0.0704245
12.3986 69.0545 -23.5984 0.412963 -0.908992 0.0536497
13.1974 69.4161 -23.3862 0.402329 -0.914737 0.0372372
14.1339 69.8381 -23.0537 0.397273 -0.917678 0.00640917
15.0855 70.2448 -22.6452 0.386054 -0.922366 -0.0123575
15.823 70.5531 -22.2294 0.386365 -0.922144 -0.0177836
16.6467 70.8811 -21.7626 0.379159 -0.924964 -0.0257039
17.4125 71.171 -21.2284 0.377535 -0.9252 -0.0383825
18.1265 71.4371 -20.6538 0.373188 -0.926815 -0.0416963
18.7728 71.667 -20.0251 0.372724 -0.926884 -0.0442981
19.3763 71.8765 -19.3383 0.371853 -0.927101 -0.0469279
20.0654 72.1007 -18.3605 0.371797 -0.927004 -0.049305
20.5305 72.2487 -17.5094 0.373091 -0.926962 -0.0392917
20.9191 72.3676 -16.616 0.367097 -0.929223 -0.0422165
21.4473 72.5275 -15.4607 0.377948 -0.925272 -0.0289907
21.6575 72.5971 -14.3298 0.372884 -0.927785 -0.012422
21.726 72.5995 -12.9686 0.371695 -0.928247 -0.0136319
21.5204 72.5053 -11.8232 0.372206 -0.928104 -0.00928338
21.169 72.3622 -10.7383 0.36408 -0.931353 0.00529109
20.7214 72.1916 -9.49218 0.37395 -0.927444 0.00294962
20.3284 72.0475 -8.63034 0.359415 -0.932925 0.0207537
19.8296 71.8728 -7.86374 0.364586 -0.930869 0.023644
19.0242 71.5907 -6.77994 0.355595 -0.934393 0.0214642
18.4029 71.3631 -6.12044 0.356465 -0.934158 0.0161239
17.6208 71.078 -5.47145 0.353881 -0.935183 0.0141493
16.6131 70.7043 -4.90525 0.350668 -0.936496 0.0026634
15.5708 70.3107 -4.4694 0.356561 -0.934272 0.000650188
14.4846 69.8979 -4.07848 0.354829 -0.934587 -0.0253605
13.655 69.5787 -3.85765 0.349474 -0.936616 -0.0248837
12.7004 69.2166 -3.66055 0.356249 -0.933778 -0.0332423
11.7398 68.8416 -3.47095 0.353579 -0.934225 -0.0462191
10.662 68.4264 -3.3551 0.357393 -0.930622 -0.0788241
9.2549 67.9 -3.19646 0.334927 -0.937213 -0.0964956
7.9457 67.3867 -2.91546 0.318409 -0.939469 -0.122441
6.87045 66.9969 -2.57071 0.287953 -0.941024 -0.177641
6.07226 66.6897 -2.26065 0.293107 -0.938777 -0.181067
4.98492 66.2991 -1.75429 0.222694 -0.953347 -0.203806
3.78763 65.976 -1.20363 0.126434 -0.976779 -0.172966
2.47883 65.7414 -0.820711 0.0394934 -0.960118 -0.276793
1.13198 65.7304 -0.916418 -0.0385421 -0.974396 -0.221512
0.23284 65.8498 -1.26743 -0.119066 -0.961595 -0.237277
-0.822501 66.1915 -1.80768 -0.174725 -0.960955 -0.212815
-1.649 66.4294 -2.17077 -0.215379 -0.959371 -0.182263
-2.49852 66.6912 -2.45942 -0.264878 -0.949006 -0.170961
-3.3721 66.9694 -2.67705 -0.256158 -0.951981 -0.167677
-4.22421 67.2289 -2.80644 -0.268711 -0.954279 -0.130941
-5.32587 67.5531 -2.88233 -0.265696 -0.958391 -0.104363
-6.4197 67.8591 -2.90193 -0.266679 -0.95813 -0.104258
-7.49447 68.1585 -2.90952 -0.266567 -0.96174 -0.0632302
-8.53257 68.4499 -2.94963 -0.268351 -0.961241 -0.0632658
-8.75495 68.4566 -1.99992 -0.279296 -0.958768 -0.0517197
-7.75494 68.1626 -1.97879 -0.285563 -0.956195 -0.0643756
-6.7415 67.8655 -1.96499 -0.283922 -0.955441 -0.0807527
-5.8364 67.5952 -1.95751 -0.302111 -0.947699 -0.101233
-4.36004 67.1418 -1.89099 -0.30199 -0.942638 -0.140651
-3.28136 66.7767 -1.70793 -0.291427 -0.940784 -0.173158
-2.29839 66.4264 -1.41851 -0.239843 -0.95081 -0.193828
-1.37528 66.1253 -1.02784 -0.227357 -0.94719 -0.226143
-0.501863 65.8282 -0.55349 -0.193415 -0.955031 -0.224734
0.296893 65.5666 -0.151899 -0.112773 -0.961072 -0.237591
1.51499 65.4194 0.148709 -0.0634222 -0.952994 -0.296276
2.84463 65.4851 0.120456 0.0436317 -0.957789 -0.28401
3.8498 65.7175 -0.17929 0.167335 -0.94662 -0.275516
4.72538 65.9812 -0.553735 0.213839 -0.93757 -0.269717
6.02877 66.4643 -1.18791 0.26689 -0.948171 -0.172457
7.13257 66.9047 -1.65989 0.309644 -0.933755 -0.178467
8.09054 67.3029 -1.96887 0.341162 -0.929715 -0.138702
9.04958 67.6931 -2.17727 0.347595 -0.926872 -0.141729
9.91476 68.0523 -2.32444 0.384771 -0.917406 -0.100184
10.8079 68.4149 -2.3983 0.367215 -0.928252 -0.0591653
11.6705 68.7627 -2.49853 0.36768 -0.928065 -0.0592225
12.553 69.1184 -2.60117 0.362079 -0.931339 -0.0387184
13.6035 69.5285 -2.83349 0.358907 -0.933001 -0.0241986
14.9096 70.0454 -3.19758 0.361653 -0.93222 -0.01315
15.7225 70.3645 -3.49373 0.361157 -0.932411 -0.0132518
16.5899 70.6987 -3.82376 0.356891 -0.934103 0.00538177
17.3585 70.995 -4.19479 0.363119 -0.931708 0.00810116
18.2062 71.3148 -4.69772 0.37223 -0.927894 0.0213792
19.1233 71.6578 -5.4817 0.364532 -0.93079 0.027333
19.7558 71.8872 -6.12389 0.365912 -0.930283 0.0259402
20.4541 72.1382 -7.04325 0.364587 -0.930869 0.0236519
20.9804 72.3253 -7.76771 0.369581 -0.928853 0.0246375
21.3948 72.473 -8.58239 0.373287 -0.927496 0.0201877
21.7387 72.5964 -9.58777 0.365888 -0.930581 0.012041
22.0569 72.7106 -10.508 0.368527 -0.929586 -0.000665005
22.4791 72.8895 -11.7958 0.378718 -0.925476 -0.0051149
22.6644 72.9802 -13.3043 0.371694 -0.928247 -0.0136311
22.5912 72.9788 -14.5725 0.37419 -0.927113 -0.0210671
22.3178 72.8953 -15.8474 0.378772 -0.925302 -0.0179981
21.8212 72.7507 -16.9769 0.376377 -0.92526 -0.0472608
21.3087 72.5859 -18.0743 0.376858 -0.925469 -0.0383093
20.8492 72.443 -18.8828 0.371991 -0.926926 -0.0493099
19.9534 72.1469 -20.1284 0.379442 -0.923852 -0.050211
19.323 71.9244 -20.7817 0.372394 -0.927012 -0.0444047
18.692 71.6972 -21.4148 0.373652 -0.926745 -0.0390952
17.8427 71.3817 -22.0752 0.378821 -0.924871 -0.0327761
16.9272 71.0235 -22.6952 0.382652 -0.923501 -0.0267685
16.032 70.6584 -23.2331 0.391253 -0.920154 -0.0153376
14.989 70.2059 -23.7385 0.407289 -0.913294 0.00314902
14.1379 69.8246 -24.0714 0.41157 -0.911154 0.020219
13.1447 69.3582 -24.4185 0.424361 -0.904385 0.0447921
12.2529 68.9186 -24.6524 0.43873 -0.897476 0.0453126
11.2971 68.4303 -24.8596 0.433152 -0.895973 0.0980381
10.3185 67.9073 -25.0746 0.469247 -0.876903 0.104151
9.31795 67.3285 -25.2679 0.463644 -0.863207 0.199769
8.33186 66.7445 -25.3854 0.499553 -0.839267 0.214658
7.3835 66.2301 -25.4165 0.459314 -0.825326 0.325436
6.38541 65.6196 -25.4937 0.425763 -0.80969 0.400416
5.40287 65.0172 -25.8182 0.323105 -0.814029 0.477114
4.74827 64.4524 -26.1343 0.337139 -0.656034 0.675245
4.07074 63.5927 -26.6339 0.334958 -0.658242 0.674182
3.60932 62.7385 -27.1097 0.238194 -0.553285 0.79821
3.21883 61.6669 -27.6402 0.261191 -0.451191 0.85335
3.00476 60.4169 -28.0841 0.224244 -0.294192 0.929067
2.58504 58.8788 -28.4575 0.0206842 -0.181187 0.983231
1.55885 57.8288 -28.6299 0.00121756 -0.114164 0.990952
0.149073 57.9113 -28.6921 -0.148175 -0.165883 0.97495
-0.382697 58.6219 -28.6335 -0.110596 -0.215038 0.970323
-0.621772 59.5568 -28.4559 -0.197 -0.285909 0.937337
-0.775335 60.5522 -28.1644 -0.216635 -0.304949 0.927403
-0.947193 61.4343 -27.8078 -0.199982 -0.419017 0.88522
-1.22575 62.5276 -27.2684 -0.216839 -0.56465 0.787714
-1.63158 63.4381 -26.5804 -0.247207 -0.651159 0.717552
-2.06913 64.0539 -26.0869 -0.26312 -0.744861 0.612586
-2.95191 64.9011 -25.4868 -0.271838 -0.803129 0.51619
-3.69183 65.3255 -25.1544 -0.381234 -0.847378 0.36961
-4.82227 65.9613 -24.7816 -0.346733 -0.87315 0.342616
-5.95196 66.5404 -24.5633 -0.363611 -0.89222 0.267828
-6.97891 67.0234 -24.3999 -0.379925 -0.905732 0.1879
-7.79853 67.3871 -24.2476 -0.352541 -0.919278 0.175051
-8.69363 67.7791 -24.0376 -0.355819 -0.925785 0.127729
-9.58721 68.1599 -23.8365 -0.361904 -0.925499 0.108988
-10.545 68.5358 -23.6679 -0.358601 -0.929048 0.0909691
-11.6394 68.9736 -23.3737 -0.346547 -0.935736 0.0655555
-12.5032 69.3234 -22.9792 -0.339518 -0.938995 0.0523793
-13.5623 69.7191 -22.4538 -0.334324 -0.941665 0.0386491
-14.4198 70.0301 -21.9271 -0.320656 -0.946939 0.0220555
-15.1235 70.2835 -21.3555 -0.331165 -0.94353 0.00541675
-15.8066 70.5133 -20.7295 -0.322265 -0.946634 -0.00542469
-16.626 70.7871 -19.4837 -0.305062 -0.952311 0.00634721
-17.2628 70.9945 -18.127 -0.302566 -0.953128 -0.000419772
-17.6975 71.1306 -17.2277 -0.30372 -0.952739 -0.00616259
-18.1244 71.2617 -16.1298 -0.305214 -0.952238 -0.00866802
-18.5328 71.3758 -14.8909 -0.303441 -0.952785 -0.0110067
-18.8779 71.476 -13.6418 -0.298657 -0.954313 -0.00850329
-19.2025 71.559 -12.2487 -0.294727 -0.955536 -0.00802135
-19.4366 71.6123 -10.8237 -0.310105 -0.950661 -0.00666083
-19.286 71.5732 -9.81875 -0.288471 -0.957449 0.00862555
-18.9165 71.4706 -8.70928 -0.287063 -0.957874 0.00827369
-18.558 71.3678 -7.85794 -0.289254 -0.957233 0.00605368
-18.0758 71.2268 -6.98248 -0.28975 -0.957089 0.00504807
-17.4266 71.0377 -6.11885 -0.286267 -0.958119 0.00767931
-16.8383 70.8675 -5.45676 -0.291694 -0.956425 0.0126361
-16.168 70.6724 -4.81142 -0.288426 -0.957446 0.0103484
-15.2734 70.409 -4.09025 -0.287319 -0.957809 0.00702012
-14.4593 70.1683 -3.61218 -0.28796 -0.957629 0.00355533
-13.6494 69.9244 -3.13751 -0.277756 -0.960564 -0.0129917
-12.5099 69.5829 -2.61063 -0.285382 -0.958256 -0.0174004
-11.6622 69.3299 -2.37936 -0.281314 -0.959233 -0.0271109
-10.6225 69.0158 -2.16386 -0.286 -0.957836 -0.0274687
-9.48566 68.6771 -2.02552 -0.287133 -0.956708 -0.0475808
-9.16311 68.5793 -2.00407 -0.287133 -0.956708 -0.0475808
-9.00471 68.4872 -1.04011 -0.294597 -0.954381 -0.0478069
-7.63997 68.0663 -1.04106 -0.285605 -0.956315 -0.0623778
-6.30327 67.6456 -1.03597 -0.302116 -0.947697 -0.101236
-5.23668 67.2841 -1.02197 -0.301027 -0.94577 -0.120367
-4.22269 66.9416 -0.935244 -0.319698 -0.935558 -0.150082
-3.09736 66.5223 -0.682651 -0.297429 -0.93375 -0.199118
-1.91232 66.0812 -0.23569 -0.261175 -0.946794 -0.188068
-1.13892 65.7686 0.179008 -0.213887 -0.93529 -0.279123
-0.183896 65.4149 0.723763 -0.178352 -0.938212 -0.296561
1.0723 65.1718 1.06419 -0.0724403 -0.954707 -0.288513
2.02636 65.1227 1.17567 0.0425909 -0.957201 -0.286274
3.24145 65.2457 1.04482 0.0888719 -0.957938 -0.272867
4.5742 65.6179 0.58926 0.213839 -0.93757 -0.269718
5.35889 65.9437 0.217337 0.263836 -0.928311 -0.261963
6.3818 66.3811 -0.291983 0.294839 -0.92258 -0.246473
7.33664 66.8074 -0.727279 0.325648 -0.930392 -0.168299
8.14622 67.1544 -0.993465 0.345939 -0.920843 -0.179929
9.00108 67.5421 -1.1824 0.376806 -0.91598 -0.135657
9.98056 67.9608 -1.32995 0.39678 -0.911288 -0.110093
10.8677 68.3475 -1.40947 0.382096 -0.920443 -0.0813067
11.7476 68.7331 -1.551 0.383449 -0.920988 -0.0689118
12.6023 69.0956 -1.65656 0.369222 -0.928272 -0.0439145
13.5186 69.4688 -1.81166 0.373305 -0.9272 -0.0307134
14.5404 69.881 -2.08908 0.372314 -0.927832 -0.0210565
15.5625 70.2976 -2.40761 0.373375 -0.927654 0.00696845
16.3621 70.6174 -2.67337 0.375485 -0.926797 0.00729197
17.7489 71.1648 -3.31145 0.371114 -0.928294 0.0229581
18.7488 71.5524 -3.90602 0.373173 -0.927412 0.0254655
19.6467 71.8882 -4.674 0.367583 -0.929567 0.0280552
20.5685 72.2252 -5.55711 0.369976 -0.928554 0.0298472
21.171 72.4417 -6.39715 0.379054 -0.924904 0.0294836
21.6889 72.6285 -7.16433 0.376922 -0.925821 0.0278244
22.1904 72.8093 -8.02482 0.375439 -0.926553 0.0233391
22.5684 72.9423 -9.12943 0.38204 -0.924033 0.0143295
23.0408 73.121 -10.4911 0.387774 -0.921715 0.00855704
23.3424 73.2465 -11.4836 0.382291 -0.924042 -0.000688141
23.5299 73.3285 -12.6984 0.382757 -0.923731 -0.013435
23.5689 73.363 -13.6188 0.386713 -0.922043 -0.0169687
23.5108 73.3541 -14.529 0.389257 -0.920959 -0.0174522
23.3445 73.3181 -15.5607 0.389271 -0.920423 -0.0359219
22.8894 73.1844 -16.8765 0.38611 -0.921374 -0.0446099
22.3443 73.021 -18.1543 0.385192 -0.921531 -0.0490732
21.8021 72.844 -19.1132 0.386802 -0.92098 -0.0466861
21.2303 72.6588 -19.9973 0.383595 -0.921476 -0.0611367
20.3803 72.3753 -21.0537 0.380444 -0.923032 -0.0572111
19.7564 72.1546 -21.6664 0.387197 -0.920571 -0.0512562
18.9042 71.8425 -22.4759 0.384596 -0.921874 -0.047114
18.0883 71.5274 -23.0412 0.389315 -0.920079 -0.0432882
16.9195 71.0531 -23.8193 0.398707 -0.916633 -0.0285787
15.8441 70.5915 -24.4083 0.410109 -0.911984 -0.0097463
14.4015 69.9286 -24.992 0.425975 -0.904695 0.00847146
13.4312 69.4643 -25.3419 0.438988 -0.898082 0.0271711
12.3746 68.9105 -25.6427 0.464634 -0.884075 0.0502652
11.5206 68.4624 -25.8009 0.460887 -0.884749 0.0692915
10.5803 67.9028 -26.0118 0.505291 -0.852294 0.131503
9.69569 67.3588 -26.187 0.507696 -0.846697 0.159215
8.72164 66.7132 -26.3062 0.51106 -0.814625 0.274234
7.7234 66.0404 -26.3165 0.552794 -0.781285 0.289849
6.60769 65.33 -26.4227 0.469487 -0.751083 0.451863
5.58572 64.3452 -26.7036 0.482321 -0.658267 0.577971
5.00366 63.6674 -27.0245 0.336049 -0.657139 0.674713
4.57386 62.8684 -27.3741 0.322105 -0.501777 0.802788
4.12136 61.5507 -27.9259 0.20055 -0.375881 0.904706
3.95362 60.4583 -28.3 0.201624 -0.268223 0.941312
3.80555 59.4453 -28.5151 0.181285 -0.167639 0.969037
3.39994 58.3212 -28.6712 0.0934547 -0.141271 0.982257
2.81632 57.5078 -28.6803 0.0739951 -0.0642434 0.995187
1.92034 56.7967 -28.6717 0.0241998 -0.0591145 0.997001
0.80975 56.5587 -28.6945 -0.010316 -0.0385178 0.999205
-0.361481 56.9273 -28.8356 -0.13495 -0.0448507 0.989202
-1.01143 57.6432 -28.8799 -0.167801 -0.0764253 0.982854
-1.41503 58.5896 -28.8451 -0.176646 -0.152185 0.970721
-1.60357 59.5677 -28.6367 -0.177363 -0.266869 0.947271
-1.76022 60.8082 -28.2902 -0.272786 -0.379484 0.883755
-2.00297 61.9518 -27.818 -0.260068 -0.480789 0.837228
-2.21104 62.7728 -27.4239 -0.279034 -0.565131 0.76745
-2.7945 63.897 -26.6544 -0.333475 -0.683058 0.644151
-3.37576 64.4685 -26.2466 -0.391632 -0.713996 0.575125
-4.35701 65.2662 -25.8798 -0.36453 -0.801516 0.474014
-5.42365 65.9483 -25.5863 -0.432445 -0.847734 0.307146
-6.45671 66.5133 -25.4488 -0.416456 -0.856909 0.303763
-7.26256 66.9082 -25.3394 -0.408057 -0.88658 0.216449
-8.35178 67.4575 -25.1376 -0.390297 -0.903073 0.179242
-9.24647 67.87 -24.9189 -0.365834 -0.921822 0.127647
-10.122 68.2526 -24.7449 -0.385805 -0.915991 0.107805
-11.0392 68.6474 -24.5841 -0.372916 -0.925578 0.0651085
-12.2543 69.1628 -24.2027 -0.365646 -0.929168 0.0523637
-13.453 69.6482 -23.5723 -0.349683 -0.936343 0.0291236
-14.276 69.9586 -23.15 -0.339843 -0.940304 0.0183102
-15.3732 70.3653 -22.3885 -0.331168 -0.943529 0.00540778
-16.2878 70.6822 -21.6064 -0.323438 -0.946237 -0.000889952
-17.0592 70.9385 -20.6752 -0.321066 -0.94704 -0.00569685
-17.5817 71.1101 -19.6966 -0.317848 -0.948125 -0.00569868
-18.1971 71.3058 -18.3458 -0.315817 -0.948772 -0.00947758
-18.8159 71.4953 -16.9355 -0.311721 -0.950095 -0.0118377
-19.2444 71.615 -15.6584 -0.308983 -0.950921 -0.0166676
-19.5189 71.6908 -14.7893 -0.307614 -0.951464 -0.00948558
-19.8675 71.791 -13.6584 -0.306296 -0.951874 -0.0108986
-20.089 71.8492 -12.7502 -0.305546 -0.952055 -0.0152498
-20.3379 71.9121 -11.3978 -0.30516 -0.952265 -0.00828791
-20.354 71.9082 -10.1438 -0.302376 -0.953171 -0.00579041
-20.0616 71.8133 -9.03505 -0.294577 -0.955592 0.0048947
-19.7431 71.7237 -8.19055 -0.28912 -0.957273 0.00608627
-19.3343 71.6061 -7.26566 -0.289186 -0.957254 0.00607514
-18.5666 71.3819 -6.05005 -0.291086 -0.956664 0.00793692
-17.9893 71.219 -5.32194 -0.288417 -0.957392 0.0145705
-17.359 71.0362 -4.63225 -0.292915 -0.95608 0.0106139
-16.6966 70.8404 -4.00158 -0.289317 -0.957192 0.00871879
-15.7214 70.5516 -3.19656 -0.294124 -0.95573 0.00754497
-14.6411 70.2232 -2.56529 -0.291325 -0.956619 -0.00100803
-13.388 69.834 -1.86325 -0.294004 -0.955759 -0.0093363
-12.5428 69.5742 -1.59205 -0.285396 -0.958251 -0.0174453
-11.619 69.2936 -1.37437 -0.289962 -0.956765 -0.022262
-10.6086 68.9819 -1.16998 -0.286313 -0.957669 -0.0298998
-9.68803 68.6935 -1.06173 -0.291992 -0.95558 -0.039739
-9.68962 68.6592 -0.101056 -0.301737 -0.952706 -0.0355451
-8.47083 68.2688 -0.0772498 -0.30225 -0.952302 -0.042019
-7.55059 67.9639 -0.0917167 -0.307757 -0.948846 -0.07054
-6.20418 67.5152 -0.132321 -0.322316 -0.942388 -0.0893366
-5.29004 67.2071 -0.129332 -0.34562 -0.931374 -0.10912
-4.35732 66.8274 -0.00973574 -0.320683 -0.932726 -0.164878
-3.40951 66.4511 0.22908 -0.331949 -0.928132 -0.168467
-2.42586 66.0061 0.62019 -0.269596 -0.922502 -0.276238
-1.63379 65.6415 1.1036 -0.249422 -0.932368 -0.261685
-0.689518 65.2546 1.52741 -0.219849 -0.920148 -0.322373
0.40348 64.9169 1.97571 -0.132465 -0.927603 -0.349293
1.45069 64.8294 2.04947 -0.0150895 -0.935917 -0.347973
2.61511 64.8187 2.1762 0.0242822 -0.9466 -0.321496
3.84074 65.0724 1.87809 0.15489 -0.93574 -0.3167
4.73079 65.3495 1.58416 0.245998 -0.915084 -0.319522
5.66268 65.7476 1.14931 0.261709 -0.914388 -0.308135
6.60882 66.2184 0.678428 0.324169 -0.917694 -0.229679
7.56488 66.671 0.221066 0.324765 -0.917347 -0.230223
8.48172 67.1287 -0.0853648 0.380489 -0.907214 -0.179419
9.4581 67.5946 -0.337854 0.392923 -0.908088 -0.144874
10.2784 67.9895 -0.39735 0.402403 -0.910626 -0.0939768
11.3846 68.4854 -0.510449 0.396295 -0.913369 -0.093309
12.3536 68.9284 -0.652343 0.400129 -0.914181 -0.063759
13.1924 69.2935 -0.685457 0.385588 -0.92139 -0.0463637
14.3053 69.7667 -0.97071 0.384418 -0.922763 -0.0243405
15.2697 70.1656 -1.22236 0.380537 -0.924636 -0.0154934
16.2405 70.5757 -1.62218 0.395182 -0.918582 0.0041192
17.3673 71.0395 -2.05335 0.385302 -0.922512 0.0226926
18.4203 71.4568 -2.61219 0.377012 -0.925744 0.0293345
19.2714 71.7891 -3.09029 0.37807 -0.925362 0.0277128
20.0597 72.0863 -3.72736 0.369137 -0.928745 0.0342126
20.717 72.325 -4.35817 0.3732 -0.927236 0.030902
21.4705 72.606 -5.12548 0.388392 -0.920815 0.0353283
22.0899 72.8298 -6.04518 0.380493 -0.923983 0.0376685
22.7099 73.0521 -6.91754 0.375606 -0.926272 0.0306697
23.0908 73.1838 -7.71817 0.379968 -0.924642 0.0255616
23.4632 73.3163 -8.80096 0.381454 -0.924301 0.0126927
23.7985 73.4436 -9.77645 0.381553 -0.924315 0.00770071
24.187 73.5983 -11.0939 0.386222 -0.922404 0.00106678
24.3308 73.6584 -11.9968 0.387767 -0.921748 -0.0024919
24.4365 73.7199 -13.3763 0.38326 -0.923448 -0.0188477
24.455 73.7513 -14.3139 0.388624 -0.921129 -0.0218203
24.3328 73.7324 -15.4824 0.388679 -0.920665 -0.0361164
23.9624 73.6166 -16.5908 0.376589 -0.925371 -0.0409986
23.5024 73.4909 -17.8506 0.387877 -0.920539 -0.0464696
23.0738 73.3643 -18.8786 0.38498 -0.921621 -0.0490458
22.4918 73.1695 -19.7317 0.379788 -0.92353 -0.0534271
21.7474 72.936 -20.9265 0.383669 -0.921413 -0.0616078
21.1358 72.7274 -21.6295 0.385873 -0.920583 -0.0602356
20.2893 72.4242 -22.3968 0.39256 -0.917608 -0.061944
19.4238 72.1069 -23.2776 0.388146 -0.920016 -0.0539708
18.6037 71.7882 -23.8246 0.395683 -0.916799 -0.053995
17.8432 71.4775 -24.3269 0.406609 -0.912641 -0.0418862
16.6972 70.9936 -25.0335 0.416553 -0.908445 -0.0342203
15.8161 70.6008 -25.4717 0.429885 -0.902383 -0.0273394
14.642 70.0447 -25.9215 0.431071 -0.902184 -0.0155766
13.8233 69.6321 -26.1917 0.460064 -0.887768 0.0144764
12.8835 69.1314 -26.4979 0.46881 -0.882388 0.039655
11.5922 68.3868 -26.8031 0.49759 -0.862417 0.0874288
10.7119 67.8603 -26.9845 0.524403 -0.844611 0.107863
9.9174 67.2897 -27.1271 0.539695 -0.823322 0.172486
9.18273 66.7805 -27.2616 0.573527 -0.793564 0.203281
8.41933 66.1766 -27.2434 0.584341 -0.754903 0.294878
7.33027 65.3328 -27.1815 0.614505 -0.681616 0.396249
6.65912 64.5821 -27.3573 0.517629 -0.62803 0.581067
5.94098 63.8609 -27.5517 0.494924 -0.539108 0.66517
5.24634 62.4877 -27.9894 0.394842 -0.417993 0.808995
4.96593 61.2378 -28.3569 0.354632 -0.359786 0.863012
4.85352 60.0918 -28.6198 0.285346 -0.234787 0.929221
4.72853 59.0829 -28.7481 0.177739 -0.166143 0.969951
4.31 57.9233 -28.7943 0.143762 -0.0572595 0.987325
3.76798 57.0538 -28.801 0.107936 -0.0227015 0.992129
2.95289 56.2578 -28.7168 0.0399596 0.0275646 0.998821
2.05376 55.6373 -28.6722 0.0232976 0.0152522 0.999612
1.16682 55.4651 -28.6551 -0.0202038 0.124854 0.991969
-0.123225 55.6769 -28.8106 -0.178699 0.0874648 0.974894
-1.00378 55.9113 -28.939 -0.141959 -0.00776629 0.989833
-1.58181 56.723 -29.0117 -0.198739 -0.0193256 0.977859
-2.05231 57.579 -29.0967 -0.258161 -0.0854089 0.961566
-2.34941 58.4981 -29.071 -0.278407 -0.116593 0.95336
-2.51854 59.4829 -28.965 -0.292482 -0.187543 0.936511
-2.7047 60.7556 -28.6285 -0.291163 -0.390161 0.873498
-2.78322 61.6627 -28.3078 -0.380406 -0.405197 0.825616
-3.04175 62.568 -27.8641 -0.392541 -0.484945 0.78138
-3.43119 63.5541 -27.3064 -0.425034 -0.634053 0.646006
-4.1322 64.4587 -26.8824 -0.46743 -0.685549 0.55815
-4.82465 65.082 -26.6834 -0.455802 -0.791384 0.407378
-5.76716 65.7369 -26.4796 -0.463081 -0.786236 0.409132
-6.80522 66.4026 -26.3612 -0.474174 -0.849128 0.232681
-7.8984 67.0036 -26.2426 -0.428802 -0.877265 0.215723
-9.0085 67.5912 -26.0197 -0.427018 -0.893842 0.136759
-9.91167 68.0579 -25.8213 -0.415753 -0.901553 0.114447
-10.8354 68.4652 -25.6962 -0.382883 -0.919692 0.0869912
-11.666 68.8416 -25.4252 -0.403819 -0.912831 0.0601881
-12.7506 69.3181 -25.058 -0.389661 -0.920507 0.0288441
-13.8275 69.7612 -24.4702 -0.36461 -0.931062 0.0135512
-14.7161 70.1105 -24.0058 -0.35496 -0.93487 0.00338132
-15.5656 70.4329 -23.4434 -0.354745 -0.934963 0.000125304
-16.6833 70.8303 -22.4979 -0.33962 -0.940458 -0.0140238
-17.3351 71.0398 -21.8502 -0.320614 -0.947114 -0.0120979
-17.896 71.2257 -21.1435 -0.32128 -0.946962 -0.0064551
-18.562 71.4418 -19.9281 -0.320565 -0.947193 -0.00794832
-19.0225 71.5872 -18.8851 -0.320155 -0.947286 -0.0122877
-19.5193 71.7366 -17.6495 -0.315209 -0.948901 -0.0151577
-19.8675 71.8355 -16.64 -0.315962 -0.948645 -0.0154882
-20.2607 71.9448 -15.4523 -0.317516 -0.948051 -0.0195758
-20.5944 72.0367 -14.4683 -0.313163 -0.949616 -0.0126096
-20.9344 72.1319 -13.342 -0.309659 -0.950708 -0.016264
-21.1805 72.1912 -12.1796 -0.309186 -0.950841 -0.017461
-21.3798 72.2418 -10.9208 -0.3052 -0.952252 -0.00826557
-21.3117 72.2127 -9.97846 -0.305085 -0.952299 -0.00700617
-20.9683 72.1012 -8.68248 -0.304728 -0.952427 0.00490511
-20.6408 71.9996 -7.75126 -0.299081 -0.954179 0.00474257
-20.2412 71.885 -6.92877 -0.29197 -0.956389 0.00854142
-19.7797 71.7523 -6.15522 -0.293093 -0.956036 0.00950529
-19.0733 71.5477 -5.15245 -0.291218 -0.956462 0.0192319
-18.4736 71.3794 -4.4976 -0.289746 -0.956904 0.0195541
-17.7494 71.1751 -3.66973 -0.297686 -0.954464 0.0195388
-16.9339 70.9307 -2.91306 -0.302497 -0.953054 0.0135805
-16.2341 70.7157 -2.37901 -0.2969 -0.95487 0.00854116
-15.3547 70.4465 -1.8309 -0.297813 -0.954582 0.00895908
-14.5805 70.2025 -1.39642 -0.303416 -0.952856 0.00212213
-13.7717 69.946 -0.960693 -0.303894 -0.952705 0.000969907
-12.6948 69.6097 -0.639113 -0.293788 -0.955839 -0.00773233
-11.3672 69.1898 -0.317402 -0.293795 -0.955645 -0.0206951
-10.4057 68.884 -0.160375 -0.296913 -0.954385 -0.0315036
-9.89524 68.7236 -0.113456 -0.296908 -0.954386 -0.0315
