2.23642 66.3985 -26.4109 0.102264 -0.811894 0.574778
2.93805 66.9006 -25.8695 0.176656 -0.86077 0.475491
3.93286 67.399 -25.2507 0.22072 -0.890369 0.39295
4.70182 67.8037 -24.87 0.286687 -0.882319 0.373261
5.64839 68.2437 -24.5071 0.292069 -0.909583 0.295199
6.82797 68.7951 -24.1683 0.352536 -0.902847 0.24596
7.79966 69.2404 -23.9335 0.385811 -0.900824 0.196635
9.08006 69.8248 -23.6526 0.376007 -0.914236 0.147303
9.9151 70.1776 -23.4187 0.37963 -0.917226 0.118127
11.1548 70.7415 -23.0269 0.3666 -0.926223 0.0878374
12.1318 71.1442 -22.717 0.363535 -0.930341 0.0460042
13.1732 71.5807 -22.2838 0.373527 -0.927126 0.0288175
14.0024 71.9192 -21.8884 0.370491 -0.928598 0.0209765
14.9366 72.2936 -21.3663 0.360946 -0.932565 0.00639914
15.9157 72.67 -20.6828 0.360904 -0.932541 -0.0107799
16.7426 72.977 -19.9487 0.354849 -0.934787 -0.0159621
17.5483 73.2608 -18.9494 0.354539 -0.934804 -0.0210555
18.1735 73.4708 -18.0157 0.352908 -0.935291 -0.0261913
18.6308 73.6134 -17.092 0.350939 -0.935926 -0.0297462
19.0849 73.7501 -15.8108 0.355525 -0.934303 -0.0260661
19.2783 73.7956 -14.8287 0.351726 -0.93582 -0.023028
19.3818 73.8124 -13.9312 0.346068 -0.937825 -0.0268299
19.366 73.7753 -12.8614 0.345316 -0.938083 -0.0275084
19.2641 73.7181 -11.8578 0.343193 -0.939151 -0.0146473
19.0769 73.6306 -10.7596 0.34712 -0.937597 -0.0200835
18.7929 73.5065 -9.75384 0.343585 -0.938902 -0.0202566
18.2959 73.305 -8.72106 0.336139 -0.9417 -0.0145156
17.7988 73.1171 -7.97848 0.347163 -0.937734 -0.00818781
17.0372 72.8296 -7.29007 0.340702 -0.940056 -0.0147142
16.1146 72.4824 -6.69466 0.339063 -0.940353 -0.0258021
15.3187 72.1859 -6.168 0.330718 -0.943211 -0.0312882
14.4922 71.8718 -5.62049 0.337172 -0.940777 -0.0353968
13.7564 71.5858 -5.11562 0.333401 -0.941376 -0.0502668
12.7587 71.2112 -4.55354 0.323673 -0.944565 -0.0550651
11.6488 70.7926 -4.1617 0.324675 -0.943395 -0.0667992
10.7994 70.4845 -3.90309 0.321556 -0.943794 -0.076512
9.39913 69.9756 -3.5373 0.309901 -0.944457 -0.109375
8.52238 69.6637 -3.32885 0.315763 -0.940874 -0.121846
7.07851 69.1609 -2.87855 0.278494 -0.94731 -0.158258
5.96351 68.7915 -2.45171 0.259693 -0.951581 -0.163912
5.03367 68.4836 -2.01769 0.217829 -0.954266 -0.20476
4.08754 68.2314 -1.55904 0.146198 -0.972871 -0.177897
3.21442 68.0514 -1.21436 0.126637 -0.973934 -0.188189
1.6777 67.9022 -0.967558 -0.0082407 -0.977877 -0.209017
0.465701 68.0218 -1.24434 -0.089648 -0.96805 -0.234185
-0.355289 68.1842 -1.58437 -0.144379 -0.970764 -0.189204
-1.4283 68.4233 -2.08278 -0.144004 -0.976786 -0.158597
-2.53759 68.7239 -2.51716 -0.209742 -0.96183 -0.174886
-3.55892 69.0075 -2.81965 -0.221617 -0.96445 -0.143949
-4.82258 69.3488 -3.09816 -0.2235 -0.965676 -0.131434
-6.30044 69.7451 -3.35408 -0.244208 -0.964336 -0.102076
-7.18122 69.9717 -3.45425 -0.249407 -0.96397 -0.0912514
-8.50485 70.3419 -3.69887 -0.246363 -0.966536 -0.071503
-9.53087 70.6342 -3.98662 -0.253922 -0.965646 -0.0552325
-10.4793 70.9071 -4.28914 -0.262959 -0.963305 -0.0538088
-11.3177 71.1455 -4.62907 -0.263084 -0.963884 -0.0401413
-12.2302 71.4188 -5.09873 -0.267439 -0.962993 -0.03348
-13.058 71.6632 -5.56691 -0.264925 -0.963925 -0.0255723
-13.8418 71.8947 -6.12517 -0.275722 -0.961041 -0.0194257
-14.5846 72.1135 -6.77149 -0.26781 -0.963397 -0.0119666
-15.1619 72.2797 -7.44633 -0.270938 -0.962559 -0.00352706
-15.86 72.4807 -8.54087 -0.272817 -0.962062 0.000762127
-16.3431 72.6158 -9.73897 -0.268183 -0.963364 0.00267256
-16.5593 72.6787 -10.7506 -0.272415 -0.962153 -0.00717733
-16.6282 72.7018 -11.9333 -0.27458 -0.961556 0.00408252
-16.5161 72.6683 -13.027 -0.28143 -0.959572 0.00206625
-16.2766 72.5925 -14.1403 -0.272996 -0.962009 0.00335875
-15.9968 72.5098 -15.1499 -0.272883 -0.962042 0.00307711
-15.7143 72.4167 -16.0244 -0.274011 -0.961599 0.0156353
-15.3752 72.305 -16.8794 -0.277281 -0.960532 0.0218509
-14.814 72.1186 -18.0752 -0.279498 -0.959968 0.0184864
-14.1259 71.8807 -19.1062 -0.282036 -0.958902 0.0304667
-13.0375 71.5096 -20.0925 -0.289831 -0.956139 0.0423834
-12.1053 71.1954 -20.7063 -0.281087 -0.957658 0.0623029
-11.3299 70.9345 -21.1194 -0.292439 -0.953262 0.0759632
-10.4979 70.6483 -21.5091 -0.294014 -0.952097 0.0836832
-9.52068 70.3003 -21.9329 -0.282815 -0.952312 0.114536
-8.62264 69.9862 -22.2698 -0.291689 -0.949095 0.118899
-7.78105 69.6778 -22.5521 -0.291328 -0.942033 0.165425
-6.7259 69.3031 -22.8981 -0.280306 -0.943309 0.177754
-5.61776 68.9002 -23.2104 -0.27589 -0.934038 0.22593
-4.46532 68.512 -23.5207 -0.239309 -0.942516 0.233227
-3.43617 68.1361 -23.8563 -0.22328 -0.928966 0.295241
-2.14016 67.6601 -24.3979 -0.17645 -0.914931 0.362998
-1.11223 67.2271 -25.0251 -0.105747 -0.891445 0.439688
-0.280554 66.714 -25.7448 -0.0785713 -0.828018 0.549552
0.304088 66.2585 -26.4306 -0.0241244 -0.809856 0.584353
0.942397 65.4376 -27.43 -0.034656 -0.775925 0.629479
1.55889 65.7879 -27.1001 0.136089 -0.787723 0.60081
2.21128 66.3794 -26.4334 0.102264 -0.811894 0.574779
2.88537 66.1178 -27.0248 0.183132 -0.73835 0.649077
3.57786 66.6482 -26.4921 0.236216 -0.835981 0.489734
4.34412 67.1573 -26.0713 0.267123 -0.864702 0.425364
5.10585 67.594 -25.7078 0.346509 -0.859647 0.372398
5.89462 68.0097 -25.3925 0.354906 -0.871821 0.336622
6.88004 68.5595 -25.0954 0.369309 -0.880048 0.294309
7.81389 69.0127 -24.8899 0.405794 -0.887738 0.217376
9.14626 69.6715 -24.6267 0.404093 -0.902922 0.146429
10.4485 70.3065 -24.2828 0.40279 -0.908565 0.110771
11.6624 70.8744 -23.9029 0.399378 -0.914537 0.0641772
12.6577 71.3186 -23.5321 0.375596 -0.925397 0.0506799
13.5982 71.7208 -23.1333 0.382237 -0.923707 0.0256998
14.6366 72.1576 -22.6366 0.378966 -0.925383 0.00712679
15.5913 72.5493 -22.0888 0.374569 -0.927197 0.00191464
16.4865 72.8994 -21.4676 0.360872 -0.932568 -0.00938115
17.392 73.2403 -20.6397 0.36637 -0.930259 -0.0197639
18.1219 73.5013 -19.7529 0.359874 -0.932515 -0.0300949
18.7098 73.6979 -18.8727 0.36114 -0.931717 -0.0384893
19.2063 73.8577 -17.9855 0.351006 -0.935894 -0.0299526
19.6507 73.9991 -16.9951 0.362756 -0.931544 -0.0251832
19.9771 74.0932 -15.9878 0.357841 -0.933157 -0.0341656
20.1857 74.1397 -14.9534 0.35166 -0.935843 -0.0230987
20.3104 74.1585 -13.8198 0.351927 -0.935643 -0.0265918
20.2609 74.0995 -12.4681 0.359076 -0.933091 -0.0195167
20.1013 74.021 -11.0543 0.350009 -0.936601 -0.0153563
19.7574 73.8641 -9.65593 0.358283 -0.933533 -0.0121848
19.3097 73.6795 -8.60722 0.359167 -0.933203 -0.0114075
18.8721 73.5098 -7.83705 0.350237 -0.936633 -0.00153762
18.2008 73.2512 -6.97784 0.35065 -0.936379 -0.0154452
17.2106 72.8741 -6.22894 0.342109 -0.939475 -0.0186782
16.3319 72.5416 -5.71021 0.347411 -0.937493 -0.0203125
15.5168 72.2271 -5.18491 0.352764 -0.935296 -0.0273155
14.7723 71.9329 -4.69091 0.336799 -0.94068 -0.041069
13.8176 71.5545 -4.00754 0.34313 -0.938187 -0.0454685
12.4762 71.0283 -3.37753 0.335482 -0.938781 -0.0783753
11.2276 70.5505 -3.0354 0.339712 -0.937112 -0.0801026
10.1834 70.1568 -2.76846 0.328985 -0.939092 -0.0993763
9.35272 69.8358 -2.54176 0.328248 -0.936094 -0.125959
8.13947 69.3871 -2.2348 0.302546 -0.943967 -0.131876
6.92357 68.9412 -1.83866 0.268441 -0.948173 -0.169701
5.80557 68.5503 -1.36777 0.252428 -0.951328 -0.176776
4.62083 68.1713 -0.772281 0.170676 -0.96371 -0.204396
3.64192 67.8876 -0.341258 0.148051 -0.961035 -0.230745
2.75694 67.7423 -0.076881 0.0594622 -0.97921 -0.193938
1.85314 67.6701 0.0104649 0.024021 -0.976053 -0.212451
0.746855 67.7304 -0.149521 -0.0253009 -0.975119 -0.220233
-0.156852 67.8848 -0.435096 -0.1208 -0.965394 -0.229072
-1.19393 68.165 -0.947791 -0.144741 -0.964743 -0.219819
-2.00716 68.3855 -1.30699 -0.220385 -0.955994 -0.193364
-3.09228 68.7177 -1.72731 -0.225318 -0.960127 -0.165486
-4.22223 69.0501 -2.027 -0.244282 -0.959002 -0.143137
-5.80697 69.4969 -2.33629 -0.25182 -0.958509 -0.133593
-6.77601 69.7771 -2.47558 -0.270319 -0.958314 -0.0913869
-7.796 70.0638 -2.56949 -0.262959 -0.961543 -0.0792977
-8.97787 70.4126 -2.83923 -0.264065 -0.962739 -0.0583335
-10.0383 70.7261 -3.14868 -0.270268 -0.961422 -0.0507986
-10.9521 70.9927 -3.43829 -0.274823 -0.960452 -0.0438618
-11.87 71.2736 -3.84117 -0.273039 -0.961474 -0.0319023
-12.7244 71.5312 -4.28279 -0.274368 -0.96128 -0.0257455
-13.714 71.8337 -4.84346 -0.280279 -0.959673 -0.0209177
-14.664 72.1191 -5.53582 -0.278283 -0.960358 -0.0163429
-15.4956 72.3705 -6.35252 -0.280961 -0.959688 -0.00778591
-16.3166 72.6143 -7.44043 -0.278046 -0.960561 -0.0034353
-16.8735 72.773 -8.45534 -0.284812 -0.958574 0.00281096
-17.2658 72.8858 -9.53304 -0.290315 -0.956912 0.00559901
-17.5352 72.9662 -10.862 -0.29202 -0.956412 -0.000614421
-17.5924 72.9842 -11.9347 -0.290668 -0.956822 -0.0017567
-17.4172 72.9333 -13.2279 -0.290323 -0.956928 -0.00112739
-17.1582 72.8541 -14.3322 -0.28647 -0.958088 0.00120144
-16.8833 72.7695 -15.405 -0.28334 -0.958986 0.00797134
-16.5182 72.6497 -16.6385 -0.286923 -0.957896 0.0104961
-16.162 72.5335 -17.5021 -0.286924 -0.957896 0.0105281
-15.6334 72.3514 -18.5634 -0.293971 -0.955638 0.0183178
-15.0378 72.1442 -19.4923 -0.288686 -0.957025 0.0276208
-14.3018 71.8814 -20.3946 -0.30043 -0.953154 0.0343857
-13.455 71.5958 -20.994 -0.28996 -0.956082 0.0427871
-12.6373 71.3166 -21.4843 -0.305878 -0.950145 0.0605177
-11.7573 70.9989 -21.9966 -0.311393 -0.947514 0.0721049
-10.7022 70.6168 -22.4969 -0.30124 -0.948839 0.0944165
-9.64646 70.221 -22.9397 -0.321022 -0.938496 0.126567
-8.50148 69.7762 -23.3792 -0.301201 -0.941271 0.152492
-7.36896 69.3383 -23.714 -0.314402 -0.929433 0.193065
-6.33047 68.9445 -23.992 -0.289804 -0.933325 0.211936
-5.2332 68.5145 -24.2699 -0.296625 -0.917449 0.265038
-4.10758 68.0633 -24.6078 -0.274192 -0.919 0.282212
-3.06087 67.627 -24.9669 -0.250489 -0.893823 0.371934
-2.1934 67.2547 -25.3652 -0.218218 -0.864134 0.45349
-1.27261 66.7244 -26.0147 -0.124589 -0.852341 0.504335
-0.509673 66.0044 -26.856 -0.149658 -0.770948 0.617402
0.00808315 65.281 -27.6468 -0.0433929 -0.700561 0.70621
0.376043 64.4219 -28.3259 -0.000696265 -0.657957 0.749678
0.640703 63.6566 -28.8663 0.0394722 -0.507973 0.860468
0.964352 62.5295 -29.501 0.00927417 -0.385453 0.919683
0.956029 61.5628 -29.8255 -0.00849309 -0.335871 0.941109
0.858545 60.6652 -30.0812 -0.0172925 -0.241406 0.969201
0.441562 59.1848 -30.401 0.00348516 -0.174854 0.984588
0.427301 58.1239 -30.5583 -0.0374243 -0.0970105 0.994394
0.565181 57.2133 -30.6514 -0.0519694 -0.109418 0.992636
1.468 56.6654 -30.6208 -0.00236212 0.0183004 0.999166
1.98987 57.5268 -30.6133 0.0476578 -0.0951257 0.994324
1.91124 58.5663 -30.5101 0.0425646 -0.10154 0.993887
1.79074 59.5425 -30.3503 0.0691797 -0.179217 0.981374
1.70646 60.7493 -30.0896 0.0582402 -0.238993 0.969273
1.5446 61.6628 -29.8158 0.0572146 -0.332068 0.941519
0.990538 62.5246 -29.5034 0.00927198 -0.385452 0.919684
1.5408 63.3966 -29.0571 0.0530276 -0.446035 0.891477
1.84947 64.3805 -28.486 0.115675 -0.564025 0.816595
2.2417 65.3403 -27.7751 0.132324 -0.707411 0.688718
2.51902 65.6948 -27.4026 0.183136 -0.738349 0.649078
3.26774 65.4807 -27.9328 0.260011 -0.68961 0.668831
3.80505 66.0758 -27.4304 0.276155 -0.753321 0.596864
4.42757 66.6169 -27.0154 0.264751 -0.76346 0.589098
5.5221 67.3884 -26.4928 0.369635 -0.840141 0.396905
6.74318 68.1387 -26.0884 0.429874 -0.85891 0.278356
7.62266 68.6565 -25.89 0.463377 -0.840816 0.27984
8.526 69.1488 -25.75 0.429466 -0.881123 0.197107
9.35217 69.6108 -25.5696 0.424978 -0.888242 0.170803
10.2165 70.0586 -25.3253 0.431595 -0.891179 0.13973
11.1268 70.5169 -25.0823 0.425258 -0.899278 0.102245
11.9645 70.9311 -24.8056 0.401965 -0.911652 0.0855224
12.9596 71.4021 -24.4349 0.396138 -0.916485 0.0538711
13.7446 71.7541 -24.1154 0.388936 -0.920646 0.0322763
14.799 72.2093 -23.6227 0.387923 -0.921339 0.0254941
15.8882 72.6644 -23.0139 0.374902 -0.927046 0.00584754
16.9482 73.0978 -22.3136 0.377194 -0.925988 -0.0164419
17.8168 73.4311 -21.5286 0.367528 -0.929652 -0.0259062
18.4943 73.6788 -20.7682 0.374113 -0.926779 -0.0330599
19.3766 73.9826 -19.5091 0.362394 -0.931393 -0.0339909
19.9807 74.1754 -18.4172 0.364434 -0.93057 -0.0349636
20.6136 74.374 -16.9929 0.363781 -0.931033 -0.0287443
20.9612 74.4722 -15.7515 0.374263 -0.926792 -0.0313504
21.153 74.5159 -14.8534 0.370094 -0.928518 -0.0297536
21.2332 74.5107 -13.697 0.36997 -0.928571 -0.0296265
21.1767 74.4529 -12.5144 0.359075 -0.933092 -0.019522
21.085 74.4068 -11.5301 0.373361 -0.927665 -0.00630832
20.9887 74.3533 -10.567 0.365148 -0.930838 -0.0143908
20.7351 74.2391 -9.62057 0.361823 -0.932136 -0.0138865
20.363 74.0891 -8.6917 0.372926 -0.927856 0.00304008
19.9517 73.9206 -7.85311 0.365439 -0.930738 -0.00647574
19.5093 73.7489 -7.08173 0.355198 -0.934768 -0.00653219
18.6186 73.4019 -6.0419 0.356482 -0.934288 -0.00409032
17.4182 72.9415 -5.23698 0.359119 -0.93329 -0.00197534
16.6004 72.619 -4.78486 0.359193 -0.932993 -0.0177484
15.4726 72.1737 -4.04807 0.357485 -0.933438 -0.02998
14.5912 71.809 -3.36724 0.366628 -0.929679 -0.0357936
13.741 71.4601 -2.81177 0.353108 -0.933507 -0.0622863
12.8934 71.1179 -2.47676 0.351448 -0.934145 -0.0621121
11.8187 70.6863 -2.18105 0.351627 -0.932019 -0.0867478
10.9931 70.3655 -1.99912 0.345184 -0.933549 -0.0965537
9.94238 69.9449 -1.73002 0.338399 -0.934857 -0.106521
9.0467 69.5857 -1.50448 0.338 -0.930596 -0.140528
7.91527 69.1291 -1.18724 0.321869 -0.933707 -0.155387
7.03455 68.8033 -0.896677 0.280794 -0.937282 -0.206537
6.20355 68.4857 -0.535022 0.239389 -0.950071 -0.200143
4.98604 68.0378 0.09538 0.211837 -0.95159 -0.219908
4.16742 67.7904 0.497335 0.17784 -0.957499 -0.227086
3.14077 67.5447 0.818363 0.0754793 -0.965245 -0.250208
2.15256 67.4406 0.971795 0.0212172 -0.968186 -0.246019
1.17951 67.4652 0.925958 -0.0201788 -0.972609 -0.231432
-0.0302075 67.6228 0.617708 -0.109242 -0.970236 -0.215755
-0.952766 67.8535 0.197803 -0.150027 -0.959196 -0.239654
-1.95021 68.1663 -0.26889 -0.209315 -0.95143 -0.22576
-2.84165 68.4464 -0.636799 -0.239322 -0.952034 -0.190208
-3.97565 68.8195 -1.03581 -0.248809 -0.951409 -0.181426
-4.88855 69.0967 -1.23751 -0.272604 -0.947561 -0.164117
-5.82913 69.3891 -1.39035 -0.27276 -0.956507 -0.103422
-6.69088 69.6474 -1.50712 -0.275219 -0.955797 -0.103443
-7.74212 69.9616 -1.58587 -0.284517 -0.954072 -0.092937
-8.64579 70.2415 -1.74294 -0.279907 -0.957274 -0.0726584
-10.0621 70.6752 -2.15586 -0.274215 -0.960045 -0.0558508
-11.3631 71.0771 -2.55649 -0.286044 -0.957636 -0.0333474
-12.5805 71.4558 -3.14382 -0.281667 -0.95924 -0.0228664
-13.7845 71.8272 -3.77404 -0.287706 -0.957561 -0.0173793
-14.9316 72.1804 -4.52961 -0.280055 -0.959851 -0.0159804
-15.7579 72.4328 -5.25321 -0.285584 -0.958245 -0.0125047
-16.6757 72.7181 -6.29429 -0.285573 -0.95835 -0.00358037
-17.2051 72.876 -7.07938 -0.282023 -0.959406 0.00164551
-17.8607 73.07 -8.36022 -0.292877 -0.95615 0.000430443
-18.2145 73.1756 -9.46486 -0.291695 -0.956503 0.00389106
-18.4745 73.2516 -10.7256 -0.294171 -0.95575 0.00239969
-18.565 73.2793 -11.7829 -0.29142 -0.956592 -0.00225012
-18.4108 73.2346 -13.0407 -0.292457 -0.956279 -0.00016826
-18.1599 73.158 -14.093 -0.292847 -0.956155 -0.000454981
-17.9058 73.0821 -15.0941 -0.295293 -0.955403 6.7123e-05
-17.5324 72.9618 -16.5121 -0.297054 -0.95485 0.00431523
-17.0925 72.8142 -17.73 -0.302091 -0.95323 0.0096399
-16.5117 72.614 -18.9345 -0.293784 -0.955681 0.019112
-15.8775 72.3933 -19.9582 -0.301959 -0.953055 0.0222458
-15.3301 72.203 -20.6948 -0.310508 -0.950284 0.0233497
-14.2732 71.8344 -21.5944 -0.308373 -0.950815 0.0292747
-13.4985 71.5629 -22.0764 -0.322113 -0.94542 0.0488108
-12.2208 71.0862 -22.8506 -0.311397 -0.947512 0.0721075
-11.1551 70.6824 -23.3504 -0.329366 -0.939228 0.0959377
-10.1417 70.2765 -23.7842 -0.321017 -0.938498 0.126565
-8.98634 69.8017 -24.2276 -0.345191 -0.925071 0.156998
-8.11409 69.4339 -24.4821 -0.326334 -0.927041 0.184255
-7.1627 69.0513 -24.7343 -0.321692 -0.91828 0.230816
-6.11318 68.6053 -24.9973 -0.337099 -0.911388 0.236086
-4.88881 68.0654 -25.3276 -0.315313 -0.879947 0.355346
-3.64649 67.5017 -25.7112 -0.268739 -0.897524 0.349613
-2.6404 66.9492 -26.116 -0.192374 -0.850562 0.489425
-1.8123 66.3368 -26.7439 -0.24433 -0.782812 0.572283
-1.33667 65.8111 -27.2978 -0.149657 -0.770948 0.617403
-0.930561 65.1672 -27.8601 -0.110585 -0.673934 0.730468
-0.5506 64.3746 -28.5055 -0.132321 -0.656786 0.742377
-0.248013 63.4121 -29.0738 -0.133862 -0.509194 0.850178
-0.0168071 62.592 -29.5154 -0.133685 -0.39501 0.903891
-0.0820836 61.1553 -30.0256 -0.0504684 -0.289115 0.953563
-0.296312 60.1011 -30.3075 -0.0918402 -0.24627 0.96484
-0.454542 59.0036 -30.5258 -0.116165 -0.147644 0.982195
-0.482445 57.6287 -30.6888 -0.128392 -0.0776762 0.988677
-0.211763 56.3267 -30.713 -0.109328 -0.0088299 0.993966
0.361403 55.5846 -30.6533 -0.0892812 0.0536475 0.994413
1.38894 55.4559 -30.6144 -0.0324899 0.0352006 0.998461
2.20766 55.9036 -30.6228 0.032492 0.0289163 0.999054
2.78783 56.9428 -30.6457 0.0112446 -0.012407 0.99986
2.95279 57.8256 -30.6299 0.070712 -0.111186 0.990714
2.88323 58.7314 -30.5288 0.0374717 -0.107954 0.993449
2.75002 59.6731 -30.394 0.0554275 -0.203256 0.977154
2.5267 61.2019 -30.0273 0.0499554 -0.233144 0.971104
2.40572 62.4154 -29.6111 0.0676504 -0.323882 0.943676
2.4731 63.301 -29.2068 0.0903676 -0.472949 0.876443
2.65538 64.086 -28.802 0.111738 -0.502739 0.856162
2.96116 64.8663 -28.3207 0.282786 -0.578206 0.765317
3.08032 65.1514 -28.1494 0.263327 -0.602054 0.753056
3.86131 64.8778 -28.6377 0.265243 -0.6337 0.726181
4.49813 65.8744 -28.0053 0.26001 -0.689611 0.66883
5.16627 66.5193 -27.6149 0.441294 -0.727684 0.525105
5.83878 67.1313 -27.3321 0.405465 -0.783913 0.461005
6.90671 67.8506 -27.0025 0.463787 -0.792642 0.395753
8.07596 68.6213 -26.7833 0.48846 -0.838928 0.240011
8.88924 69.1269 -26.6714 0.48868 -0.838793 0.240039
9.67796 69.5965 -26.4792 0.468079 -0.867325 0.169261
10.6554 70.1451 -26.1837 0.441807 -0.888096 0.126603
11.7009 70.697 -25.8958 0.425567 -0.899325 0.100535
12.7975 71.25 -25.5224 0.405744 -0.911178 0.0708618
13.6547 71.6544 -25.1925 0.43026 -0.902092 0.033257
14.5136 72.0663 -24.8344 0.40396 -0.914423 0.0206844
15.288 72.4043 -24.457 0.396432 -0.918025 0.00848709
16.148 72.7788 -23.9514 0.38958 -0.920979 -0.00493834
17.0752 73.1679 -23.3921 0.383388 -0.923486 -0.0107463
17.8377 73.4721 -22.7876 0.388455 -0.92119 -0.022614
18.4755 73.7177 -22.1723 0.378346 -0.925179 -0.0299777
19.1065 73.9482 -21.4363 0.369846 -0.928416 -0.0354568
19.8621 74.2102 -20.4197 0.371937 -0.9276 -0.0348407
20.3491 74.3776 -19.621 0.373654 -0.926761 -0.0384174
20.8807 74.5458 -18.5808 0.376525 -0.925488 -0.0412377
21.4012 74.7062 -17.3808 0.371855 -0.927449 -0.0395191
21.7879 74.8185 -16.1192 0.374098 -0.926868 -0.0310737
22.0833 74.8889 -14.8471 0.37711 -0.925582 -0.0327291
22.1672 74.8806 -13.5944 0.38135 -0.924018 -0.0271128
22.1191 74.8394 -12.639 0.380438 -0.924582 -0.0203997
21.9998 74.7746 -11.4871 0.377013 -0.926151 -0.00907121
21.9065 74.7155 -10.3103 0.38206 -0.924062 -0.00926078
21.5837 74.5817 -9.16009 0.376971 -0.926224 0.000697693
21.0673 74.3743 -8.03573 0.374733 -0.927127 0.00257837
20.6099 74.1847 -7.14207 0.384241 -0.923232 0.000812352
20.0759 73.9743 -6.25552 0.378095 -0.925632 0.0157487
19.1097 73.5951 -5.21775 0.372801 -0.927831 0.0101442
18.3576 73.305 -4.6595 0.366837 -0.930241 0.00890597
17.5477 72.9845 -4.14885 0.360768 -0.932626 -0.00736375
16.7776 72.6772 -3.71323 0.370338 -0.928834 -0.010859
15.9148 72.3184 -3.16701 0.378273 -0.925517 -0.0181246
15.1612 72.0035 -2.58063 0.367849 -0.928932 -0.0416746
14.3974 71.6739 -2.07469 0.367032 -0.929013 -0.0470819
13.4227 71.2618 -1.61906 0.369481 -0.927154 -0.0622009
12.3464 70.816 -1.28279 0.358168 -0.930453 -0.0772079
11.3102 70.3927 -1.09255 0.370774 -0.923726 -0.0959645
10.2 69.9245 -0.818547 0.355606 -0.926718 -0.121354
9.25625 69.5287 -0.590392 0.361237 -0.921986 -0.138441
8.16671 69.0715 -0.305901 0.340487 -0.925471 -0.16605
7.27696 68.6973 -0.00113609 0.33299 -0.928753 -0.162894
6.46467 68.368 0.336089 0.242608 -0.947876 -0.20644
5.61388 68.0272 0.827603 0.225949 -0.934539 -0.274925
4.75807 67.689 1.28447 0.207294 -0.939148 -0.273536
3.91345 67.4221 1.60029 0.172478 -0.951863 -0.25086
2.86439 67.2488 1.85549 0.0753361 -0.962165 -0.261844
1.92869 67.2033 1.9201 -0.0106365 -0.965318 -0.26086
0.652771 67.2764 1.7985 -0.0640646 -0.969798 -0.235346
-0.313641 67.4326 1.52437 -0.0895893 -0.961113 -0.261221
-1.45197 67.762 1.00848 -0.189237 -0.943246 -0.272904
-2.35005 68.0552 0.569936 -0.236125 -0.946803 -0.216766
-3.16282 68.3618 0.208076 -0.26293 -0.942177 -0.207775
-4.14929 68.6924 -0.130829 -0.272607 -0.947559 -0.164122
-5.10666 69.0271 -0.349383 -0.296405 -0.94371 -0.146819
-6.1091 69.3498 -0.491453 -0.280755 -0.949483 -0.140213
-7.5025 69.8054 -0.637637 -0.296167 -0.949369 -0.104805
-8.66397 70.1689 -0.784223 -0.290448 -0.954301 -0.0688951
-9.59144 70.4767 -1.01085 -0.301225 -0.951665 -0.0599769
-10.725 70.8362 -1.34307 -0.287521 -0.956936 -0.0397292
-11.5857 71.1102 -1.59812 -0.289257 -0.956549 -0.0363859
-12.4183 71.3754 -1.98602 -0.290848 -0.956214 -0.032582
-13.3357 71.6649 -2.47216 -0.29147 -0.956343 -0.0212925
-14.205 71.9382 -2.93042 -0.289394 -0.957056 -0.0170728
-15.0626 72.2082 -3.44505 -0.287156 -0.957781 -0.0128668
-16.0659 72.5208 -4.25505 -0.297106 -0.954822 -0.00649756
-16.7385 72.7302 -4.90683 -0.296001 -0.955182 -0.00269623
-17.6179 73.0047 -5.99965 -0.298766 -0.954325 0.00146708
-18.1128 73.1556 -6.76794 -0.296669 -0.954969 0.00455406
-18.5367 73.2821 -7.60016 -0.295872 -0.955204 0.00668403
-18.91 73.3914 -8.50278 -0.294374 -0.955677 0.00355987
-19.1866 73.4739 -9.52354 -0.294171 -0.95575 0.00245136
-19.3785 73.5307 -10.402 -0.298382 -0.954432 -0.000540188
-19.5096 73.5756 -11.3077 -0.302349 -0.953194 -0.000952359
-19.488 73.5672 -12.2649 -0.304957 -0.95236 -0.000184339
-19.2914 73.5086 -13.3186 -0.30028 -0.953828 -0.0066727
-18.9948 73.4196 -14.5886 -0.300974 -0.953632 -0.000185732
-18.6695 73.3183 -15.8243 -0.302979 -0.952993 -0.00272314
-18.3389 73.2126 -16.9122 -0.301721 -0.953387 0.0040138
-17.9426 73.08 -18.0712 -0.300669 -0.953686 0.00902184
-17.5096 72.9301 -19.1174 -0.302616 -0.953029 0.0125932
-17.0414 72.7674 -19.9221 -0.307508 -0.951416 0.0157075
-16.3495 72.5262 -20.934 -0.308629 -0.95104 0.0164457
-15.6068 72.2641 -21.7615 -0.315498 -0.948539 0.0264495
-14.7589 71.9661 -22.434 -0.312355 -0.949157 0.037955
-13.8333 71.6278 -23.0274 -0.322113 -0.94542 0.0488107
-12.9419 71.2839 -23.5626 -0.330318 -0.941532 0.0663889
-12.1471 70.9696 -23.9369 -0.341543 -0.937021 0.0730748
-11.1386 70.5583 -24.4136 -0.340588 -0.933766 0.109914
-10.1618 70.1343 -24.8104 -0.367719 -0.921065 0.12815
-9.29528 69.7567 -25.1248 -0.359813 -0.917427 0.169887
-8.26052 69.2973 -25.4258 -0.351966 -0.912599 0.208043
-7.40036 68.9248 -25.6346 -0.34028 -0.917335 0.206655
-6.53616 68.5307 -25.8353 -0.337388 -0.904448 0.261042
-5.71195 68.1148 -26.0344 -0.382011 -0.868124 0.316904
-4.91445 67.7171 -26.2766 -0.356447 -0.855861 0.369961
-4.00965 67.1778 -26.5276 -0.377572 -0.825725 0.419067
-3.11371 66.647 -26.8273 -0.244433 -0.833581 0.492329
-2.48816 66.0935 -27.3364 -0.204106 -0.72743 0.655123
-2.02905 65.4643 -27.8693 -0.25686 -0.663756 0.70246
-1.60241 64.6946 -28.4406 -0.244427 -0.653505 0.71606
-1.23331 63.5445 -29.1771 -0.199303 -0.56665 0.799491
-0.972055 62.3979 -29.7415 -0.133682 -0.395008 0.903892
-1.05718 61.1269 -30.1755 -0.158939 -0.309486 0.937527
-1.2481 60.0732 -30.4615 -0.170699 -0.211873 0.962274
-1.37164 58.8578 -30.6818 -0.187548 -0.120515 0.974834
-1.40824 57.8452 -30.79 -0.147501 -0.0630231 0.986689
-1.29613 56.681 -30.8397 -0.124411 0.00251173 0.992228
-1.00225 55.7406 -30.8051 -0.106295 0.0272801 0.993299
-0.232985 54.7304 -30.6606 -0.08928 0.0536494 0.994413
0.907918 54.3109 -30.5559 -0.0515319 0.0533097 0.99692
2.04465 54.6 -30.545 -0.0243873 0.0601291 0.997893
2.8414 55.1294 -30.6141 0.0331634 0.0597188 0.997347
3.36995 55.8746 -30.6778 0.0756471 0.0347379 0.996502
3.86095 57.0405 -30.7231 0.0773967 -0.0204066 0.996762
3.90311 58.1011 -30.698 0.0883113 -0.0704584 0.992492
3.7819 59.1497 -30.5733 0.134527 -0.0809738 0.987596
3.65243 60.0868 -30.4224 0.133151 -0.169409 0.97651
3.50042 61.0886 -30.1892 0.132143 -0.25975 0.956592
3.41664 62.2026 -29.8327 0.18443 -0.319922 0.929107
3.41424 63.1544 -29.4803 0.188058 -0.392074 0.900507
3.58378 64.1133 -29.0277 0.222597 -0.4959 0.839365
3.82945 64.819 -28.6778 0.312426 -0.553268 0.764851
4.62494 64.5158 -29.1791 0.338232 -0.465041 0.81813
4.37084 63.6962 -29.4937 0.291841 -0.38115 0.877157
4.34615 62.5083 -29.9419 0.233327 -0.307819 0.922327
4.41227 61.2627 -30.3247 0.23665 -0.225966 0.944953
4.54608 60.3636 -30.5295 0.218656 -0.139668 0.965755
4.72666 59.2991 -30.6971 0.161148 -0.0808543 0.983612
4.87812 58.0902 -30.8057 0.146804 -0.0332725 0.988588
4.84997 57.0287 -30.8313 0.125882 0.000110826 0.991376
4.48727 55.9369 -30.7634 0.0813966 0.0243422 0.996384
3.93773 54.8997 -30.6568 0.0808748 0.0877651 0.992626
3.09938 54.0706 -30.5425 0.0502732 0.0774474 0.995728
2.04132 53.5016 -30.4563 -0.0164402 0.0986163 0.994984
1.1863 53.1497 -30.4373 -0.0374748 0.0963058 0.99447
0.256797 53.2805 -30.5015 -0.0552649 0.0927981 0.99415
-0.64221 53.782 -30.6229 -0.0854393 0.0896942 0.992298
-1.3157 54.4301 -30.7796 -0.13171 0.0802274 0.9874
-2.04665 55.9064 -30.9531 -0.148028 0.0216773 0.988238
-2.34034 57.3931 -30.9771 -0.15967 -0.0354046 0.986307
-2.38912 58.3695 -30.9154 -0.166053 -0.107622 0.980226
-2.2421 59.4311 -30.7905 -0.256329 -0.097338 0.959061
-2.11195 60.6538 -30.528 -0.264535 -0.179224 0.947576
-1.90287 62.0094 -30.087 -0.266269 -0.2817 0.921817
-2.00313 63.0387 -29.669 -0.279401 -0.448258 0.849117
-2.21395 63.8723 -29.2525 -0.286388 -0.531445 0.797213
-2.5198 64.6652 -28.7582 -0.231993 -0.643255 0.729659
-2.92463 65.5285 -28.1839 -0.34225 -0.670523 0.651146
-3.41235 66.1682 -27.6636 -0.391826 -0.709079 0.583807
-4.24441 66.8083 -27.3768 -0.355344 -0.783317 0.510044
-5.15447 67.42 -27.1228 -0.407452 -0.839701 0.359007
-6.01339 67.9501 -26.8909 -0.414783 -0.851034 0.31829
-6.82346 68.3768 -26.7005 -0.404447 -0.870804 0.279312
-7.78427 68.8572 -26.4989 -0.377764 -0.899759 0.218467
-8.77668 69.3253 -26.3 -0.373835 -0.909737 0.180629
-9.55894 69.692 -26.006 -0.384753 -0.908112 0.162351
-10.3377 70.0902 -25.7003 -0.370321 -0.922513 0.108773
-11.3719 70.5458 -25.3634 -0.368069 -0.924407 0.0994912
-12.166 70.8831 -25.0491 -0.342338 -0.936028 0.0815898
-12.9794 71.2176 -24.6245 -0.358311 -0.930767 0.0697319
-13.77 71.5378 -24.2535 -0.350579 -0.935412 0.0458033
-14.5485 71.8523 -23.694 -0.337836 -0.940706 0.0294653
-15.8646 72.3261 -22.7988 -0.319293 -0.947442 0.0198952
-16.661 72.6063 -22.1399 -0.308598 -0.951048 0.0165993
-17.2815 72.824 -21.2518 -0.312673 -0.949768 0.0129508
-17.8197 73.0114 -20.4787 -0.310701 -0.950395 0.014633
-18.4525 73.2313 -19.2942 -0.308531 -0.951169 0.00926323
-18.7538 73.3327 -18.4368 -0.301408 -0.953456 0.00867654
-19.1098 73.4583 -17.3395 -0.308214 -0.95127 0.00697525
-19.5475 73.5997 -16.0763 -0.306199 -0.951965 -0.00213357
-19.8593 73.6972 -15.0118 -0.305669 -0.95213 -0.00382356
-20.0894 73.7681 -13.9912 -0.308278 -0.951291 -0.00322977
-20.3475 73.8461 -12.6537 -0.308085 -0.951351 -0.00389832
-20.458 73.8787 -11.457 -0.306196 -0.951966 -0.00233422
-20.364 73.8467 -10.5435 -0.306836 -0.95176 -0.00204292
-20.1379 73.7738 -9.41843 -0.304328 -0.952551 0.00472493
-19.7053 73.6428 -7.94852 -0.301933 -0.953329 0.00077704
-19.344 73.5361 -7.11875 -0.297092 -0.95481 0.00849607
-18.7172 73.3489 -5.95859 -0.301414 -0.953475 0.00587654
-18.1063 73.1599 -5.08667 -0.307648 -0.951492 0.00405726
-17.5428 72.9797 -4.39416 -0.301546 -0.953427 -0.00468719
-16.8994 72.7771 -3.77325 -0.296855 -0.954917 -0.0032562
-15.8823 72.4568 -2.89724 -0.299303 -0.954155 -0.00252374
-15.0908 72.2014 -2.34469 -0.293657 -0.955846 -0.0111648
-14.0848 71.8865 -1.79361 -0.294809 -0.955498 -0.0103858
-12.9431 71.5142 -1.19176 -0.302444 -0.952826 -0.0241023
-11.6127 71.0781 -0.581123 -0.298557 -0.953699 -0.0359395
-10.7669 70.8042 -0.317026 -0.303827 -0.951664 -0.0448756
-9.775 70.4696 0.0126254 -0.307043 -0.949718 -0.0610243
-8.21168 69.9454 0.207677 -0.311522 -0.946666 -0.0820049
-7.203 69.6091 0.342741 -0.313614 -0.944629 -0.0954414
-6.1432 69.2502 0.410163 -0.30807 -0.94419 -0.116612
-5.27829 68.9308 0.548105 -0.312164 -0.93684 -0.155556
-4.3297 68.6007 0.740977 -0.29235 -0.940661 -0.172305
-3.48369 68.2389 1.04276 -0.245907 -0.936006 -0.251839
-2.0975 67.6796 1.74082 -0.220464 -0.938085 -0.265199
-1.06502 67.3467 2.28743 -0.136513 -0.961681 -0.23777
-0.117627 67.0986 2.59961 -0.100727 -0.943386 -0.310933
1.00737 66.9878 2.77877 -0.0580987 -0.940601 -0.333005
2.24374 66.9438 2.85789 0.0210981 -0.940748 -0.338449
3.56166 67.078 2.69824 0.127121 -0.943776 -0.305166
4.47651 67.2878 2.43386 0.174183 -0.938764 -0.293365
5.36895 67.6101 2.05182 0.2176 -0.935981 -0.276748
6.20189 67.9643 1.59309 0.264677 -0.932986 -0.243892
7.39635 68.5532 0.904462 0.335011 -0.914478 -0.225876
8.19881 68.8956 0.641405 0.349699 -0.913838 -0.204795
9.10411 69.3026 0.419716 0.353892 -0.922941 -0.151464
9.94718 69.6677 0.209585 0.363839 -0.918527 -0.154695
10.8699 70.0943 -0.0227197 0.37741 -0.919184 -0.112525
11.7022 70.4562 -0.182626 0.380899 -0.92032 -0.0884843
12.7374 70.8911 -0.297752 0.378635 -0.922162 -0.0790687
13.791 71.3537 -0.712615 0.386137 -0.920697 -0.0556005
14.9561 71.8628 -1.33486 0.375965 -0.92556 -0.0444708
16.1947 72.4135 -2.18353 0.382849 -0.923177 -0.0311984
17.0329 72.7633 -2.7002 0.371757 -0.92821 -0.0149342
17.8864 73.1223 -3.16792 0.382448 -0.923908 -0.00497287
18.6801 73.4403 -3.67333 0.367168 -0.930124 0.00752102
19.4887 73.7642 -4.33303 0.386118 -0.922271 0.0181223
20.4062 74.1273 -5.23935 0.379578 -0.925012 0.0165149
21.1694 74.4227 -6.26401 0.378861 -0.925312 0.0161334
21.629 74.6066 -7.05484 0.380488 -0.924785 0.00112455
22.0987 74.7972 -7.96007 0.379336 -0.925246 0.00485576
22.4442 74.9326 -8.8773 0.377767 -0.925886 0.00130958
22.7606 75.0664 -9.95428 0.381255 -0.924457 -0.00424672
22.9672 75.1656 -11.1825 0.377701 -0.92583 -0.0134629
23.0299 75.2061 -12.1977 0.37953 -0.92505 -0.0152576
23.0781 75.2501 -13.2638 0.382715 -0.923601 -0.0221394
23.156 75.3102 -14.2627 0.379679 -0.924602 -0.0308658
22.9703 75.2637 -15.1902 0.380317 -0.924355 -0.0303997
22.7732 75.2173 -16.0824 0.37615 -0.925776 -0.0380786
22.4541 75.1244 -17.0967 0.380781 -0.924184 -0.0298379
21.9649 74.9779 -18.3494 0.378615 -0.924545 -0.0432016
21.3943 74.7988 -19.5335 0.378876 -0.924467 -0.0425886
20.9661 74.6573 -20.3359 0.380179 -0.92413 -0.0380427
20.2404 74.4065 -21.4285 0.379206 -0.924316 -0.042921
19.6459 74.1978 -22.1787 0.378788 -0.92446 -0.0435085
18.8534 73.9067 -23.0571 0.391996 -0.919086 -0.0402485
18.1304 73.6254 -23.7517 0.391136 -0.919693 -0.0343313
17.122 73.2049 -24.4955 0.407767 -0.912933 -0.0167082
15.9522 72.6918 -25.191 0.40725 -0.913282 -0.00795043
15.0919 72.3057 -25.6249 0.421647 -0.906743 0.00531916
14.2085 71.8913 -26.0054 0.437415 -0.898799 0.0189834
13.2633 71.4178 -26.3508 0.430179 -0.901529 0.0468237
12.0625 70.796 -26.7529 0.446139 -0.893183 0.0564333
11.2443 70.3305 -27.0115 0.450837 -0.884806 0.117751
10.4481 69.8734 -27.2225 0.488301 -0.85959 0.149008
9.39749 69.1973 -27.5628 0.519879 -0.831908 0.19405
8.36696 68.4903 -27.7176 0.502717 -0.812786 0.294371
7.5799 67.9281 -27.8793 0.53022 -0.792157 0.302249
6.57463 67.1795 -27.9594 0.569928 -0.680287 0.459909
5.39654 66.0062 -28.4494 0.41667 -0.706125 0.572515
5.01035 65.3485 -28.6761 0.390556 -0.575973 0.707537
4.78747 64.7885 -29.0912 0.312425 -0.553265 0.764854
