0.195606 73.945 -26.1914 0.051337 -0.96405 0.260093
-0.745247 73.9383 -26.1794 -0.0174062 -0.964603 0.263131
-1.70268 73.9874 -26.1363 -0.0673286 -0.96296 0.261102
-2.65827 74.0838 -26.0322 -0.099103 -0.965882 0.238919
-3.54885 74.2191 -25.8844 -0.121289 -0.964414 0.234549
-4.64685 74.4411 -25.6055 -0.13047 -0.966056 0.222288
-5.65844 74.6809 -25.282 -0.166311 -0.964625 0.204548
-6.713 74.9712 -24.8186 -0.173865 -0.965567 0.192903
-7.51479 75.2087 -24.3785 -0.197128 -0.963903 0.178972
-8.44525 75.5138 -23.6919 -0.19138 -0.969333 0.153983
-9.46496 75.8534 -22.881 -0.197166 -0.969581 0.144598
-10.1533 76.0897 -22.1755 -0.214231 -0.969353 0.120247
-10.7388 76.3051 -21.4787 -0.211439 -0.971382 0.107564
-11.2954 76.496 -20.7623 -0.210331 -0.972916 0.0958964
-11.9139 76.7116 -19.8974 -0.209726 -0.975079 0.0722241
-12.6117 76.9334 -18.8923 -0.210296 -0.975337 0.0669999
-13.2455 77.1397 -17.6873 -0.208432 -0.976915 0.0468327
-13.584 77.2599 -16.6249 -0.206266 -0.977585 0.0422033
-13.8958 77.3747 -15.3137 -0.199746 -0.979352 0.031164
-14.0424 77.4353 -14.0122 -0.198099 -0.979987 0.0195385
-13.9593 77.4286 -12.9867 -0.20261 -0.979247 0.00488499
-13.6372 77.358 -11.773 -0.203159 -0.979093 -0.00985739
-13.2271 77.2582 -10.7241 -0.204704 -0.978631 -0.0193811
-12.7497 77.1311 -9.68599 -0.205335 -0.978245 -0.029302
-12.1821 76.9813 -8.73561 -0.203118 -0.978083 -0.0457861
-11.5985 76.8245 -7.91957 -0.200401 -0.978747 -0.0435148
-11.0422 76.6667 -7.1471 -0.196863 -0.978607 -0.0597807
-10.3945 76.4844 -6.34427 -0.200337 -0.976985 -0.0731149
-9.69274 76.2861 -5.67766 -0.203392 -0.975879 -0.0792423
-8.9111 76.0751 -5.05332 -0.189141 -0.977735 -0.0908798
-7.81324 75.785 -4.28373 -0.180514 -0.978492 -0.0998438
-7.02479 75.5666 -3.66228 -0.177011 -0.977383 -0.115709
-6.18204 75.3342 -3.01669 -0.165976 -0.97624 -0.138999
-5.05152 75.0509 -2.30042 -0.149677 -0.977129 -0.150696
-4.17644 74.8445 -1.83436 -0.137287 -0.977953 -0.157354
-3.361 74.6639 -1.37859 -0.117494 -0.979555 -0.163303
-2.3378 74.4384 -0.765388 -0.0976016 -0.979639 -0.173965
-1.22976 74.2136 -0.0127621 -0.0703282 -0.977493 -0.198118
-0.0397366 73.9914 0.654796 -0.0306169 -0.976968 -0.20944
1.18553 73.9511 0.81316 -0.00615745 -0.976003 -0.217648
2.2366 73.998 0.659733 0.012884 -0.976299 -0.216041
3.5576 74.1765 0.168015 0.0852644 -0.975369 -0.201566
4.54482 74.4196 -0.480842 0.107508 -0.975592 -0.191476
5.43921 74.6653 -1.15473 0.141869 -0.971649 -0.189099
6.58698 74.9716 -1.84252 0.163249 -0.96848 -0.18709
7.42905 75.1912 -2.16552 0.181963 -0.966297 -0.182097
8.64037 75.4961 -2.53281 0.208803 -0.964295 -0.1629
9.81579 75.8383 -2.99163 0.227059 -0.962732 -0.146942
10.593 76.1014 -3.49327 0.243137 -0.960005 -0.138571
11.4148 76.4132 -4.27977 0.238135 -0.962082 -0.132987
12.1605 76.7057 -5.09715 0.258838 -0.959776 -0.108782
12.7231 76.9333 -5.77621 0.254627 -0.961382 -0.10445
13.4452 77.2315 -6.78183 0.258951 -0.960975 -0.097121
14.028 77.477 -7.67529 0.266478 -0.960752 -0.0770823
14.7242 77.75 -8.66279 0.262377 -0.962177 -0.0730289
15.4794 78.0294 -9.67823 0.27174 -0.960116 -0.0658336
16.1197 78.2788 -10.7301 0.273525 -0.960156 -0.0573052
16.4614 78.4394 -11.7875 0.278773 -0.958863 -0.0533359
16.6325 78.551 -12.9541 0.272368 -0.961107 -0.045011
16.7648 78.636 -14.1281 0.279352 -0.959237 -0.0427179
16.6125 78.644 -15.6123 0.275571 -0.960897 -0.025968
16.4894 78.6303 -16.6543 0.279622 -0.959894 -0.020363
16.1775 78.5584 -17.9945 0.278111 -0.960534 -0.00511115
15.6621 78.4066 -19.1982 0.277946 -0.960562 0.00805598
15.1161 78.2381 -20.0662 0.282127 -0.959231 0.0167133
14.5147 78.0437 -20.8444 0.282577 -0.958832 0.0279423
13.6936 77.7556 -21.8551 0.291531 -0.95498 0.0549855
13.0417 77.5107 -22.5812 0.29489 -0.953485 0.0625024
12.3148 77.2332 -23.326 0.300938 -0.950875 0.0726105
11.5046 76.9326 -23.9491 0.297645 -0.950873 0.0840777
10.6939 76.6202 -24.4631 0.293696 -0.951147 0.0944315
9.53738 76.1854 -25.0543 0.302836 -0.944651 0.126196
8.59313 75.8441 -25.4222 0.294942 -0.945146 0.140388
7.65586 75.5003 -25.7675 0.294636 -0.943616 0.150575
6.70791 75.1825 -25.9528 0.280234 -0.942712 0.181005
5.74207 74.8843 -26.0458 0.244661 -0.946447 0.210661
4.82168 74.6411 -26.0735 0.241713 -0.947408 0.209744
3.65303 74.3687 -26.1147 0.184389 -0.953807 0.236854
2.72388 74.1913 -26.1514 0.150692 -0.957872 0.243126
1.65245 74.0509 -26.1764 0.113851 -0.962523 0.246146
0.605371 73.9649 -26.1919 0.0472293 -0.968814 0.243248
0.491622 73.9592 -26.1923 0.0472349 -0.968813 0.24325
0.629439 73.7059 -27.1066 0.0573722 -0.959633 0.275329
-0.296961 73.6842 -27.1134 -0.0088666 -0.967053 0.254422
-1.25601 73.6999 -27.0872 -0.0131356 -0.965827 0.258778
-2.52257 73.8252 -26.9981 -0.0801732 -0.966197 0.245022
-3.62439 73.9921 -26.8415 -0.117987 -0.959904 0.254277
-4.76945 74.2254 -26.5818 -0.144359 -0.962465 0.229829
-5.62294 74.4345 -26.3261 -0.173294 -0.955377 0.239214
-6.66223 74.7354 -25.9157 -0.19484 -0.961962 0.191484
-7.64643 75.0332 -25.4646 -0.21032 -0.958295 0.193483
-8.38031 75.2716 -24.9982 -0.197676 -0.96402 0.177736
-9.35525 75.6298 -24.2254 -0.216827 -0.963932 0.15376
-10.1245 75.8954 -23.5827 -0.214185 -0.966798 0.139378
-10.7973 76.1379 -22.935 -0.214199 -0.968078 0.129813
-11.41 76.3561 -22.2597 -0.212548 -0.969849 0.119237
-12.1824 76.6394 -21.2529 -0.214047 -0.971936 0.0974992
-12.681 76.8281 -20.4994 -0.212827 -0.973068 0.0876484
-13.365 77.0515 -19.5334 -0.213928 -0.973935 0.075352
-13.8692 77.2223 -18.6863 -0.2112 -0.975699 0.0576357
-14.3022 77.3706 -17.5716 -0.210871 -0.976249 0.0495479
-14.6425 77.4963 -16.3822 -0.21216 -0.976481 0.0381656
-14.8521 77.5732 -15.398 -0.212926 -0.976621 0.0295505
-15.0292 77.644 -14.0167 -0.213569 -0.976733 0.0195069
-14.9534 77.6373 -13.0533 -0.212842 -0.977087 0.000587619
-14.7511 77.595 -12.0722 -0.203418 -0.979058 -0.00334235
-14.4374 77.5211 -11.1509 -0.208784 -0.977938 -0.0067765
-14.0833 77.4287 -10.256 -0.21482 -0.976406 -0.0219822
-13.7136 77.329 -9.42409 -0.208961 -0.977456 -0.0302644
-13.2041 77.1882 -8.52511 -0.215136 -0.975649 -0.0427351
-12.6336 77.0282 -7.73377 -0.201758 -0.978416 -0.0446471
-11.7848 76.7822 -6.53592 -0.213351 -0.975244 -0.0576786
-11.0902 76.5777 -5.6393 -0.210931 -0.97491 -0.0703519
-10.3648 76.3655 -4.96411 -0.204915 -0.975085 -0.0849182
-9.60897 76.1438 -4.35023 -0.202643 -0.973924 -0.10195
-8.78131 75.9179 -3.80033 -0.199861 -0.974266 -0.104134
-8.06565 75.7154 -3.27961 -0.191568 -0.974943 -0.112794
-7.1448 75.4416 -2.50927 -0.182553 -0.973674 -0.136506
-6.24398 75.1821 -1.86114 -0.173943 -0.973143 -0.150786
-5.30196 74.9404 -1.35609 -0.166144 -0.974925 -0.148047
-4.26019 74.6922 -0.822505 -0.13541 -0.977324 -0.162794
-3.05018 74.4046 -0.10498 -0.108969 -0.975072 -0.193287
-2.23688 74.1973 0.477574 -0.11061 -0.974505 -0.195208
-1.47572 74.0001 1.03104 -0.0892101 -0.974354 -0.205227
-0.686058 73.8519 1.49945 -0.0538893 -0.975174 -0.214784
0.236132 73.7514 1.73282 -0.0254327 -0.976344 -0.2138
1.34244 73.7353 1.76446 0.00442298 -0.975146 -0.221163
2.30302 73.7826 1.63864 0.0374192 -0.976553 -0.211432
3.2708 73.9011 1.35986 0.0585913 -0.974363 -0.217221
4.52415 74.1597 0.746278 0.101555 -0.970405 -0.219091
5.50617 74.4479 0.0104166 0.130129 -0.969158 -0.209284
6.31393 74.6815 -0.579015 0.163249 -0.96848 -0.18709
7.08019 74.9073 -1.00879 0.182369 -0.966159 -0.182425
8.16942 75.1996 -1.41986 0.213618 -0.961814 -0.171118
9.02656 75.4347 -1.67136 0.211355 -0.96306 -0.166791
10.427 75.861 -2.19729 0.242972 -0.956509 -0.161096
11.5238 76.2629 -2.97869 0.243137 -0.960005 -0.138571
12.383 76.6138 -3.8716 0.260104 -0.956798 -0.129938
13.16 76.9369 -4.79032 0.265415 -0.956591 -0.119779
13.6892 77.1656 -5.49184 0.268056 -0.957822 -0.103555
14.2006 77.3839 -6.21536 0.26933 -0.958261 -0.0957454
14.7993 77.6493 -7.13785 0.270863 -0.958654 -0.0865155
15.5521 77.9463 -8.18834 0.273913 -0.95902 -0.0722657
16.1898 78.1857 -9.02909 0.275513 -0.958947 -0.0670592
16.772 78.4143 -9.91859 0.279429 -0.958116 -0.0627193
17.2246 78.6081 -10.887 0.279143 -0.95841 -0.0593772
17.4978 78.7505 -12.0092 0.27754 -0.959472 -0.0488357
17.6672 78.8565 -13.1425 0.281824 -0.958679 -0.0388605
17.7239 78.9163 -14.1392 0.27973 -0.959077 -0.0438435
17.606 78.9208 -15.1687 0.283989 -0.958353 -0.0301748
17.4937 78.9135 -16.0824 0.287192 -0.957681 -0.019192
17.3626 78.8936 -17.0538 0.289233 -0.957004 -0.0218263
17.116 78.8342 -18.1456 0.292271 -0.956241 -0.0134751
16.6674 78.7031 -19.2584 0.29312 -0.956075 0.00108661
16.1357 78.5376 -20.2385 0.294394 -0.955482 0.0173712
15.6135 78.3607 -21.0176 0.288828 -0.957136 0.0216673
14.685 78.0417 -22.1131 0.288923 -0.955791 0.054653
13.829 77.7191 -23.127 0.295873 -0.953313 0.0604404
13.0683 77.421 -23.9817 0.30138 -0.950651 0.0737027
12.2386 77.0987 -24.6637 0.30461 -0.948016 0.0920745
11.4823 76.8064 -25.1557 0.306424 -0.947362 0.092791
10.5996 76.4532 -25.6675 0.309882 -0.943969 0.113563
9.70021 76.1125 -26.045 0.315571 -0.94021 0.127227
8.65713 75.697 -26.4484 0.305965 -0.939944 0.150481
7.56783 75.2965 -26.7858 0.299752 -0.940092 0.162404
6.62637 74.9668 -26.9488 0.303998 -0.931783 0.198407
5.44032 74.5954 -27.0082 0.284275 -0.934533 0.214069
4.50462 74.3424 -27.0115 0.242248 -0.939399 0.242581
3.44678 74.0826 -27.057 0.175586 -0.944779 0.276698
2.19449 73.8526 -27.0791 0.139444 -0.948266 0.284066
0.854585 73.7206 -27.1039 0.0593115 -0.959978 0.273725
0.673889 73.4246 -28.014 0.0664586 -0.946315 0.316339
1.89248 73.5246 -27.9958 0.127288 -0.942388 0.306766
3.05632 73.7286 -28.0018 0.182381 -0.93514 0.30299
4.48513 74.1021 -27.9224 0.236429 -0.941414 0.240414
5.37202 74.3575 -27.9482 0.287065 -0.933393 0.21534
6.49557 74.716 -27.9245 0.304528 -0.93156 0.198641
7.64529 75.1311 -27.76 0.32072 -0.930478 0.177057
8.71344 75.5527 -27.4975 0.325813 -0.92855 0.177878
10.0169 76.0767 -27.0054 0.321258 -0.936453 0.140886
10.8688 76.4202 -26.6647 0.325434 -0.93589 0.134712
11.6631 76.7392 -26.2458 0.321009 -0.941185 0.105473
12.3794 77.039 -25.744 0.305515 -0.94769 0.0924318
13.4213 77.4526 -24.9826 0.311358 -0.946141 0.0887345
14.1174 77.7309 -24.2716 0.306881 -0.948922 0.0730287
14.7585 77.9885 -23.5246 0.304903 -0.950472 0.0603156
15.5458 78.2909 -22.5529 0.294211 -0.954859 0.0407279
16.238 78.5318 -21.7852 0.289294 -0.956723 0.0302686
16.8261 78.7329 -20.9968 0.2981 -0.954188 0.0257322
17.2523 78.8771 -20.2153 0.290687 -0.956776 0.00901049
17.6986 79.0188 -19.2275 0.293735 -0.955887 -0.000543351
18.1653 79.1534 -17.9795 0.293949 -0.955738 -0.0126103
18.3217 79.1863 -17.0775 0.291277 -0.956326 -0.0244507
18.4392 79.1981 -16.1365 0.289236 -0.957003 -0.0218154
18.5919 79.2089 -14.8799 0.292326 -0.955667 -0.0345578
18.6762 79.1885 -13.8209 0.290123 -0.955968 -0.0441289
18.5889 79.1102 -12.7181 0.282301 -0.958235 -0.045286
18.3505 78.9681 -11.355 0.286919 -0.956499 -0.0526306
18.0591 78.8172 -10.3421 0.289074 -0.955402 -0.0603518
17.6341 78.6376 -9.48888 0.279053 -0.958117 -0.064337
16.9167 78.3555 -8.42231 0.279052 -0.957981 -0.0663449
16.2836 78.1131 -7.60404 0.280606 -0.95727 -0.0699119
15.7282 77.8928 -6.84805 0.284905 -0.954953 -0.0822371
14.9636 77.5545 -5.69276 0.279855 -0.95564 -0.0918371
14.4504 77.3138 -4.89395 0.275902 -0.955434 -0.104661
13.8208 77.0385 -4.06242 0.276864 -0.953606 -0.118245
13.2112 76.7706 -3.34764 0.275316 -0.952502 -0.130104
12.4965 76.4643 -2.57853 0.256968 -0.956713 -0.136629
11.6799 76.13 -1.85541 0.254875 -0.955637 -0.14734
10.8292 75.8164 -1.29679 0.25279 -0.954159 -0.160246
9.7089 75.4512 -0.840618 0.239728 -0.95504 -0.174438
8.53764 75.1192 -0.545279 0.209556 -0.961234 -0.179209
7.63031 74.8596 -0.228602 0.211936 -0.960123 -0.182336
6.77293 74.6007 0.258084 0.181394 -0.963975 -0.194546
5.9289 74.3097 0.913322 0.155758 -0.966568 -0.201911
5.19557 74.0846 1.47512 0.127916 -0.966232 -0.223681
4.11499 73.8197 2.07112 0.0924969 -0.970357 -0.223276
2.83924 73.6264 2.49262 0.042443 -0.971222 -0.234365
1.58084 73.5374 2.69642 0.0188054 -0.977558 -0.209827
0.142666 73.5526 2.69845 -0.043435 -0.977704 -0.205447
-0.797354 73.6365 2.50537 -0.0661409 -0.975527 -0.209263
-1.70753 73.8013 2.06623 -0.0783928 -0.975885 -0.203721
-2.6181 74.0401 1.41848 -0.10565 -0.968507 -0.225459
-3.9018 74.4087 0.459938 -0.147247 -0.971502 -0.185749
-4.81165 74.6428 -0.0672185 -0.153136 -0.974488 -0.163097
-5.82109 74.9024 -0.555604 -0.168246 -0.971454 -0.167179
-6.83298 75.1756 -1.07908 -0.189333 -0.971319 -0.143848
-7.60446 75.4039 -1.62096 -0.195272 -0.971281 -0.135374
-8.46291 75.69 -2.35546 -0.207535 -0.968893 -0.134819
-9.30635 75.9318 -2.95476 -0.200167 -0.973762 -0.108265
-10.1282 76.1686 -3.5215 -0.22495 -0.969745 -0.0948244
-11.0107 76.4417 -4.2358 -0.22428 -0.970031 -0.0934849
-11.7625 76.6708 -4.95574 -0.21523 -0.97311 -0.08202
-12.3288 76.8457 -5.68403 -0.215268 -0.974406 -0.0647574
-13.0825 77.0655 -6.57946 -0.216194 -0.974928 -0.0524253
-13.6439 77.2399 -7.46809 -0.215837 -0.975557 -0.0412677
-14.2234 77.4075 -8.35571 -0.224907 -0.973798 -0.0318873
-14.6754 77.5343 -9.2385 -0.215103 -0.976202 -0.0273241
-15.1599 77.6687 -10.395 -0.214118 -0.976535 -0.023037
-15.5901 77.7749 -11.6044 -0.215571 -0.976451 -0.00849929
-15.935 77.8511 -13.0405 -0.213139 -0.977021 0.000924821
-15.9823 77.8458 -14.3561 -0.21594 -0.97628 0.0152701
-15.7931 77.7737 -15.5617 -0.217382 -0.975685 0.0278267
-15.5302 77.6743 -16.7613 -0.212152 -0.976483 0.0381723
-15.2947 77.5825 -17.6642 -0.212353 -0.976197 0.044118
-14.99 77.4741 -18.5208 -0.21267 -0.975651 0.0534412
-14.5735 77.3262 -19.4212 -0.219774 -0.972832 0.0727794
-13.9219 77.1012 -20.4528 -0.214757 -0.973549 0.077981
-13.255 76.8683 -21.3685 -0.218032 -0.970929 0.0987877
-12.5735 76.5957 -22.3853 -0.218654 -0.968265 0.120875
-11.8963 76.3422 -23.2093 -0.214006 -0.967145 0.137226
-10.9579 75.9995 -24.1497 -0.215903 -0.966635 0.137846
-10.0608 75.6656 -24.9287 -0.212662 -0.9623 0.169567
-9.34438 75.4119 -25.4665 -0.22013 -0.960713 0.168989
-8.476 75.081 -26.1541 -0.230431 -0.953348 0.1945
-7.46941 74.7558 -26.6155 -0.209867 -0.9543 0.212569
-6.50131 74.443 -27.0364 -0.199115 -0.953961 0.224235
-5.36936 74.1153 -27.4309 -0.189101 -0.953289 0.235409
-4.19541 73.8404 -27.6887 -0.136213 -0.95646 0.257521
-3.0725 73.6365 -27.8704 -0.118342 -0.948845 0.292223
-1.80878 73.4754 -27.9804 -0.0787267 -0.954424 0.287475
-0.80053 73.3944 -28.0214 -0.0305577 -0.95339 0.297608
0.126617 73.4032 -28.0225 0.0213907 -0.953004 0.3022
0.540367 73.4147 -28.0154 0.0439239 -0.949661 0.309267
0.712449 73.1292 -28.9051 0.0292064 -0.934702 0.354191
2.15999 73.2621 -28.9132 0.127283 -0.942389 0.306765
3.48151 73.5351 -28.9176 0.219048 -0.929761 0.29515
4.38113 73.7983 -28.8662 0.257417 -0.925689 0.277193
5.25775 74.0749 -28.9068 0.29482 -0.920704 0.255173
6.39878 74.4608 -28.8879 0.326617 -0.916569 0.230703
7.32976 74.8095 -28.7758 0.334415 -0.920531 0.201963
8.17629 75.1456 -28.6456 0.327567 -0.925505 0.18951
9.07554 75.5073 -28.4389 0.347788 -0.924701 0.154826
10.2202 76.0059 -27.9911 0.337179 -0.929159 0.151568
11.0331 76.3388 -27.6784 0.332317 -0.93433 0.128779
11.8666 76.6913 -27.2927 0.328013 -0.937262 0.117237
12.8427 77.1048 -26.636 0.332239 -0.9375 0.10349
13.8152 77.5028 -25.9331 0.314095 -0.946429 0.074886
14.6005 77.8221 -25.1661 0.311478 -0.947234 0.0756922
15.5742 78.2159 -24.0678 0.305048 -0.95045 0.0599255
16.1855 78.4601 -23.2755 0.301616 -0.952523 0.0405815
16.9054 78.714 -22.507 0.30231 -0.952686 0.0315974
17.4855 78.9204 -21.7575 0.300038 -0.953536 0.0271511
18.0594 79.1214 -20.6696 0.29314 -0.955905 0.0177245
18.4254 79.2425 -19.8433 0.295966 -0.955195 0.000268356
18.8001 79.3605 -18.9914 0.298211 -0.954499 0.00107577
19.1068 79.447 -18.1203 0.29656 -0.954902 -0.0146637
19.2876 79.486 -17.0835 0.300809 -0.953403 -0.0231044
19.4215 79.4901 -15.7323 0.296852 -0.954391 -0.0318804
19.5659 79.4984 -14.7269 0.295149 -0.954629 -0.0392686
19.5864 79.4476 -13.4017 0.297189 -0.953699 -0.0461822
19.4323 79.3319 -12.0994 0.29473 -0.954017 -0.0546501
19.2783 79.23 -11.0844 0.286523 -0.956392 -0.0567393
19.0655 79.1133 -10.2097 0.288855 -0.955443 -0.0607592
18.6135 78.9161 -9.26206 0.288637 -0.955483 -0.0611665
18.1035 78.7121 -8.43413 0.288067 -0.955823 -0.0584721
17.2458 78.3769 -7.32156 0.29133 -0.954266 -0.0671119
16.6805 78.1566 -6.61187 0.284898 -0.954954 -0.0822445
15.8448 77.7827 -5.33559 0.299091 -0.949723 -0.0920656
15.189 77.4693 -4.27597 0.290661 -0.951659 -0.0993005
14.5467 77.1713 -3.45041 0.291336 -0.949035 -0.120233
13.8897 76.8777 -2.69611 0.275313 -0.952504 -0.130101
13.0944 76.5226 -1.81917 0.278645 -0.950552 -0.137106
12.3406 76.2095 -1.16391 0.266349 -0.953338 -0.142142
11.598 75.9135 -0.622007 0.264236 -0.952521 -0.151043
10.6031 75.5549 -0.100652 0.264448 -0.950351 -0.164014
9.65333 75.2563 0.181825 0.248606 -0.951135 -0.182287
8.78938 74.9901 0.373716 0.221139 -0.952949 -0.205917
7.66429 74.6563 0.8079 0.198083 -0.956256 -0.215246
6.87328 74.373 1.39043 0.17171 -0.960481 -0.219072
6.03968 74.0683 2.0803 0.170394 -0.961096 -0.217394
5.08001 73.7915 2.68363 0.124764 -0.967383 -0.220465
4.2059 73.6007 3.06041 0.0945143 -0.969736 -0.225103
3.24376 73.4333 3.36579 0.0694894 -0.970168 -0.23065
1.99628 73.312 3.6073 0.0292986 -0.9688 -0.245215
1.00299 73.2995 3.65594 -0.00226572 -0.97217 -0.234264
-0.330046 73.3511 3.59686 -0.0496546 -0.970753 -0.234287
-1.3999 73.4867 3.32496 -0.0685343 -0.970582 -0.230766
-2.55622 73.7414 2.69481 -0.121199 -0.967349 -0.222294
-3.58108 74.0618 1.87871 -0.140932 -0.96712 -0.211372
-4.29048 74.2961 1.32803 -0.148039 -0.967843 -0.202993
-5.44874 74.6202 0.664431 -0.176886 -0.965467 -0.191273
-6.38655 74.8724 0.225294 -0.200196 -0.96511 -0.168771
-7.53166 75.2033 -0.373236 -0.202498 -0.968184 -0.146234
-8.27191 75.4505 -0.910335 -0.213177 -0.967157 -0.138202
-9.15181 75.7421 -1.65944 -0.218278 -0.967336 -0.128517
-10.0357 76.0232 -2.26132 -0.223937 -0.968721 -0.106329
-11.0782 76.3416 -3.04146 -0.224244 -0.969955 -0.094348
-11.9088 76.5986 -3.70132 -0.226162 -0.970988 -0.0776643
-12.6283 76.8144 -4.29856 -0.232005 -0.969235 -0.0819017
-13.3781 77.0646 -5.3259 -0.22685 -0.972498 -0.0527911
-13.9765 77.2434 -5.99199 -0.230461 -0.971758 -0.0504274
-14.4795 77.4086 -6.95698 -0.234834 -0.971148 -0.0409652
-15.1649 77.6172 -8.11861 -0.2249 -0.973799 -0.0318979
-15.664 77.762 -9.17035 -0.233279 -0.97204 -0.0268265
-16.1236 77.8884 -10.2618 -0.223571 -0.97464 -0.00967822
-16.4522 77.968 -11.1284 -0.229169 -0.97338 -0.00367405
-16.6948 78.024 -12.058 -0.227899 -0.973649 0.00835264
-16.9044 78.0659 -13.0829 -0.216617 -0.976198 0.0106912
-16.9225 78.052 -14.3783 -0.214579 -0.976528 0.0186923
-16.7533 77.9858 -15.5931 -0.216583 -0.975783 0.0306476
-16.5372 77.9018 -16.6408 -0.216157 -0.975633 0.037642
-16.3251 77.8132 -17.6285 -0.218418 -0.974852 0.044247
-15.9934 77.6894 -18.624 -0.222358 -0.973246 0.0578673
-15.5004 77.5145 -19.7037 -0.215141 -0.974367 0.0651248
-15.0171 77.3367 -20.5554 -0.21859 -0.972534 0.0799816
-14.3071 77.0883 -21.5444 -0.22019 -0.970357 0.0996146
-13.5644 76.7921 -22.6621 -0.228499 -0.96635 0.118137
-12.9196 76.5193 -23.5648 -0.223258 -0.964964 0.137611
-12.2487 76.2706 -24.27 -0.21604 -0.965383 0.145792
-11.5736 76.0073 -24.9201 -0.229637 -0.959931 0.160621
-10.8629 75.7302 -25.5682 -0.213649 -0.961999 0.170034
-9.96055 75.3966 -26.278 -0.212625 -0.959985 0.182261
-9.22032 75.1148 -26.8591 -0.220179 -0.956002 0.193711
-8.08182 74.7135 -27.406 -0.221768 -0.953012 0.205412
-6.98592 74.3445 -27.8941 -0.218752 -0.947393 0.233655
-5.68451 73.949 -28.3582 -0.201277 -0.951371 0.233112
-4.36378 73.616 -28.6173 -0.188412 -0.947402 0.258708
-3.20486 73.3828 -28.7733 -0.126709 -0.957186 0.258718
-1.81356 73.1938 -28.8884 -0.0890481 -0.94983 0.298279
-0.886803 73.1156 -28.9332 -0.0618435 -0.947385 0.314047
0.266433 73.1067 -28.9233 0.032865 -0.935924 0.350666
0.308019 72.7573 -29.8468 0.0362361 -0.928147 0.370047
-0.755885 72.7895 -29.8072 -0.0500278 -0.913597 0.403531
-1.83246 72.9215 -29.7762 -0.110497 -0.941251 0.31912
-2.9745 73.0879 -29.7198 -0.142675 -0.944077 0.297257
-4.15122 73.3094 -29.584 -0.156386 -0.94499 0.286788
-5.25512 73.5776 -29.4281 -0.193808 -0.9482 0.251704
-6.30324 73.8482 -29.2379 -0.210349 -0.943241 0.257
-7.26252 74.1789 -28.8302 -0.231605 -0.944834 0.231446
-8.31888 74.5458 -28.3481 -0.224613 -0.947163 0.228978
-9.40156 74.9034 -28.061 -0.229529 -0.951715 0.203623
-10.4098 75.3307 -27.153 -0.227268 -0.954392 0.193541
-11.2969 75.6294 -26.6553 -0.224145 -0.958053 0.178554
-12.1627 76.0122 -25.7104 -0.234147 -0.955994 0.176612
-12.9703 76.3307 -24.9126 -0.22371 -0.963022 0.150141
-13.7374 76.6306 -24.1105 -0.21678 -0.96383 0.15504
-14.3621 76.9017 -23.3163 -0.236896 -0.960811 0.143192
-15.0098 77.1797 -22.2855 -0.226139 -0.969648 0.0929698
-15.6445 77.4195 -21.3665 -0.229213 -0.969632 0.0846687
-16.4366 77.7203 -19.9345 -0.232129 -0.97049 0.0637448
-16.9389 77.8908 -18.9259 -0.227341 -0.972582 0.0489116
-17.39 78.0567 -17.5119 -0.218942 -0.974594 0.0471472
-17.7131 78.1891 -16.2429 -0.226941 -0.973349 0.032546
-17.761 78.2303 -15.0063 -0.222707 -0.974686 0.0196043
-17.8868 78.2862 -13.4243 -0.223308 -0.974649 0.0136056
-17.7218 78.2613 -12.203 -0.224337 -0.974465 0.00949863
-17.3723 78.1916 -10.8789 -0.243114 -0.969961 0.00846739
-16.891 78.0742 -9.71698 -0.248066 -0.968741 -0.00181375
-16.32 77.9075 -8.39998 -0.247726 -0.96864 -0.0191723
-15.9226 77.7816 -7.56158 -0.245696 -0.968762 -0.0336724
-15.4716 77.6361 -6.66807 -0.239337 -0.970316 -0.0340915
-14.9792 77.4765 -5.79138 -0.244681 -0.968375 -0.0481245
-14.5128 77.3156 -5.03012 -0.231179 -0.971301 -0.0559439
-13.6923 77.0596 -4.11253 -0.237836 -0.967549 -0.0853401
-12.8586 76.7779 -3.17229 -0.237227 -0.968588 -0.0736283
-11.7898 76.4547 -2.35191 -0.240032 -0.966973 -0.0857167
-11.0203 76.2028 -1.81092 -0.239015 -0.965042 -0.107541
-10.1649 75.9126 -1.13752 -0.22629 -0.96596 -0.125355
-9.35972 75.6476 -0.551272 -0.228129 -0.965736 -0.123742
-8.665 75.395 0.0464504 -0.216792 -0.965276 -0.145751
-7.38833 74.9803 0.7613 -0.212138 -0.96128 -0.174984
-6.53982 74.7311 1.18093 -0.200759 -0.961585 -0.18692
-5.39278 74.387 1.76235 -0.171066 -0.964555 -0.200925
-4.37419 74.0533 2.47512 -0.150799 -0.964661 -0.216078
-3.48803 73.7344 3.25145 -0.12706 -0.964595 -0.231112
-2.71549 73.5028 3.78962 -0.102631 -0.963494 -0.247277
-1.49342 73.2545 4.29133 -0.0767897 -0.967304 -0.24109
-0.556603 73.1393 4.51324 -0.0531934 -0.968954 -0.24127
0.774084 73.0669 4.62057 -0.0170439 -0.967491 -0.252329
1.69432 73.067 4.59887 -0.00575861 -0.970903 -0.239405
2.75564 73.1382 4.42875 0.0490705 -0.966426 -0.252217
3.71558 73.2726 4.20001 0.0899936 -0.96557 -0.244082
4.89964 73.493 3.82148 0.115065 -0.963863 -0.240266
6.25381 73.8633 3.07534 0.153602 -0.958643 -0.23956
7.05845 74.1377 2.51143 0.173753 -0.95464 -0.241127
7.95142 74.4876 1.81114 0.188193 -0.954997 -0.229267
8.80304 74.7758 1.41065 0.229949 -0.943584 -0.238268
9.62263 75.0471 1.15161 0.273992 -0.940048 -0.201614
10.7813 75.4209 0.930611 0.271177 -0.945892 -0.17819
11.9377 75.8718 0.303625 0.288641 -0.945426 -0.150312
12.982 76.2895 -0.473383 0.275644 -0.95078 -0.141513
13.6341 76.5652 -1.03528 0.283658 -0.94796 -0.144449
14.4282 76.9207 -1.81569 0.291161 -0.947909 -0.129202
15.0813 77.2256 -2.60319 0.293044 -0.947679 -0.126527
15.7303 77.5327 -3.4215 0.295333 -0.948104 -0.117805
16.3601 77.8447 -4.33507 0.319986 -0.943526 -0.0858312
16.9833 78.1383 -5.29007 0.312217 -0.946631 -0.0800645
17.6774 78.4573 -6.37529 0.307671 -0.949128 -0.0655673
18.3177 78.7054 -7.15681 0.293847 -0.954465 -0.0501032
19.1602 79.0182 -8.25309 0.286448 -0.956237 -0.059648
19.6674 79.2327 -9.20925 0.287389 -0.955318 -0.0685185
20.144 79.4401 -10.1629 0.292039 -0.954654 -0.0577641
20.2596 79.5576 -11.5427 0.298233 -0.952825 -0.0563461
20.4421 79.6961 -12.9289 0.30642 -0.95046 -0.0517389
20.5336 79.7686 -13.8418 0.307111 -0.950695 -0.0430971
20.4667 79.7958 -14.9725 0.306503 -0.950998 -0.040713
20.332 79.7945 -16.1925 0.307669 -0.950997 -0.0307328
20.2526 79.7947 -17.1605 0.304977 -0.952057 -0.0240243
20.0638 79.7595 -18.1383 0.322735 -0.946206 -0.0231525
19.6667 79.6323 -19.3174 0.308464 -0.951174 0.00447612
19.301 79.5174 -20.1315 0.30024 -0.953864 -0.000271258
18.7478 79.3305 -21.3672 0.309395 -0.950857 0.012034
18.3148 79.1719 -22.1486 0.305432 -0.951831 0.0269974
17.714 78.9518 -23.0993 0.303969 -0.952056 0.0338417
16.9752 78.6725 -23.9883 0.300904 -0.952366 0.0495566
16.3935 78.4451 -24.6687 0.308666 -0.949363 0.0586144
15.767 78.1947 -25.3176 0.310531 -0.947765 0.0728046
15.0765 77.9071 -26.0657 0.313219 -0.946829 0.0735329
14.2397 77.5564 -26.8975 0.308929 -0.947029 0.0877438
13.3672 77.1963 -27.4815 0.327935 -0.938792 0.105426
12.3273 76.7441 -28.1548 0.339494 -0.932916 0.120044
11.198 76.2577 -28.6909 0.347994 -0.928152 0.132006
10.2262 75.8341 -29.0849 0.355027 -0.923058 0.147193
8.86478 75.241 -29.4804 0.348839 -0.9211 0.172876
7.44979 74.6404 -29.7273 0.332693 -0.919962 0.207328
6.19027 74.1455 -29.8484 0.326849 -0.916808 0.229419
5.29211 73.8079 -29.8494 0.30233 -0.912341 0.276099
4.31773 73.4945 -29.8078 0.302287 -0.904052 0.301325
3.2967 73.1586 -29.8672 0.281582 -0.90963 0.305427
1.70375 72.8767 -29.7856 0.129754 -0.926396 0.352073
0.783399 72.7707 -29.8457 0.0255427 -0.933482 0.357715
0.525609 72.7663 -29.8389 0.0255427 -0.933482 0.357715
