-2.75178 75.5252 -26.4507 -0.0690437 -0.970622 0.23035
-1.8481 75.4486 -26.5479 -0.0502613 -0.969223 0.240998
-0.669771 75.3994 -26.6779 0.0101215 -0.973414 0.228827
0.245441 75.395 -26.745 0.0393332 -0.966937 0.251946
1.39116 75.4332 -26.7688 0.0375272 -0.967561 0.249833
2.63644 75.6042 -26.7271 0.126391 -0.967751 0.217908
3.55446 75.7699 -26.6905 0.184193 -0.962941 0.197024
4.58373 75.9813 -26.6993 0.212734 -0.957134 0.196567
5.98616 76.3172 -26.6859 0.244279 -0.952209 0.183372
7.37331 76.7381 -26.4379 0.266904 -0.948974 0.167961
8.21032 77.0061 -26.2181 0.273487 -0.951466 0.140743
9.03847 77.2883 -25.9618 0.282827 -0.94961 0.135089
9.88212 77.59 -25.6146 0.281073 -0.951524 0.124365
10.6854 77.8751 -25.1735 0.276123 -0.954496 0.112661
11.4571 78.1575 -24.644 0.277972 -0.956486 0.0886856
12.3497 78.4917 -23.836 0.273684 -0.958483 0.0794169
13.2041 78.8008 -22.9366 0.274102 -0.959122 0.0703756
13.7948 79.0167 -22.2223 0.269501 -0.960814 0.0648204
14.436 79.2297 -21.2586 0.263568 -0.963918 0.0372126
15.1807 79.471 -19.9646 0.266972 -0.963411 0.0237561
15.7657 79.6454 -18.6589 0.257536 -0.966237 0.00295444
16.2154 79.7606 -17.4534 0.256633 -0.966411 -0.0106419
16.4948 79.8077 -16.1267 0.254358 -0.966861 -0.021818
16.578 79.8044 -15.118 0.255661 -0.966481 -0.0233951
16.6032 79.7759 -14.1403 0.254667 -0.966194 -0.040164
16.5256 79.7029 -12.9998 0.252663 -0.966208 -0.0510302
16.2876 79.5565 -11.5189 0.254091 -0.965312 -0.0600814
15.6972 79.3053 -10.1053 0.247001 -0.966499 -0.0694637
15.0708 79.0885 -9.28809 0.243966 -0.96678 -0.0762764
14.505 78.8851 -8.53865 0.243252 -0.965816 -0.0893673
14.0225 78.6978 -7.79082 0.237028 -0.967385 -0.089359
13.2102 78.3828 -6.70405 0.243867 -0.964617 -0.100209
12.6501 78.1468 -5.88113 0.234842 -0.964954 -0.116868
11.9244 77.8578 -4.96955 0.220761 -0.965984 -0.134681
11.0508 77.537 -4.10375 0.221125 -0.96584 -0.135119
10.4126 77.3104 -3.50661 0.206966 -0.966283 -0.153087
9.69973 77.0631 -2.92246 0.209027 -0.964407 -0.161862
8.96692 76.8224 -2.41891 0.186509 -0.967547 -0.170489
7.85759 76.5061 -1.82339 0.184741 -0.968304 -0.168099
6.93025 76.2643 -1.32569 0.161791 -0.969987 -0.181516
6.16944 76.0459 -0.836538 0.141898 -0.972684 -0.182609
5.15707 75.7944 -0.212782 0.109795 -0.975652 -0.189273
4.15193 75.5637 0.422337 0.101498 -0.974375 -0.200727
3.1074 75.387 0.934545 0.0538254 -0.979466 -0.19429
2.11667 75.2747 1.20979 0.0223396 -0.975396 -0.218995
0.987506 75.2386 1.31037 0.0022568 -0.975889 -0.217995
-0.089296 75.2892 1.16329 -0.0215307 -0.975629 -0.218369
-1.34805 75.4761 0.52078 -0.0646785 -0.979651 -0.190003
-2.1747 75.6448 -0.0435615 -0.0815191 -0.977147 -0.196311
-3.11744 75.8392 -0.671857 -0.0740065 -0.981513 -0.176509
-3.8814 76.0178 -1.21 -0.115611 -0.978099 -0.173079
-4.7036 76.2152 -1.77654 -0.12484 -0.977492 -0.169785
-5.51554 76.416 -2.36914 -0.136411 -0.980251 -0.143178
-6.2374 76.5954 -2.93173 -0.132829 -0.981229 -0.139805
-7.17779 76.8391 -3.65648 -0.154131 -0.979813 -0.127321
-8.10385 77.0756 -4.38856 -0.169383 -0.979265 -0.111127
-8.97045 77.3072 -5.16632 -0.170052 -0.980367 -0.0996755
-10.0091 77.5843 -6.16372 -0.173064 -0.98142 -0.0827969
-10.7782 77.7867 -6.91875 -0.174351 -0.981836 -0.0741701
-11.4659 77.9721 -7.78843 -0.178962 -0.981931 -0.0610962
-11.9009 78.1046 -8.66642 -0.186832 -0.981066 -0.0507255
-12.3383 78.2362 -9.73763 -0.180354 -0.982908 -0.0356944
-12.9122 78.3742 -10.9014 -0.189189 -0.981684 -0.0216311
-13.4013 78.4816 -11.9984 -0.187833 -0.982133 -0.011538
-13.859 78.5688 -13.4693 -0.181542 -0.983317 0.00948717
-13.7787 78.5175 -15.1103 -0.183789 -0.982531 0.0292303
-13.3896 78.3903 -16.6769 -0.173761 -0.983882 0.0422255
-13.154 78.3063 -17.6258 -0.182049 -0.98175 0.0549659
-12.8191 78.1806 -18.7287 -0.185933 -0.980422 0.0642122
-12.4419 78.0361 -19.7102 -0.195526 -0.977229 0.0815282
-11.8822 77.8236 -20.8075 -0.181131 -0.978435 0.0988831
-11.1308 77.5593 -21.9274 -0.188606 -0.975077 0.116324
-10.2386 77.2523 -22.9556 -0.186494 -0.974126 0.127623
-9.60783 77.0474 -23.5737 -0.188622 -0.973271 0.131014
-8.84545 76.8082 -24.1747 -0.179215 -0.970541 0.160627
-8.1151 76.5854 -24.7407 -0.170729 -0.971042 0.167094
-7.39412 76.369 -25.2383 -0.170308 -0.969381 0.176889
-6.46044 76.1276 -25.6839 -0.15066 -0.971715 0.181494
-5.54993 75.9329 -25.9673 -0.146094 -0.967052 0.208487
-4.44788 75.73 -26.1945 -0.127259 -0.96887 0.212139
-3.43657 75.6015 -26.3586 -0.0767697 -0.969613 0.232288
-3.32893 75.5896 -26.3725 -0.0767699 -0.969613 0.232288
-3.33974 75.369 -27.2971 -0.0885849 -0.971071 0.221151
-4.30508 75.4954 -27.1732 -0.100391 -0.97253 0.210017
-5.425 75.6997 -26.9581 -0.143789 -0.966212 0.213721
-6.48244 75.9338 -26.6784 -0.161969 -0.967626 0.193564
-7.77636 76.2808 -26.09 -0.169945 -0.967632 0.186256
-8.67652 76.5544 -25.4913 -0.185751 -0.966817 0.175265
-9.5223 76.8332 -24.8413 -0.193936 -0.968142 0.158329
-10.3028 77.0905 -24.254 -0.19336 -0.970124 0.145683
-11.2014 77.3898 -23.3403 -0.189952 -0.973334 0.128572
-11.7918 77.6014 -22.6068 -0.192066 -0.973183 0.126588
-12.3225 77.7942 -21.8435 -0.191255 -0.975672 0.106988
-12.8171 77.9829 -21.0323 -0.194198 -0.975999 0.0985529
-13.2503 78.1575 -20.1572 -0.192954 -0.976271 0.0982943
-13.6547 78.3161 -19.0903 -0.18893 -0.979534 0.0694187
-13.9615 78.4339 -18.1235 -0.189103 -0.980485 0.0537535
-14.3133 78.5664 -16.7594 -0.189557 -0.981198 0.0361978
-14.5374 78.6389 -15.8906 -0.186687 -0.982054 0.0268029
-14.776 78.7112 -14.9046 -0.188266 -0.981728 0.0276146
-14.8593 78.7466 -13.9987 -0.191658 -0.981313 0.0171013
-14.6804 78.727 -12.8053 -0.189036 -0.981961 0.00043384
-14.2639 78.6424 -11.6356 -0.190325 -0.981696 -0.00612755
-13.867 78.5524 -10.764 -0.185804 -0.982445 -0.016692
-13.4357 78.4489 -9.86624 -0.190896 -0.981122 -0.0306537
-13.0233 78.3322 -8.95555 -0.196427 -0.979389 -0.047044
-12.6487 78.2175 -8.09497 -0.186832 -0.981066 -0.0507255
-12.0316 78.0271 -6.97574 -0.187977 -0.980114 -0.0635627
-11.3081 77.8268 -6.15789 -0.190289 -0.978732 -0.0766366
-10.5076 77.6092 -5.38947 -0.192038 -0.976889 -0.0935056
-9.77707 77.3996 -4.65547 -0.176946 -0.979252 -0.0987731
-9.02249 77.1853 -3.96287 -0.168522 -0.979239 -0.112655
-7.93382 76.8835 -3.0611 -0.175491 -0.976401 -0.125874
-6.94647 76.6209 -2.28824 -0.158179 -0.978579 -0.131764
-5.96121 76.348 -1.54812 -0.154067 -0.975953 -0.154202
-4.99847 76.1012 -0.870255 -0.134077 -0.976883 -0.166503
-4.2374 75.9051 -0.343415 -0.11881 -0.977379 -0.174971
-3.46309 75.7057 0.206181 -0.108347 -0.974864 -0.193835
-2.62266 75.5177 0.775092 -0.0864533 -0.977518 -0.192205
-1.72635 75.3172 1.40817 -0.0672036 -0.973495 -0.21861
-0.482375 75.1091 2.04888 -0.0395525 -0.977598 -0.206729
0.88875 75.0343 2.25385 -0.00672277 -0.977168 -0.212361
2.22457 75.0739 2.14135 0.0334333 -0.976188 -0.214334
3.22954 75.1764 1.88247 0.0655126 -0.973505 -0.218754
4.53413 75.426 1.28026 0.102819 -0.97241 -0.209249
5.34515 75.6189 0.753433 0.118053 -0.971419 -0.205148
6.4846 75.9323 -0.0043927 0.145907 -0.971116 -0.188227
7.24367 76.151 -0.473665 0.161555 -0.968072 -0.191649
8.40413 76.4745 -1.04794 0.182991 -0.968045 -0.171476
9.42662 76.7705 -1.57491 0.212786 -0.962399 -0.168842
10.2255 77.038 -2.10225 0.21218 -0.962931 -0.16656
11.2837 77.4304 -3.00427 0.228935 -0.961292 -0.153317
12.051 77.7154 -3.75455 0.230338 -0.962823 -0.140641
12.9127 78.0578 -4.68794 0.240407 -0.961596 -0.132387
13.5777 78.3468 -5.60953 0.245694 -0.962565 -0.114349
14.2059 78.6162 -6.53049 0.243626 -0.964606 -0.100906
14.9545 78.9119 -7.57306 0.249467 -0.964249 -0.0893849
15.6876 79.1834 -8.54656 0.242377 -0.966931 -0.0793537
16.3818 79.4366 -9.44583 0.251608 -0.965132 -0.072212
16.871 79.6269 -10.2873 0.252209 -0.965361 -0.0667758
17.2022 79.7867 -11.3539 0.26177 -0.963029 -0.0636517
17.3867 79.9094 -12.5842 0.26377 -0.963445 -0.0469025
17.4948 79.9885 -13.5995 0.264616 -0.963178 -0.0475873
17.5094 80.0344 -14.6364 0.253708 -0.966483 -0.039284
17.4631 80.0539 -15.6919 0.2576 -0.965986 -0.0226706
17.2823 80.0322 -16.9201 0.264228 -0.964328 -0.0159401
16.8553 79.9341 -18.3165 0.25876 -0.965939 -0.00224331
16.5082 79.8408 -19.2565 0.267489 -0.96348 0.0124175
15.979 79.6793 -20.4832 0.26611 -0.963775 0.0171562
15.4993 79.5195 -21.305 0.263553 -0.964063 0.0334852
14.9065 79.3195 -22.2793 0.264307 -0.963506 0.0421524
14.1651 79.0575 -23.2135 0.277727 -0.958694 0.0609645
13.3571 78.7595 -24.1185 0.275584 -0.958869 0.0679966
12.6001 78.4645 -24.9089 0.280294 -0.955729 0.0894913
11.6606 78.1125 -25.6424 0.282615 -0.953576 0.104027
10.8628 77.8168 -26.1509 0.290714 -0.94865 0.124693
10.0845 77.5251 -26.5468 0.294235 -0.947468 0.125419
9.20381 77.1993 -26.9039 0.293556 -0.944387 0.147789
8.33717 76.8963 -27.1662 0.289857 -0.944343 0.155558
7.27398 76.5394 -27.4031 0.270528 -0.947589 0.169914
6.31511 76.2289 -27.5829 0.25922 -0.949205 0.177623
5.19749 75.9195 -27.6275 0.233379 -0.951588 0.198574
4.24972 75.7055 -27.5903 0.234388 -0.944064 0.231962
3.3198 75.5213 -27.58 0.171266 -0.953958 0.246234
2.20413 75.3236 -27.6487 0.126293 -0.957325 0.259959
1.24532 75.1912 -27.6715 0.0782718 -0.958874 0.26875
0.342184 75.16 -27.6542 0.0411389 -0.966313 0.25406
-0.841553 75.1626 -27.5709 -0.00967841 -0.967446 0.252562
-2.15488 75.2544 -27.4278 -0.0690312 -0.964672 0.254249
-2.99987 75.3319 -27.3394 -0.0690432 -0.970622 0.230351
-2.9523 75.093 -28.2755 -0.0752145 -0.966146 0.24679
-3.95356 75.2224 -28.1785 -0.11033 -0.960598 0.255107
-5.00174 75.4094 -28.0003 -0.152519 -0.963184 0.220979
-5.91651 75.5941 -27.8055 -0.158309 -0.964763 0.21002
-7.06468 75.8638 -27.4912 -0.175747 -0.961997 0.208931
-8.13832 76.1792 -26.9395 -0.180472 -0.964658 0.191982
-8.99989 76.4458 -26.4244 -0.186552 -0.963921 0.18982
-9.74622 76.6974 -25.874 -0.194648 -0.964955 0.175995
-10.6695 76.9999 -25.201 -0.191822 -0.967049 0.167366
-11.4744 77.2829 -24.4442 -0.184619 -0.972683 0.140702
-12.1359 77.5196 -23.69 -0.185981 -0.972824 0.137887
-12.946 77.8352 -22.5798 -0.196059 -0.972506 0.125086
-13.5644 78.0724 -21.5928 -0.19159 -0.974886 0.113535
-14.0227 78.2551 -20.6949 -0.191709 -0.976543 0.0980359
-14.4407 78.4258 -19.6357 -0.188292 -0.979405 0.0728262
-14.7909 78.5712 -18.5667 -0.190204 -0.979916 0.0594455
-15.0527 78.6736 -17.6166 -0.188422 -0.980882 0.0482932
-15.2783 78.753 -16.6673 -0.184591 -0.982172 0.0355498
-15.587 78.8504 -15.5174 -0.191007 -0.981194 0.0277985
-15.7845 78.9182 -14.3389 -0.187915 -0.981951 0.021463
-15.6643 78.9136 -12.8842 -0.190397 -0.981698 0.00432125
-15.2309 78.8277 -11.5432 -0.189104 -0.981912 -0.00945072
-14.7309 78.7161 -10.4293 -0.193791 -0.980902 -0.016594
-14.3158 78.6131 -9.56903 -0.204465 -0.978276 -0.0342199
-13.9165 78.4998 -8.71551 -0.195326 -0.979521 -0.0487997
-13.5256 78.373 -7.76104 -0.194237 -0.979651 -0.050556
-13.009 78.2056 -6.75859 -0.196029 -0.978671 -0.0613803
-12.162 77.9598 -5.70237 -0.201122 -0.976223 -0.0804656
-11.3145 77.7139 -4.82606 -0.192044 -0.976888 -0.0935015
-10.4593 77.4536 -3.96842 -0.186706 -0.977319 -0.0994471
-9.36207 77.1382 -3.02749 -0.186496 -0.974633 -0.1235
-8.49713 76.8884 -2.32679 -0.173454 -0.976288 -0.129519
-7.67327 76.6473 -1.6935 -0.172678 -0.974305 -0.144612
-6.97793 76.4461 -1.15362 -0.154483 -0.97583 -0.154563
-6.13669 76.2103 -0.552047 -0.151363 -0.973268 -0.17274
-5.00637 75.8985 0.226016 -0.141369 -0.974045 -0.176502
-4.21337 75.6825 0.789846 -0.125295 -0.971838 -0.199582
-3.24179 75.4375 1.45509 -0.0958023 -0.971249 -0.217937
-2.14179 75.1599 2.26679 -0.0804342 -0.974242 -0.210675
-1.06569 74.963 2.82775 -0.0395416 -0.974078 -0.222703
-0.165093 74.8623 3.10332 -0.0320975 -0.975769 -0.216188
0.789329 74.8268 3.16553 -0.014471 -0.975853 -0.217738
1.98333 74.8632 3.08227 0.0285554 -0.977848 -0.207358
3.03327 74.947 2.90752 0.0694871 -0.977368 -0.199807
4.18604 75.1096 2.52923 0.0899347 -0.972576 -0.213935
5.57525 75.4398 1.72294 0.120297 -0.967388 -0.222273
6.55327 75.7366 0.991958 0.13554 -0.96862 -0.208335
7.33608 75.972 0.511472 0.167833 -0.961399 -0.218044
8.33205 76.2539 0.0132581 0.193911 -0.961397 -0.195228
9.13464 76.4886 -0.348138 0.198347 -0.965003 -0.170827
10.2157 76.8326 -0.938037 0.217465 -0.959954 -0.176478
11.0089 77.1148 -1.49291 0.226072 -0.960227 -0.163877
11.9946 77.5004 -2.38653 0.233377 -0.959013 -0.160525
12.6575 77.7599 -3.01297 0.241727 -0.960182 -0.140066
13.3359 78.0344 -3.73702 0.256776 -0.957051 -0.134611
13.9717 78.3196 -4.5859 0.253715 -0.95897 -0.126511
14.5703 78.5974 -5.51918 0.254635 -0.960479 -0.112433
15.2383 78.8782 -6.44991 0.251731 -0.963024 -0.095889
15.978 79.1659 -7.45882 0.254008 -0.962894 -0.0910109
16.5652 79.3813 -8.16264 0.255217 -0.963481 -0.0810482
17.1288 79.5877 -8.86316 0.257514 -0.963494 -0.0729863
17.6062 79.7779 -9.63787 0.263429 -0.961854 -0.073771
17.9873 79.9516 -10.6371 0.263574 -0.962319 -0.0667636
18.1926 80.0731 -11.631 0.266178 -0.962075 -0.0596798
18.293 80.1549 -12.5294 0.264623 -0.963177 -0.0475805
18.3738 80.2225 -13.4348 0.265472 -0.96291 -0.048255
18.4132 80.2754 -14.4743 0.266605 -0.96322 -0.0335565
18.3763 80.3033 -15.7047 0.266806 -0.963427 -0.0249714
18.233 80.2913 -16.8342 0.266797 -0.963572 -0.018336
17.9885 80.2449 -17.8577 0.270317 -0.962648 -0.0137168
17.5204 80.1246 -19.1167 0.2671 -0.963602 0.00189516
17.1385 80.0033 -20.2198 0.267493 -0.963479 0.0124093
16.6263 79.8399 -21.2448 0.269905 -0.962489 0.0269326
16.0531 79.6427 -22.1597 0.271592 -0.961526 0.0411845
15.3937 79.4101 -23.1525 0.267726 -0.962426 0.0450192
14.8365 79.2085 -23.844 0.276786 -0.958191 0.0723601
14.104 78.9338 -24.6607 0.27927 -0.956579 0.0830189
13.4981 78.6911 -25.3288 0.282944 -0.954927 0.089761
12.7374 78.3977 -26.0063 0.286561 -0.953184 0.0965377
12.0275 78.1326 -26.5027 0.292164 -0.950247 0.107402
10.9145 77.7009 -27.1834 0.294505 -0.948305 0.118257
9.92913 77.3218 -27.6337 0.299293 -0.94378 0.140296
8.83521 76.9108 -28.0143 0.308507 -0.937882 0.158534
7.9207 76.587 -28.2121 0.291063 -0.940577 0.174919
6.66018 76.1546 -28.452 0.276186 -0.941243 0.194338
5.77928 75.8768 -28.5599 0.259427 -0.942073 0.212388
4.42536 75.5269 -28.505 0.236906 -0.945121 0.224994
3.33679 75.2935 -28.4724 0.172512 -0.954092 0.244835
2.40553 75.1091 -28.5365 0.149114 -0.955496 0.253427
1.39117 74.9676 -28.5728 0.123956 -0.958209 0.257819
0.413552 74.9059 -28.5535 0.033891 -0.959063 0.28115
-0.725719 74.9143 -28.4799 -0.0363741 -0.953775 0.298313
-1.79376 74.9759 -28.3862 -0.0432934 -0.967313 0.248453
-2.51599 75.0522 -28.3019 -0.0752196 -0.966145 0.246791
-2.73482 74.8337 -29.1968 -0.0857271 -0.958983 0.27019
-1.26608 74.6806 -29.3434 -0.0596112 -0.962069 0.266212
0.0803835 74.6381 -29.4137 0.0327777 -0.956218 0.290813
1.36715 74.7038 -29.4612 0.100733 -0.954607 0.279611
2.9812 74.9936 -29.3904 0.19159 -0.946093 0.261153
4.06539 75.2169 -29.3986 0.241843 -0.94217 0.232008
4.97681 75.4302 -29.482 0.263677 -0.935712 0.233217
6.03293 75.7461 -29.4717 0.276552 -0.938376 0.207219
7.03642 76.0859 -29.3266 0.298928 -0.934261 0.194368
8.12172 76.4809 -29.1171 0.296221 -0.938496 0.177321
8.96479 76.7931 -28.9406 0.31496 -0.935034 0.162826
9.94113 77.1675 -28.6388 0.320472 -0.936001 0.145603
11.0738 77.6173 -28.153 0.305594 -0.942945 0.132165
11.9911 77.9812 -27.6296 0.296809 -0.947752 0.116919
12.8084 78.3064 -27.0682 0.303737 -0.945886 0.113942
13.9848 78.7602 -26.1708 0.294888 -0.951458 0.0881444
14.8089 79.0871 -25.2659 0.279276 -0.956578 0.0830123
15.8502 79.4828 -24.0854 0.279373 -0.957205 0.0755612
16.3914 79.6777 -23.3755 0.266027 -0.962096 0.060007
16.9224 79.8723 -22.5194 0.269812 -0.962138 0.0386216
17.5176 80.0796 -21.507 0.267661 -0.962996 0.0304369
17.9885 80.2335 -20.5338 0.267879 -0.963167 0.023453
18.4469 80.3816 -19.2191 0.268226 -0.963299 0.00545175
18.882 80.4982 -18.0675 0.269328 -0.963032 -0.00508169
19.1283 80.5454 -16.9289 0.271715 -0.962174 -0.019781
19.2789 80.5546 -15.7577 0.268177 -0.963004 -0.0264481
19.3261 80.5337 -14.6654 0.268352 -0.962817 -0.031145
19.2635 80.4577 -13.194 0.26823 -0.962196 -0.0472456
19.1641 80.3779 -12.1985 0.267219 -0.961751 -0.0602464
19.0358 80.2776 -11.1663 0.266701 -0.961912 -0.0599645
18.823 80.1517 -10.1942 0.260805 -0.962599 -0.0733718
18.3179 79.9161 -8.91329 0.261224 -0.962368 -0.0748937
17.4712 79.5969 -7.81721 0.263698 -0.961375 -0.0788716
16.8396 79.3628 -7.06397 0.261043 -0.961097 -0.0902769
16.2158 79.1215 -6.29045 0.259385 -0.961629 -0.0893834
15.5789 78.8567 -5.41399 0.272673 -0.956388 -0.104743
14.8536 78.5207 -4.29794 0.269053 -0.955743 -0.119023
14.3635 78.2871 -3.56607 0.26735 -0.954461 -0.132094
13.5277 77.9105 -2.54103 0.263836 -0.953199 -0.147656
12.6278 77.5447 -1.68059 0.245032 -0.956361 -0.159166
12.0011 77.287 -1.07208 0.240053 -0.957404 -0.160431
11.2098 76.9803 -0.454969 0.244061 -0.955341 -0.166607
10.2411 76.6482 0.108706 0.214755 -0.958712 -0.185995
9.18245 76.2991 0.625234 0.205525 -0.958457 -0.19732
8.37572 76.0592 0.984036 0.198745 -0.956161 -0.215073
7.56665 75.8128 1.39662 0.172502 -0.961478 -0.214018
6.49567 75.4693 2.14774 0.135966 -0.964223 -0.227567
5.50247 75.1708 2.89111 0.105067 -0.966838 -0.232246
4.71389 74.9734 3.32293 0.105498 -0.963119 -0.247531
3.19814 74.7466 3.82218 0.0546807 -0.971593 -0.230187
2.28672 74.6668 3.95876 0.0374484 -0.971852 -0.232105
0.673206 74.6185 4.07634 -0.00120886 -0.975383 -0.220515
-0.705862 74.6912 3.93885 -0.0395689 -0.972836 -0.22809
-1.60848 74.799 3.66857 -0.0700969 -0.972761 -0.22096
-2.54497 74.9913 3.14642 -0.0802049 -0.970177 -0.228742
-3.29916 75.1978 2.56014 -0.10843 -0.968356 -0.224325
-4.09561 75.4127 1.97569 -0.107934 -0.971656 -0.21032
-4.99264 75.6625 1.37415 -0.136857 -0.97004 -0.200363
-5.86735 75.9317 0.71806 -0.146294 -0.969376 -0.197251
-6.70704 76.1808 0.133834 -0.166499 -0.970582 -0.17368
-7.49353 76.41 -0.41486 -0.171464 -0.970945 -0.166883
-8.20487 76.6307 -0.946533 -0.173646 -0.972167 -0.156794
-8.97825 76.8601 -1.53216 -0.183164 -0.972336 -0.144877
-9.75963 77.0976 -2.13941 -0.190541 -0.973067 -0.129751
-10.4715 77.3083 -2.71759 -0.192489 -0.974243 -0.117021
-11.1286 77.5162 -3.30902 -0.202533 -0.972287 -0.116784
-11.8762 77.7467 -4.05737 -0.202761 -0.97373 -0.103301
-12.5117 77.9439 -4.69943 -0.204686 -0.974799 -0.0886977
-13.1431 78.1352 -5.41005 -0.199896 -0.977012 -0.0740198
-13.7076 78.3098 -6.16362 -0.202991 -0.976366 -0.0741966
-14.1801 78.457 -6.95918 -0.203732 -0.977085 -0.0614942
-14.5863 78.5944 -7.82902 -0.207823 -0.976802 -0.0516384
-14.9862 78.726 -8.84243 -0.202291 -0.97853 -0.0394602
-15.4598 78.8512 -9.80031 -0.204553 -0.978712 -0.0167845
-15.9057 78.956 -10.7722 -0.197908 -0.980177 -0.00925986
-16.2748 79.0349 -11.6654 -0.189214 -0.981935 0.00119077
-16.6495 79.1038 -13.0691 -0.186934 -0.982301 0.0098766
-16.7119 79.0962 -14.2948 -0.185497 -0.982465 0.0184356
-16.5415 79.0379 -15.4374 -0.187062 -0.982088 0.0225996
-16.3091 78.9628 -16.385 -0.192389 -0.980439 0.0415419
-16.0579 78.8767 -17.2972 -0.1845 -0.982016 0.0398237
-15.8696 78.7972 -18.2855 -0.187092 -0.980746 0.0547397
-15.5171 78.6598 -19.316 -0.189464 -0.979389 0.0698967
-15.1825 78.5223 -20.2806 -0.191206 -0.978828 0.0730515
-14.7881 78.3498 -21.2093 -0.194541 -0.975454 0.102948
-14.3257 78.1613 -22.1092 -0.190726 -0.975076 0.11336
-13.8518 77.9775 -22.8941 -0.200427 -0.970986 0.128862
-13.2027 77.7102 -23.8065 -0.189246 -0.970518 0.149267
-12.6327 77.4835 -24.5514 -0.184241 -0.971248 0.150666
-11.6709 77.1374 -25.565 -0.187545 -0.967767 0.168089
-10.846 76.8511 -26.2429 -0.197892 -0.965021 0.17197
-9.98777 76.5547 -26.8957 -0.197608 -0.961699 0.189962
-9.11448 76.2692 -27.4525 -0.192306 -0.960766 0.199427
-8.33603 76.0166 -27.8897 -0.183055 -0.960868 0.207904
-7.41179 75.7351 -28.3768 -0.183817 -0.958775 0.216524
-6.39375 75.4877 -28.6493 -0.173175 -0.959376 0.22273
-5.00695 75.1764 -28.9594 -0.148362 -0.961314 0.232001
-3.64879 74.9336 -29.1344 -0.126429 -0.961648 0.242552
-3.27008 74.8907 -29.1643 -0.0804685 -0.962565 0.258489
-3.41388 74.6581 -30.051 -0.0886821 -0.96027 0.264607
-2.35934 74.5319 -30.1557 -0.0975769 -0.955935 0.276457
-1.43728 74.415 -30.239 -0.07841 -0.946489 0.313066
-0.468264 74.3511 -30.2863 0.0348222 -0.955265 0.293695
0.572108 74.3704 -30.2828 0.0388145 -0.930428 0.36157
1.54029 74.4486 -30.2974 0.11651 -0.93049 0.34351
2.48557 74.6097 -30.3127 0.184548 -0.923392 0.336584
3.39514 74.8069 -30.2704 0.21218 -0.924398 0.315023
4.55774 75.098 -30.3493 0.248222 -0.928162 0.27731
5.58012 75.3859 -30.4025 0.287986 -0.929909 0.228763
6.64968 75.7585 -30.3204 0.307275 -0.92774 0.210638
7.77489 76.1628 -30.1064 0.317429 -0.929392 0.187603
9.17247 76.7025 -29.8246 0.313976 -0.933752 0.171833
10.0877 77.0772 -29.5591 0.321412 -0.93642 0.140758
11.1898 77.5187 -29.1479 0.3178 -0.938922 0.131529
12.2347 77.9359 -28.5906 0.317738 -0.940525 0.119918
13.0323 78.2592 -28.0963 0.31066 -0.944022 0.110967
13.9385 78.6244 -27.4328 0.293674 -0.951306 0.0936609
14.6704 78.917 -26.7534 0.290995 -0.952728 0.0870693
15.5332 79.2539 -25.8477 0.284656 -0.955601 0.0759621
16.3453 79.5604 -24.9509 0.292563 -0.953618 0.0699165
17.0366 79.8194 -24.1023 0.281572 -0.957997 0.0543911
17.7617 80.0993 -22.8558 0.276011 -0.960195 0.0421296
18.4566 80.3422 -21.6506 0.276736 -0.96054 0.0265594
19.0133 80.5252 -20.3747 0.274607 -0.961455 0.0135318
19.3827 80.6413 -19.37 0.270512 -0.962673 0.00756685
19.8265 80.7766 -18.3186 0.284798 -0.958585 0.00242629
19.9977 80.8065 -17.3469 0.283335 -0.958592 -0.0286671
20.1289 80.8114 -16.1353 0.283417 -0.958643 -0.0260457
20.2433 80.7856 -14.5674 0.267023 -0.963201 -0.0306921
20.1987 80.743 -13.6445 0.287145 -0.956684 -0.0473069
20.138 80.6837 -12.7238 0.280577 -0.958859 -0.0431948
19.9595 80.546 -11.2018 0.280634 -0.958184 -0.0559327
19.7056 80.3638 -9.7965 0.268663 -0.960371 -0.0742108
19.2809 80.1538 -8.6219 0.258977 -0.962805 -0.0770555
18.4859 79.8652 -7.62871 0.264766 -0.961802 -0.0691043
17.8938 79.6491 -6.96943 0.274738 -0.958201 -0.0792315
17.1457 79.3512 -6.03086 0.26533 -0.960225 -0.0869961
16.6486 79.142 -5.28673 0.259162 -0.96138 -0.0926486
16.1031 78.9107 -4.55611 0.275388 -0.953578 -0.121861
15.6259 78.6725 -3.7712 0.272223 -0.954659 -0.120448
15.0814 78.4073 -2.93538 0.275916 -0.951982 -0.132667
14.251 78.0212 -1.97858 0.260431 -0.953545 -0.151421
13.3314 77.6195 -1.04068 0.246514 -0.95622 -0.157712
12.5538 77.2863 -0.248844 0.245228 -0.956097 -0.16044
11.5702 76.9017 0.498173 0.242159 -0.953889 -0.177353
10.5225 76.5303 0.986313 0.240003 -0.950585 -0.19562
9.70255 76.2641 1.36707 0.222553 -0.952724 -0.206633
8.90237 76.0021 1.69868 0.189733 -0.955076 -0.227665
8.03756 75.7099 2.19163 0.185277 -0.953983 -0.235524
7.07402 75.3895 2.86036 0.142551 -0.964538 -0.222137
6.24496 75.0992 3.4876 0.125849 -0.958804 -0.253772
5.45379 74.8798 4.00345 0.106269 -0.962909 -0.248017
4.35781 74.6644 4.46469 0.070699 -0.964765 -0.253438
3.35927 74.5251 4.73069 0.0381073 -0.962591 -0.268265
2.25382 74.4403 4.87796 0.0364086 -0.963576 -0.264917
1.18896 74.3991 4.98339 0.00209774 -0.965568 -0.260143
-0.297447 74.4307 4.94789 -0.0365299 -0.969355 -0.242927
-1.20061 74.5104 4.76029 -0.0450687 -0.969508 -0.240681
-2.29847 74.672 4.37821 -0.0604874 -0.967456 -0.245704
-3.09357 74.8514 3.94832 -0.0878981 -0.967943 -0.235089
-3.85976 75.0505 3.41258 -0.108938 -0.965055 -0.23833
-4.53045 75.2837 2.79338 -0.144267 -0.963229 -0.226646
-5.5053 75.5776 2.125 -0.143889 -0.966762 -0.211348
-6.62289 75.9423 1.30359 -0.171672 -0.964704 -0.199219
-7.41579 76.1797 0.779098 -0.164683 -0.969305 -0.182559
-8.22812 76.4534 0.148937 -0.192281 -0.966865 -0.167498
-9.41941 76.83 -0.744021 -0.188282 -0.970642 -0.149477
-10.2886 77.0882 -1.36932 -0.186538 -0.972219 -0.141402
-11.043 77.3435 -2.00101 -0.204472 -0.972312 -0.113141
-11.7291 77.553 -2.56225 -0.208358 -0.971553 -0.112502
-12.5229 77.8063 -3.29267 -0.210727 -0.972162 -0.102449
-13.2892 78.0545 -4.13823 -0.203929 -0.974812 -0.0903069
-13.8428 78.2467 -4.86055 -0.214913 -0.973291 -0.0792412
-14.4388 78.4273 -5.6363 -0.212546 -0.975029 -0.0643596
-15.0547 78.6251 -6.64792 -0.214 -0.975175 -0.0569024
-15.488 78.7729 -7.5423 -0.219899 -0.974084 -0.0529647
-15.8309 78.8888 -8.39556 -0.212558 -0.976337 -0.0398032
-16.2576 79.0064 -9.26387 -0.202519 -0.979061 -0.0206298
-16.6019 79.0969 -10.1047 -0.218418 -0.975851 -0.00288433
-17.0571 79.1846 -11.0957 -0.186646 -0.982348 0.00877429
-17.3668 79.2431 -11.9584 -0.185577 -0.98263 -5.39979e-05
-17.6059 79.2863 -13.1643 -0.192332 -0.981244 0.0126746
-17.6508 79.2806 -14.1339 -0.194111 -0.980868 0.0147809
-17.5307 79.2383 -15.0441 -0.191707 -0.981216 0.0215143
-17.3579 79.1849 -15.9321 -0.189408 -0.981266 0.0332204
-17.0022 79.0558 -17.2896 -0.186232 -0.981512 0.0441865
-16.9155 78.9911 -18.3866 -0.187092 -0.980746 0.0547396
-16.3164 78.792 -19.747 -0.200912 -0.977555 0.0624496
-15.8809 78.5984 -20.9809 -0.194535 -0.975161 0.105863
-15.4802 78.4296 -21.7772 -0.197181 -0.974275 0.109113
-15.0907 78.2581 -22.5931 -0.194122 -0.974793 0.109982
-14.6171 78.0488 -23.4975 -0.206731 -0.967179 0.147738
-13.9781 77.7897 -24.2999 -0.198256 -0.966466 0.162332
-13.3901 77.5444 -25.0902 -0.180039 -0.970331 0.161378
-12.6307 77.2632 -25.9163 -0.186492 -0.968212 0.166674
-11.5866 76.8882 -26.8677 -0.196071 -0.964525 0.176768
-10.4988 76.5008 -27.7256 -0.202375 -0.961668 0.185036
-9.72646 76.2361 -28.1685 -0.202231 -0.956335 0.210929
-8.9547 75.9764 -28.6298 -0.203833 -0.952056 0.227311
-8.08693 75.6826 -29.1534 -0.184579 -0.956682 0.225143
-7.20643 75.4494 -29.4527 -0.17527 -0.959387 0.221037
-6.02129 75.1779 -29.6796 -0.17123 -0.956069 0.237934
-4.95188 74.9081 -29.9438 -0.166996 -0.950769 0.259847
-4.07423 74.7453 -30.0525 -0.12809 -0.957434 0.258674
-3.62969 74.6878 -30.0451 -0.128091 -0.957436 0.258669
-3.43218 74.6601 -30.0499 -0.108385 -0.958854 0.261634
