1.37986 51.9249 -38.5106 -0.101281 -0.272861 0.952355
2.09199 52.1084 -38.4382 0.0255013 -0.300354 0.953487
1.79784 53.1339 -38.2259 -0.0636484 -0.158429 0.981859
1.37313 51.9752 -38.5005 -0.171532 -0.215477 0.961325
1.37605 51.9382 -38.5083 -0.171531 -0.215474 0.961326
0.662115 51.6609 -38.7071 -0.202141 -0.254439 0.945103
1.40517 50.8986 -38.8414 -0.143469 -0.345363 0.927438
2.65006 51.3829 -38.6643 -0.00354865 -0.280877 0.959737
2.92033 52.352 -38.3905 0.114382 -0.222728 0.968075
2.6065 53.3689 -38.2085 0.0295132 -0.157551 0.98707
1.68463 54.1086 -38.0884 -0.0469815 -0.135369 0.989471
0.740702 53.3305 -38.3147 -0.0996779 -0.220356 0.970313
0.561511 52.2341 -38.5941 -0.194931 -0.222442 0.95526
0.588586 51.9252 -38.6605 -0.194933 -0.22244 0.95526
-0.199281 51.8935 -38.8287 -0.202137 -0.254444 0.945103
0.267035 50.7236 -39.0827 -0.176409 -0.315903 0.931192
1.13974 50.1205 -39.1658 -0.138868 -0.327161 0.934709
2.11853 50.0391 -39.0747 0.0314765 -0.338641 0.937138
3.03735 50.6702 -38.9093 0.0836314 -0.385511 0.918905
3.60192 51.6358 -38.6443 0.182015 -0.269874 0.945536
3.61571 52.6852 -38.4021 0.117481 -0.211562 0.970278
3.30097 53.6707 -38.1777 0.0287779 -0.172233 0.984636
2.67794 54.5318 -38.0088 0.0256506 -0.165763 0.985805
1.48498 54.9727 -37.9799 -0.0339316 -0.14608 0.988546
0.62207 54.6769 -38.078 -0.0629789 -0.144837 0.987449
0.123298 53.9263 -38.27 -0.195874 -0.241071 0.950531
-0.140387 53.0259 -38.5511 -0.195529 -0.231587 0.952928
-0.20748 52.0146 -38.8021 -0.19412 -0.223357 0.955211
-0.982946 52.0825 -38.9947 -0.274401 -0.294402 0.915441
-0.916704 53.0151 -38.7304 -0.233415 -0.265656 0.934718
-0.754798 53.9175 -38.4515 -0.193992 -0.243236 0.95037
-0.349525 54.7995 -38.1812 -0.15601 -0.153069 0.975823
0.334351 55.5166 -37.9732 -0.0686888 -0.156881 0.985133
1.23145 55.7884 -37.8586 -0.0744002 -0.168924 0.982817
2.39229 55.6554 -37.8307 -0.0387417 -0.163957 0.985701
3.48189 54.8835 -37.9706 0.0256507 -0.165764 0.985805
4.1366 53.7269 -38.2397 0.107205 -0.183078 0.977236
4.3797 52.8307 -38.5079 0.156231 -0.223433 0.961431
4.41403 51.8133 -38.759 0.207068 -0.252061 0.945298
4.06395 50.8209 -39.0017 0.181001 -0.346005 0.920608
3.22555 49.7823 -39.2572 0.0899969 -0.28936 0.95298
2.41504 49.3066 -39.3744 -0.0270498 -0.387916 0.921298
1.45687 49.2656 -39.4504 -0.113772 -0.369189 0.922364
0.350311 49.6505 -39.4475 -0.186627 -0.33017 0.923988
-0.329846 50.3061 -39.383 -0.247901 -0.314812 0.915921
-0.86588 51.3347 -39.2001 -0.268871 -0.29956 0.915377
-0.929191 51.5754 -39.1417 -0.274401 -0.294402 0.915441
-1.64516 51.3523 -39.4327 -0.283018 -0.296508 0.912131
-1.75212 52.4752 -39.0902 -0.248662 -0.317251 0.915127
-1.81429 53.5157 -38.7747 -0.202633 -0.266759 0.941891
-1.22947 54.7988 -38.3165 -0.169674 -0.235515 0.956387
-0.509036 55.9311 -37.9845 -0.116782 -0.20117 0.97257
0.791644 56.6126 -37.7624 -0.0887842 -0.149036 0.984838
1.90869 56.6692 -37.6997 -0.0146349 -0.127688 0.991706
3.15842 56.1632 -37.7657 0.0223379 -0.136901 0.990238
4.21266 55.2485 -37.9475 0.0715614 -0.176321 0.981237
4.7727 54.2888 -38.1968 0.106031 -0.203456 0.973118
5.07274 53.4504 -38.4449 0.143167 -0.252575 0.956927
5.22531 52.1493 -38.8382 0.176906 -0.26772 0.946817
4.87063 50.7438 -39.1722 0.181914 -0.318123 0.930034
4.0768 49.559 -39.4072 0.128195 -0.271347 0.953029
3.01545 48.6979 -39.5726 0.0177939 -0.305372 0.949293
2.11596 48.4679 -39.6993 -0.0555508 -0.310294 0.949015
0.970439 48.5418 -39.7802 -0.0974077 -0.339543 0.935533
-0.292919 49.2004 -39.7425 -0.200491 -0.306044 0.930431
-1.07964 50.0691 -39.682 -0.283363 -0.279602 0.917027
-1.41025 50.6882 -39.5787 -0.283483 -0.302222 0.910109
-1.6155 51.2386 -39.4604 -0.283652 -0.299044 0.911102
