11.7897 79.5427 -24.5453 0.252986 -0.963101 0.0917161
10.8735 79.2322 -25.1981 0.259015 -0.960582 0.100958
9.64759 78.8204 -25.9519 0.25923 -0.958906 0.115321
8.79513 78.535 -26.36 0.250185 -0.958139 0.138583
7.72488 78.2184 -26.6999 0.24355 -0.95829 0.149342
6.66107 77.929 -26.8795 0.222842 -0.960738 0.165299
5.71691 77.6974 -26.9535 0.208976 -0.959905 0.186847
4.37679 77.409 -26.9911 0.196769 -0.963548 0.181267
3.10465 77.189 -26.9861 0.14125 -0.973605 0.179283
2.15996 77.0432 -26.9714 0.133255 -0.962758 0.233257
0.841317 76.9143 -26.9572 0.0952076 -0.96657 0.238072
-0.38438 76.8684 -26.9404 0.0223965 -0.970367 0.240596
-1.57871 76.873 -26.8934 0.00328073 -0.97567 0.219218
-2.49473 76.9167 -26.8426 -0.0467564 -0.977798 0.204266
-3.91342 77.0425 -26.7149 -0.0917079 -0.976008 0.197481
-4.87609 77.1765 -26.4939 -0.108967 -0.977184 0.182311
-5.7341 77.3176 -26.2482 -0.116071 -0.97744 0.176063
-6.6153 77.4799 -26.0105 -0.133495 -0.975882 0.172724
-7.43969 77.6615 -25.6725 -0.145589 -0.973122 0.178431
-8.38339 77.8954 -25.1255 -0.150674 -0.974473 0.166431
-9.23666 78.1261 -24.5054 -0.15291 -0.977675 0.144117
-10.0517 78.3678 -23.7106 -0.149591 -0.978634 0.141062
-10.7357 78.5918 -22.8743 -0.154074 -0.979566 0.129231
-11.2492 78.7786 -22.0509 -0.153258 -0.980385 0.123926
-11.7221 78.9765 -21.016 -0.154041 -0.982994 0.0995737
-12.3143 79.213 -19.5565 -0.172946 -0.981333 0.08315
-12.82 79.3922 -18.2859 -0.163587 -0.984416 0.0638548
-13.2177 79.518 -17.1872 -0.155054 -0.986642 0.0496205
-13.5515 79.6127 -16.1683 -0.156692 -0.986976 0.0362929
-13.7796 79.6795 -15.2051 -0.161223 -0.986651 0.0228146
-13.8678 79.7177 -14.2259 -0.161009 -0.986787 0.0161515
-13.6695 79.6901 -13.0042 -0.163754 -0.986501 0.000569941
-13.1761 79.6047 -11.8375 -0.160105 -0.987045 -0.0103923
-12.6477 79.4971 -10.7688 -0.16873 -0.985336 -0.0253737
-12.1686 79.3793 -9.76427 -0.170916 -0.984427 -0.0411168
-11.6534 79.2484 -8.77336 -0.160125 -0.985433 -0.0572101
-11.184 79.1208 -7.91225 -0.162752 -0.984071 -0.0705601
-10.4748 78.9173 -6.80846 -0.150838 -0.984772 -0.08601
-9.82201 78.739 -6.01548 -0.154776 -0.983389 -0.0947992
-8.91869 78.5005 -5.05343 -0.14241 -0.98376 -0.109252
-8.01536 78.2751 -4.26362 -0.139521 -0.981865 -0.128186
-7.02227 78.0344 -3.48786 -0.138295 -0.981168 -0.13485
-6.30478 77.8713 -2.96915 -0.123771 -0.982442 -0.139599
-5.4588 77.6773 -2.36945 -0.111406 -0.981339 -0.156517
-4.76337 77.5141 -1.81746 -0.103931 -0.981727 -0.159409
-3.66155 77.264 -0.992666 -0.08044 -0.982547 -0.167719
-2.62577 77.024 -0.144931 -0.0771552 -0.978346 -0.192047
-1.79036 76.8082 0.721971 -0.0468061 -0.980917 -0.188711
-0.851129 76.6559 1.26442 -0.0352991 -0.980021 -0.195735
0.37058 76.5933 1.44759 -0.00658333 -0.978513 -0.206081
1.37392 76.5968 1.40509 0.0126518 -0.977883 -0.208238
2.33815 76.6595 1.23729 0.0259306 -0.978627 -0.203735
3.38954 76.7613 0.975502 0.0559163 -0.976811 -0.206671
4.56072 76.9731 0.393634 0.0849825 -0.975034 -0.204891
5.88953 77.2827 -0.48549 0.10787 -0.972801 -0.204991
7.1657 77.6066 -1.29664 0.144339 -0.97223 -0.184216
7.93061 77.8034 -1.73955 0.149339 -0.973925 -0.170419
8.97877 78.0814 -2.33967 0.171375 -0.969888 -0.172676
9.73036 78.314 -2.86797 0.184642 -0.967897 -0.170472
10.5299 78.5845 -3.58074 0.182719 -0.971636 -0.150123
11.2866 78.8646 -4.42418 0.19516 -0.970196 -0.143641
11.7982 79.0837 -5.19919 0.203393 -0.970584 -0.128834
12.3627 79.3321 -6.16022 0.211374 -0.969495 -0.123742
13.2488 79.6719 -7.42696 0.208738 -0.972129 -0.106552
13.8341 79.8682 -8.08198 0.212916 -0.971666 -0.102629
14.7012 80.168 -9.15077 0.221491 -0.971358 -0.0860538
15.2482 80.3646 -9.9389 0.227402 -0.970127 -0.0843304
15.8668 80.6006 -11.1094 0.226817 -0.971459 -0.0692976
16.1472 80.7404 -12.2212 0.226037 -0.972185 -0.0611542
16.2208 80.8071 -13.156 0.223884 -0.973297 -0.0506808
16.2665 80.8678 -14.3275 0.223306 -0.974161 -0.0338432
16.2566 80.8989 -15.2895 0.232983 -0.972168 -0.0246632
16.1185 80.8911 -16.3047 0.232825 -0.972276 -0.0215439
15.8607 80.8482 -17.4335 0.234293 -0.972096 -0.00851214
15.5441 80.7738 -18.4944 0.232687 -0.97255 -0.00157349
15.0933 80.647 -19.9341 0.237906 -0.971027 0.0220175
14.4996 80.4621 -21.0976 0.243967 -0.96905 0.0377093
13.9035 80.272 -22.0617 0.239467 -0.969829 0.0456965
13.1907 80.0343 -23.0113 0.248385 -0.966134 0.0699088
12.3755 79.7444 -24.0122 0.25182 -0.963895 0.0865616
12.2121 79.6857 -24.1909 0.252442 -0.963712 0.0867903
12.8696 79.7986 -24.8598 0.253003 -0.963731 0.0849276
12.0805 79.5217 -25.5179 0.255605 -0.962041 0.0955785
11.3166 79.2595 -26.046 0.258572 -0.958989 0.116102
10.2256 78.8765 -26.7031 0.269389 -0.955017 0.123982
9.17726 78.5203 -27.2172 0.261946 -0.955846 0.133201
8.32202 78.242 -27.5059 0.259222 -0.952779 0.157522
7.06622 77.8752 -27.7538 0.250339 -0.953658 0.166859
6.06899 77.615 -27.8425 0.228695 -0.955833 0.184611
5.00054 77.3576 -27.8926 0.197608 -0.958885 0.203692
3.7376 77.0839 -27.8913 0.193056 -0.953274 0.230536
2.78319 76.9218 -27.8836 0.163713 -0.957657 0.236827
1.68901 76.7818 -27.8678 0.1037 -0.968151 0.227879
0.780864 76.7013 -27.8503 0.0460523 -0.973611 0.223516
-0.432183 76.6601 -27.8416 -4.50839e-05 -0.976474 0.215634
-1.34209 76.6688 -27.8029 -0.00108391 -0.975716 0.219009
-2.2967 76.7088 -27.7804 -0.0422239 -0.974883 0.218679
-3.66512 76.8136 -27.6893 -0.0858814 -0.973127 0.213654
-4.54926 76.9235 -27.5448 -0.102727 -0.971442 0.213225
-5.44752 77.0819 -27.3143 -0.105742 -0.976454 0.188033
-6.63242 77.2953 -27.0016 -0.139641 -0.970624 0.195932
-7.87998 77.5746 -26.5167 -0.15023 -0.973279 0.173661
-8.88152 77.8407 -25.9137 -0.156319 -0.971709 0.177049
-9.77915 78.0858 -25.291 -0.15023 -0.975771 0.159067
-10.7004 78.3721 -24.4018 -0.151568 -0.976413 0.153768
-11.3488 78.5886 -23.6052 -0.159195 -0.978345 0.132096
-11.9432 78.8052 -22.7502 -0.16369 -0.978509 0.125182
-12.5216 79.0525 -21.5349 -0.173292 -0.978226 0.113999
-12.9009 79.2141 -20.6335 -0.170049 -0.980116 0.102253
-13.3661 79.4015 -19.442 -0.165885 -0.983569 0.0711859
-13.89 79.5726 -18.1156 -0.156174 -0.986165 0.0555741
-14.2325 79.6812 -17.0697 -0.156372 -0.986646 0.0454703
-14.5081 79.7705 -16.1286 -0.161598 -0.986001 0.0404837
-14.7008 79.8284 -15.2487 -0.159876 -0.98675 0.027655
-14.851 79.8786 -13.963 -0.162666 -0.986642 0.00876833
-14.6137 79.8452 -12.8112 -0.163728 -0.986488 -0.00466147
-14.2614 79.784 -11.9267 -0.161555 -0.986831 -0.00737526
-13.7181 79.682 -10.8408 -0.166303 -0.98577 -0.0222127
-13.2288 79.5658 -9.8604 -0.168435 -0.985193 -0.031888
-12.7611 79.4424 -8.89626 -0.16729 -0.984765 -0.0474506
-12.2302 79.284 -7.83219 -0.165333 -0.984281 -0.0616597
-11.6951 79.1249 -6.91713 -0.16445 -0.982661 -0.0856318
-10.8373 78.8746 -5.77471 -0.170504 -0.980829 -0.0943511
-10.016 78.6476 -4.83675 -0.160204 -0.98162 -0.103717
-9.22884 78.4321 -4.08207 -0.158157 -0.978886 -0.128949
-8.31009 78.1947 -3.31638 -0.149725 -0.979466 -0.134817
-7.50703 77.9929 -2.70981 -0.135175 -0.980675 -0.141436
-6.75335 77.8008 -2.14884 -0.130779 -0.97958 -0.15231
-5.89816 77.5919 -1.4843 -0.118871 -0.980956 -0.153606
-4.9625 77.3651 -0.8096 -0.104843 -0.979558 -0.171682
-4.15435 77.1665 -0.219593 -0.103082 -0.975814 -0.1925
-3.21815 76.9244 0.600467 -0.0771595 -0.978345 -0.192051
-2.57511 76.7298 1.32371 -0.0683456 -0.97704 -0.201709
-1.7344 76.5552 1.93705 -0.0519506 -0.978374 -0.200211
-0.49221 76.425 2.33909 -0.0250086 -0.980108 -0.196884
0.481154 76.3938 2.39138 -0.00378048 -0.978898 -0.204287
1.76299 76.4144 2.28522 0.0126566 -0.977885 -0.208229
2.95175 76.4985 2.06843 0.0325038 -0.977184 -0.209892
4.20226 76.6613 1.66507 0.0579529 -0.973906 -0.219425
5.00481 76.8284 1.22469 0.0802336 -0.971109 -0.224743
5.80487 77.0288 0.688548 0.117874 -0.969983 -0.212167
6.82201 77.2942 -0.00753632 0.118738 -0.973077 -0.197541
7.75696 77.5566 -0.590979 0.143177 -0.969715 -0.197631
8.69146 77.8113 -1.12146 0.165567 -0.967056 -0.193365
9.48991 78.0397 -1.57859 0.181467 -0.96747 -0.17627
10.2791 78.287 -2.11237 0.19852 -0.964524 -0.173759
11.1 78.5698 -2.79935 0.203142 -0.964664 -0.167555
11.8755 78.8658 -3.63653 0.210554 -0.965573 -0.152613
12.442 79.1139 -4.45978 0.209694 -0.966788 -0.146026
12.9383 79.343 -5.31101 0.213861 -0.967822 -0.132604
13.6758 79.6443 -6.41205 0.216974 -0.969145 -0.11665
14.4298 79.9282 -7.36915 0.217424 -0.970613 -0.103135
15.1009 80.1639 -8.16215 0.222822 -0.969559 -0.10152
15.8475 80.4289 -9.10002 0.229154 -0.96927 -0.0894684
16.4469 80.654 -10.0717 0.227794 -0.970434 -0.0797726
16.8759 80.8353 -11.0909 0.22761 -0.971325 -0.06862
17.1094 80.9715 -12.3278 0.226768 -0.97195 -0.0623667
17.1655 81.0578 -13.7014 0.232563 -0.971516 -0.0448764
17.2071 81.1217 -15.1105 0.232821 -0.972005 -0.0310529
17.112 81.1277 -16.1811 0.240844 -0.970252 -0.023926
16.8592 81.0859 -17.2304 0.233505 -0.972194 -0.0176267
16.6052 81.0277 -18.1564 0.233835 -0.972276 -0.000588329
16.2945 80.9474 -19.3464 0.233307 -0.972301 0.0140602
15.9315 80.8414 -20.3467 0.239875 -0.970448 0.0262804
15.4647 80.6996 -21.2384 0.245749 -0.968597 0.0377375
14.9103 80.518 -22.2252 0.248863 -0.967297 0.0490217
14.0561 80.2294 -23.4101 0.250733 -0.965594 0.068983
13.3586 79.9768 -24.2946 0.256583 -0.962769 0.0850169
13.2594 79.9399 -24.4176 0.252999 -0.963731 0.0849331
14.0231 80.0991 -24.9451 0.260923 -0.961733 0.0836055
14.666 80.3387 -24.1148 0.251862 -0.96539 0.0677245
15.4513 80.6094 -23.1404 0.248363 -0.966613 0.063042
16.0863 80.824 -22.1112 0.246168 -0.968143 0.0458277
16.5802 80.9804 -21.134 0.239839 -0.970454 0.0263856
17.0536 81.1237 -19.9517 0.246212 -0.969099 0.0150584
17.4453 81.238 -18.7122 0.243436 -0.969892 0.00351651
17.7089 81.3026 -17.8155 0.242079 -0.970211 -0.00727704
17.9701 81.3523 -16.669 0.241173 -0.97035 -0.01553
18.1182 81.3619 -15.5697 0.252851 -0.967174 -0.0253153
18.1523 81.3325 -14.6196 0.243239 -0.969034 -0.0425312
18.1156 81.2659 -13.3471 0.235028 -0.970646 -0.050976
18.0321 81.1834 -12.2062 0.236899 -0.969674 -0.0600835
17.8806 81.0796 -11.1803 0.235658 -0.96925 -0.0708003
17.5849 80.9355 -10.2123 0.228125 -0.970641 -0.0761117
17.0847 80.7359 -9.24841 0.230502 -0.969016 -0.0885231
16.547 80.5347 -8.48287 0.226878 -0.969535 -0.0923501
15.8879 80.2997 -7.68071 0.22779 -0.968832 -0.0973429
15.3192 80.0935 -6.99611 0.229173 -0.96778 -0.104312
14.5777 79.8114 -6.05708 0.22728 -0.966945 -0.115591
14.0189 79.5795 -5.26683 0.225663 -0.965636 -0.128724
13.5577 79.3724 -4.47969 0.219123 -0.967509 -0.126142
13.0856 79.1371 -3.65445 0.219628 -0.964736 -0.144915
12.5382 78.901 -2.9268 0.216758 -0.963912 -0.154563
11.8174 78.6195 -2.18715 0.211633 -0.962486 -0.169801
10.9358 78.2938 -1.41875 0.202376 -0.962208 -0.182206
10.2086 78.0513 -0.909106 0.184187 -0.965342 -0.184703
9.41356 77.8077 -0.464204 0.178243 -0.965236 -0.190932
8.33603 77.4922 0.124131 0.162001 -0.96481 -0.20658
7.38554 77.2226 0.714019 0.150613 -0.964838 -0.215113
6.25569 76.895 1.49163 0.114183 -0.967782 -0.224378
5.44105 76.6683 2.07215 0.0957976 -0.969894 -0.223344
4.64092 76.4982 2.52836 0.0790471 -0.971693 -0.222629
3.80856 76.3702 2.84963 0.0592378 -0.972309 -0.22598
2.83806 76.2754 3.05532 0.0331876 -0.973667 -0.225547
1.89062 76.2174 3.18711 0.0195815 -0.975696 -0.218252
0.747158 76.1829 3.31123 -0.000996537 -0.973595 -0.228279
-0.262517 76.2002 3.32017 -0.0207953 -0.975037 -0.221052
-1.6576 76.3213 3.01106 -0.0482452 -0.975628 -0.214063
-2.66408 76.4992 2.4594 -0.0651087 -0.974477 -0.214837
-3.42341 76.7017 1.76868 -0.0805874 -0.97597 -0.202455
-4.10087 76.9106 1.0725 -0.0958766 -0.972706 -0.211307
-4.88296 77.1271 0.391525 -0.112317 -0.974023 -0.19663
-6.10173 77.4416 -0.480658 -0.126121 -0.977149 -0.171095
-6.86914 77.6517 -1.08623 -0.14086 -0.975815 -0.166949
-7.75055 77.8856 -1.76187 -0.139276 -0.978055 -0.154863
-8.6237 78.1131 -2.41166 -0.153009 -0.978078 -0.141247
-9.73954 78.4131 -3.26948 -0.169854 -0.976921 -0.12952
-10.5792 78.6526 -4.06496 -0.161092 -0.980891 -0.109038
-11.3684 78.8842 -4.96339 -0.164184 -0.980514 -0.10787
-11.9985 79.0724 -5.73187 -0.167476 -0.981746 -0.0899894
-12.6887 79.2796 -6.72688 -0.175328 -0.980919 -0.084012
-13.1484 79.4321 -7.51955 -0.177907 -0.98023 -0.0865895
-13.678 79.5932 -8.64327 -0.179389 -0.982439 -0.0513132
-14.0906 79.7056 -9.52035 -0.171833 -0.984668 -0.0300425
-14.5319 79.809 -10.3834 -0.166315 -0.985768 -0.0222112
-15.1011 79.9217 -11.4818 -0.169785 -0.985435 -0.00840999
-15.5863 80.0093 -12.606 -0.164376 -0.986376 0.000845533
-15.8301 80.0411 -13.7271 -0.156305 -0.98759 0.0136928
-15.7034 79.9962 -14.9503 -0.155571 -0.98753 0.023823
-15.3828 79.9015 -16.3984 -0.153967 -0.987569 0.031653
-14.9521 79.7638 -17.8313 -0.167708 -0.984454 0.0517527
-14.6451 79.6498 -18.868 -0.163784 -0.984848 0.0564778
-14.2931 79.5346 -19.7149 -0.160725 -0.984124 0.075289
-13.8886 79.3789 -20.7008 -0.171355 -0.979853 0.102597
-13.5449 79.2177 -21.641 -0.1694 -0.979562 0.108452
-13.0611 79.0082 -22.6707 -0.168764 -0.976644 0.132985
-12.5862 78.8103 -23.4956 -0.17425 -0.97458 0.140824
-12.0214 78.5995 -24.3075 -0.159979 -0.976021 0.147616
-11.286 78.3456 -25.1693 -0.16443 -0.97496 0.14972
-10.4245 78.074 -25.9841 -0.153142 -0.973794 0.168145
-9.43053 77.796 -26.6523 -0.160623 -0.971613 0.173691
-8.66069 77.5774 -27.1517 -0.156043 -0.969923 0.186736
-7.74523 77.3384 -27.6378 -0.149783 -0.970441 0.189217
-6.30951 77.0358 -28.0492 -0.146087 -0.967581 0.205998
-5.23257 76.8356 -28.3293 -0.119333 -0.96976 0.212896
-3.94874 76.6361 -28.6048 -0.0799878 -0.97097 0.22543
-2.99455 76.538 -28.6768 -0.0639772 -0.974038 0.216044
-1.51324 76.4423 -28.7228 -0.0591178 -0.968678 0.24118
-0.311137 76.4424 -28.7525 0.0220549 -0.966082 0.257286
0.703434 76.4909 -28.7466 0.0509452 -0.96806 0.244545
1.63243 76.5469 -28.7676 0.108649 -0.963658 0.244045
2.56972 76.6528 -28.7694 0.143048 -0.956991 0.249954
3.59822 76.8387 -28.7894 0.180115 -0.951616 0.248825
4.92863 77.1387 -28.8196 0.239434 -0.942507 0.232158
6.33136 77.5043 -28.7396 0.232835 -0.952214 0.197433
7.73604 77.9079 -28.5721 0.250346 -0.953657 0.16685
8.98553 78.3105 -28.2673 0.266403 -0.952457 0.147679
9.87985 78.6175 -27.9116 0.279325 -0.951319 0.130269
10.904 78.9802 -27.3934 0.270759 -0.955212 0.119412
11.6783 79.2589 -26.9227 0.271789 -0.956653 0.10462
12.4234 79.5212 -26.4433 0.266475 -0.958269 0.103501
13.2769 79.8211 -25.7731 0.260867 -0.96123 0.0893617
13.7084 79.9799 -25.3341 0.262278 -0.961105 0.0864744
14.3713 80.1022 -25.9759 0.263647 -0.960475 0.0893157
15.1743 80.4065 -24.9695 0.25604 -0.963035 0.0837036
15.7981 80.6274 -24.2187 0.251377 -0.965243 0.071418
16.3725 80.8241 -23.5065 0.254928 -0.965031 0.0610462
16.9904 81.0418 -22.3821 0.247416 -0.967849 0.0453101
17.5678 81.2321 -21.1776 0.247419 -0.968653 0.0219511
17.928 81.3408 -20.2752 0.245691 -0.969197 0.0170199
18.2563 81.4343 -19.3258 0.241806 -0.970281 0.009212
18.5169 81.5081 -18.3887 0.243428 -0.969894 0.00351748
18.7887 81.5637 -17.1794 0.244334 -0.969634 -0.0105479
18.9683 81.5958 -16.2632 0.242885 -0.969939 -0.0150355
19.0772 81.5942 -15.3214 0.240485 -0.969828 -0.0400204
19.0859 81.5505 -14.2392 0.24404 -0.968862 -0.0418508
19.0495 81.4903 -13.2094 0.244337 -0.968149 -0.054652
18.9531 81.4075 -12.2064 0.234506 -0.970223 -0.0606168
18.8166 81.308 -11.2078 0.235447 -0.969464 -0.0685854
18.6376 81.1943 -10.2786 0.233862 -0.969069 -0.0788256
18.2927 81.032 -9.35592 0.236305 -0.967901 -0.0855958
17.7346 80.8182 -8.49196 0.232741 -0.967971 -0.0941436
17.1621 80.6098 -7.7685 0.231775 -0.968087 -0.0953118
16.2719 80.2899 -6.71535 0.232242 -0.967078 -0.10404
15.5097 79.9961 -5.75079 0.233499 -0.965234 -0.11748
14.8426 79.7201 -4.84223 0.232205 -0.963763 -0.131307
14.3206 79.4737 -3.96087 0.224928 -0.96294 -0.14883
13.8068 79.2155 -3.07366 0.223985 -0.962905 -0.150485
13.0705 78.8902 -2.13588 0.215786 -0.962052 -0.166752
12.2624 78.5646 -1.34171 0.208512 -0.962115 -0.175646
11.3443 78.2217 -0.560562 0.207762 -0.960933 -0.182778
10.4756 77.9234 0.0214655 0.193615 -0.963569 -0.184522
9.60878 77.6498 0.479245 0.189182 -0.959425 -0.208784
8.52841 77.3219 1.07175 0.181219 -0.958165 -0.221024
7.44914 76.9837 1.77553 0.140343 -0.964589 -0.222887
6.60347 76.7285 2.38375 0.129996 -0.964833 -0.22847
5.63902 76.4598 3.06204 0.107219 -0.968159 -0.226213
4.7197 76.2649 3.55047 0.0852272 -0.967652 -0.237459
3.60144 76.1168 3.85678 0.0606006 -0.970687 -0.232579
2.67673 76.0419 4.02507 0.0342299 -0.971777 -0.233406
1.31741 75.9845 4.16491 0.0164142 -0.971164 -0.237793
-0.188724 75.9778 4.27185 -0.0165301 -0.971523 -0.236368
-1.4075 76.0706 4.07051 -0.0458915 -0.971967 -0.230488
-2.28882 76.182 3.75857 -0.0568127 -0.972919 -0.223672
-3.40499 76.4175 3.06627 -0.0745784 -0.973726 -0.215038
-4.22935 76.6623 2.27961 -0.0810923 -0.974339 -0.209832
-5.0473 76.9301 1.44372 -0.118056 -0.970568 -0.209754
-5.9931 77.199 0.725768 -0.12661 -0.973383 -0.191003
-6.83667 77.4259 0.148669 -0.140146 -0.972365 -0.186329
-7.73885 77.6974 -0.61931 -0.140857 -0.975817 -0.166944
-8.72457 77.9709 -1.37039 -0.156386 -0.974963 -0.158086
-9.52412 78.1859 -1.94701 -0.166452 -0.975283 -0.145315
-10.5581 78.4781 -2.74866 -0.16635 -0.976172 -0.139313
-11.5021 78.7599 -3.66669 -0.159572 -0.979833 -0.120265
-12.2749 79.001 -4.60932 -0.176267 -0.978637 -0.105827
-13.1214 79.2567 -5.63261 -0.169251 -0.980631 -0.0985742
-13.8562 79.5 -6.82514 -0.181497 -0.979657 -0.0856234
-14.3636 79.6771 -7.91588 -0.168965 -0.98374 -0.0604712
-14.9992 79.8607 -9.28581 -0.173416 -0.983971 -0.0398657
-15.6125 79.996 -10.452 -0.169686 -0.985344 -0.0174521
-16.2111 80.1095 -11.6102 -0.162393 -0.986719 -0.00370635
-16.659 80.1801 -12.828 -0.157918 -0.987427 0.00700964
-16.7352 80.1763 -14.2218 -0.166332 -0.985958 0.0148588
-16.5876 80.1303 -15.3201 -0.163639 -0.986126 0.0278874
-16.3314 80.0537 -16.4325 -0.166959 -0.985491 0.0305337
-16.0168 79.9585 -17.4677 -0.166757 -0.984929 0.0459071
-15.7491 79.8712 -18.3707 -0.167708 -0.984454 0.0517527
-15.4657 79.7601 -19.3315 -0.165358 -0.984063 0.0654003
-14.9819 79.5893 -20.4704 -0.165858 -0.983166 0.0764644
-14.6085 79.4196 -21.4412 -0.166807 -0.979322 0.114472
-14.1283 79.1913 -22.6322 -0.159584 -0.978192 0.132942
-13.596 78.9684 -23.6323 -0.158339 -0.978072 0.135265
-12.9621 78.7081 -24.6208 -0.167315 -0.974153 0.151762
-12.1455 78.4225 -25.6119 -0.161046 -0.975894 0.147287
-11.4071 78.1639 -26.3982 -0.162639 -0.972653 0.165812
-10.5415 77.9051 -27.0705 -0.164126 -0.970726 0.175282
-9.65792 77.6527 -27.6251 -0.160529 -0.969847 0.183377
-8.85599 77.4214 -28.1484 -0.161319 -0.968256 0.190771
-7.93741 77.1832 -28.5568 -0.162075 -0.966654 0.198271
-6.87418 76.9434 -28.8838 -0.146087 -0.967581 0.205997
-5.68357 76.7076 -29.1656 -0.131404 -0.969047 0.208605
-4.6702 76.5066 -29.4394 -0.12317 -0.9668 0.223688
-3.5725 76.3688 -29.5764 -0.0840043 -0.966181 0.2438
-2.63549 76.2802 -29.6098 -0.0825595 -0.966535 0.242889
-1.53954 76.2088 -29.6353 -0.0474681 -0.966756 0.251015
-0.394522 76.2028 -29.6495 0.02425 -0.965594 0.258902
0.754283 76.2511 -29.6305 0.0659839 -0.964359 0.255926
1.81291 76.3275 -29.6537 0.0936862 -0.961723 0.256635
2.91989 76.484 -29.6812 0.168617 -0.957935 0.232225
3.98822 76.6918 -29.7414 0.211302 -0.949471 0.23207
5.12298 76.9744 -29.7316 0.259116 -0.93939 0.224511
6.34424 77.3243 -29.6516 0.263754 -0.945944 0.188742
7.36237 77.6229 -29.5539 0.266948 -0.947944 0.172852
8.30214 77.9317 -29.3843 0.275653 -0.947591 0.161371
9.31011 78.2704 -29.1321 0.286838 -0.946251 0.149445
10.2004 78.587 -28.8106 0.282496 -0.949168 0.138599
11.0384 78.887 -28.4066 0.279528 -0.950687 0.134335
11.861 79.191 -27.9218 0.275916 -0.953367 0.122315
12.9658 79.5893 -27.2228 0.270912 -0.95754 0.0986082
13.7853 79.8844 -26.5887 0.264498 -0.959884 0.0930034
14.1854 80.0305 -26.1985 0.263656 -0.960474 0.0892991
14.6147 80.0681 -27.057 0.266194 -0.959574 0.0913743
13.7119 79.7325 -27.8561 0.271251 -0.95675 0.105124
12.9362 79.4445 -28.4289 0.284631 -0.951053 0.120343
12.1645 79.1539 -28.9065 0.293832 -0.948885 0.114792
11.3597 78.8475 -29.363 0.283009 -0.949658 0.134373
10.4463 78.5185 -29.7615 0.288956 -0.946615 0.142911
9.59791 78.2187 -30.0072 0.289179 -0.945388 0.150365
8.33641 77.7813 -30.2843 0.289946 -0.942314 0.1669
6.78946 77.2603 -30.5316 0.279976 -0.939983 0.193944
5.638 76.9055 -30.6606 0.273867 -0.938788 0.208983
4.68884 76.6181 -30.7223 0.266494 -0.937316 0.224544
3.6188 76.377 -30.6277 0.205259 -0.944841 0.255233
2.46624 76.165 -30.5544 0.164207 -0.943831 0.286738
0.942904 76.0077 -30.5106 0.0789995 -0.948344 0.307249
-0.29764 75.9458 -30.5334 0.00595849 -0.948804 0.31581
-1.36309 75.9684 -30.5291 -0.0338357 -0.959457 0.279818
-2.44505 76.0316 -30.5073 -0.0781632 -0.962878 0.25833
-3.5464 76.1319 -30.4842 -0.0918279 -0.963078 0.252757
-4.64613 76.276 -30.4113 -0.115862 -0.960139 0.254382
-5.64575 76.465 -30.2002 -0.142591 -0.96447 0.222409
-6.72685 76.6926 -29.9044 -0.141996 -0.964624 0.222121
-7.92231 76.9724 -29.557 -0.161607 -0.965258 0.205328
-8.85409 77.2085 -29.1965 -0.166667 -0.967085 0.192273
-9.96474 77.54 -28.5059 -0.170875 -0.967625 0.185667
-10.8377 77.7812 -28.0211 -0.1681 -0.969444 0.178662
-11.5747 78.0059 -27.4632 -0.160169 -0.972006 0.1719
-12.233 78.2225 -26.8824 -0.168161 -0.971292 0.168226
-12.8781 78.4353 -26.2623 -0.157737 -0.974642 0.158718
-13.5384 78.6915 -25.3437 -0.158038 -0.974259 0.160741
-14.2382 78.9457 -24.4849 -0.164116 -0.974652 0.152051
-14.7125 79.1485 -23.6271 -0.16129 -0.977046 0.139085
-15.1787 79.3759 -22.5597 -0.16562 -0.977414 0.131271
-15.672 79.6301 -21.2391 -0.174116 -0.978217 0.113029
-16.0579 79.7854 -20.3739 -0.172481 -0.982053 0.0763032
-16.4729 79.9324 -19.3274 -0.169328 -0.983387 0.0654065
-16.755 80.0379 -18.3201 -0.160308 -0.985603 0.0537422
-17.0025 80.1302 -17.3379 -0.162206 -0.985735 0.0441232
-17.3537 80.2294 -16.3245 -0.167955 -0.985052 0.0382518
-17.5515 80.2985 -15.038 -0.165784 -0.985784 0.0273041
-17.7204 80.3479 -13.9409 -0.167855 -0.985686 0.0157261
-17.7067 80.359 -12.8592 -0.171706 -0.98514 0.0039991
-17.296 80.2843 -11.8478 -0.142055 -0.989608 -0.0108132
-16.8648 80.2217 -10.7576 -0.168999 -0.985607 0.00421121
-16.3679 80.1242 -9.91726 -0.181956 -0.983196 -0.01473
-15.9255 80.0181 -9.12477 -0.185346 -0.981664 -0.0445201
-15.4845 79.887 -8.13339 -0.182886 -0.981417 -0.0579572
-14.9649 79.7181 -6.99277 -0.180729 -0.981186 -0.0674641
-14.5866 79.579 -6.17531 -0.181924 -0.979649 -0.0848064
-14.0338 79.3914 -5.24807 -0.190019 -0.977284 -0.0938528
-13.3079 79.1657 -4.3965 -0.194801 -0.974574 -0.110236
-12.7591 78.9716 -3.61853 -0.171958 -0.978129 -0.117021
-12.1476 78.7832 -2.94459 -0.172069 -0.976515 -0.129113
-11.2603 78.5144 -2.15274 -0.168814 -0.975671 -0.139887
-10.4822 78.2884 -1.53227 -0.167339 -0.975323 -0.144025
-9.34282 77.9588 -0.716972 -0.16288 -0.972416 -0.166493
-8.59679 77.7511 -0.176911 -0.152125 -0.973594 -0.170172
-7.88661 77.5307 0.438915 -0.145061 -0.974103 -0.173437
-7.07799 77.2884 1.09281 -0.150467 -0.972082 -0.180044
-6.21362 77.0289 1.68578 -0.132489 -0.968848 -0.209236
-5.26232 76.6889 2.64433 -0.108778 -0.966694 -0.231669
-4.57212 76.4687 3.29032 -0.0850755 -0.972924 -0.214897
-3.66706 76.2169 4.0079 -0.0747693 -0.968947 -0.235355
-2.80693 76.04 4.51472 -0.0646509 -0.9686 -0.239948
-1.67445 75.8642 4.95451 -0.0419696 -0.967731 -0.248466
-0.628825 75.7736 5.16257 -0.027003 -0.969176 -0.244884
0.416528 75.7308 5.23493 -0.0189863 -0.970418 -0.240681
1.53572 75.7392 5.16438 0.0188182 -0.97006 -0.242135
2.50607 75.8036 4.97905 0.0263999 -0.968788 -0.246261
3.51896 75.8614 4.88411 0.0310621 -0.970992 -0.237086
4.38977 75.9643 4.66784 0.0694536 -0.968144 -0.240447
5.4826 76.1583 4.24562 0.0814816 -0.966499 -0.243392
6.51445 76.421 3.60936 0.0979945 -0.966246 -0.238255
7.47757 76.7156 2.88141 0.114691 -0.96276 -0.244823
8.29174 76.9919 2.29134 0.148159 -0.96165 -0.230819
9.25479 77.2943 1.75128 0.183882 -0.95435 -0.235378
10.3965 77.6661 1.15691 0.203104 -0.956987 -0.207181
11.429 78.0364 0.507839 0.219503 -0.95608 -0.193556
12.1142 78.2892 -0.0179961 0.217303 -0.95981 -0.177606
13.0401 78.6322 -0.754239 0.216988 -0.960998 -0.171461
14.0084 79.0604 -1.86638 0.229238 -0.958737 -0.168023
14.7934 79.419 -2.85893 0.239368 -0.958145 -0.156789
15.3518 79.7141 -3.88272 0.235268 -0.962326 -0.136137
16.0809 80.0428 -4.97238 0.239061 -0.962996 -0.124004
16.9178 80.3841 -6.11455 0.238617 -0.965288 -0.105846
17.8421 80.7038 -7.05769 0.233751 -0.967658 -0.09486
18.5606 80.9682 -7.9889 0.232935 -0.967956 -0.0938267
19.2333 81.2385 -9.06503 0.239407 -0.967398 -0.0826096
19.5932 81.4156 -10.1038 0.240158 -0.967423 -0.0801018
19.7838 81.5477 -11.2768 0.245825 -0.96647 -0.0732471
19.9016 81.6457 -12.2572 0.243332 -0.967739 -0.0653485
19.967 81.7294 -13.3282 0.245633 -0.967862 -0.0539148
20.0379 81.8 -14.424 0.246223 -0.96827 -0.0427373
20.0217 81.831 -15.3047 0.245685 -0.968652 -0.0367703
19.8578 81.826 -16.565 0.251387 -0.967703 -0.0188435
19.6733 81.7909 -17.5828 0.249094 -0.968435 -0.00700799
19.2654 81.6888 -19.2334 0.245306 -0.969398 0.00965775
18.958 81.6031 -20.1326 0.244078 -0.969698 0.0104386
18.5116 81.4708 -21.3226 0.251413 -0.967719 0.0176166
18.1264 81.3443 -22.1748 0.259122 -0.965177 0.0359102
17.6544 81.1769 -23.1004 0.253981 -0.965706 0.0536594
17.0748 80.9634 -24.1959 0.250862 -0.965671 0.0674093
16.5639 80.778 -24.9069 0.25753 -0.963399 0.0744293
15.8946 80.5399 -25.6583 0.256145 -0.96349 0.0779253
15.3421 80.3321 -26.3684 0.263539 -0.960505 0.0893183
15.1157 80.2492 -26.592 0.263538 -0.960504 0.0893258
14.9837 80.2 -26.7311 0.263463 -0.960471 0.0899026
