1.77234 51.6954 -42.9831 -0.0190286 -0.504986 0.862917
2.43239 51.3459 -43.1731 -0.0403094 -0.477052 0.877133
2.03389 50.625 -43.5638 -0.0615902 -0.449117 0.891348
1.74162 51.2201 -43.2619 -0.0190286 -0.504986 0.862917
1.13016 51.3134 -43.2405 -0.175427 -0.522123 0.834633
1.3671 52.2623 -42.6622 -0.0448521 -0.475274 0.877801
2.09285 52.8882 -42.2873 -0.0652207 -0.432479 0.899049
3.0248 52.0453 -42.7422 -0.0375892 -0.5077 0.860714
3.17013 51.2588 -43.2253 0.037647 -0.479459 0.875968
2.76326 50.1018 -43.7869 0.0713818 -0.480575 0.873372
1.96957 49.9409 -43.927 -0.0732786 -0.468916 0.880198
1.27047 50.6695 -43.6087 -0.166874 -0.482172 0.859995
1.24047 50.7732 -43.5553 -0.168526 -0.505263 0.846077
0.574097 50.9344 -43.5891 -0.16162 -0.488403 0.857521
0.62352 52.2012 -42.7989 -0.176614 -0.491024 0.852635
1.19648 53.2106 -42.1972 -0.065225 -0.432478 0.899049
2.5206 53.5977 -41.9468 -0.0427193 -0.410849 0.910702
3.23912 53.0557 -42.1824 -0.0162608 -0.442529 0.896607
3.68573 52.1473 -42.6927 0.0217817 -0.533792 0.845335
3.85381 51.1348 -43.3105 0.0156343 -0.506132 0.862314
3.65086 50.2009 -43.8142 0.0831113 -0.508366 0.857121
3.04474 49.5339 -44.1628 0.0583796 -0.533947 0.8435
2.22011 49.2212 -44.3422 -0.0478701 -0.519682 0.853018
1.36494 49.4856 -44.2619 -0.157698 -0.545346 0.822488
0.750982 50.3444 -43.8918 -0.166872 -0.482168 0.859997
0.724628 50.4199 -43.8538 -0.161619 -0.488404 0.85752
0.212448 50.0624 -44.1577 -0.223464 -0.506214 0.832809
0.955714 49.0519 -44.628 -0.157698 -0.545346 0.822488
2.40268 48.5927 -44.7147 -0.102206 -0.469193 0.877041
3.40526 48.9944 -44.5293 0.0398631 -0.497196 0.865466
4.01167 49.5928 -44.2099 0.107512 -0.510409 0.852822
4.44553 50.4489 -43.7603 0.133527 -0.510695 0.849326
4.51021 51.2972 -43.2556 0.13874 -0.516617 0.844901
4.31135 52.3308 -42.6346 0.0792824 -0.473879 0.877014
3.92273 53.2227 -42.1464 0.0574639 -0.438979 0.896609
3.07232 54.0607 -41.7041 -0.0128034 -0.417735 0.907642
1.6645 54.3127 -41.6644 -0.0467355 -0.418268 0.907074
0.568599 53.538 -42.0879 -0.0932232 -0.426967 0.898668
0.0144804 52.432 -42.7922 -0.176619 -0.491023 0.852635
-0.0930919 51.6181 -43.313 -0.180978 -0.512081 0.839645
0.00217324 50.694 -43.842 -0.219788 -0.493798 0.841343
0.0259558 50.5931 -43.8949 -0.219787 -0.493799 0.841342
-0.566696 50.3266 -44.2062 -0.223466 -0.506213 0.832809
-0.172607 49.5185 -44.6105 -0.213769 -0.532313 0.819113
0.526801 48.677 -44.9401 -0.18781 -0.466444 0.864279
1.5731 48.0599 -45.1008 -0.113707 -0.460837 0.88017
2.50981 48.0257 -45.0134 -0.0363417 -0.471099 0.879611
3.54148 48.3122 -44.8865 0.0213426 -0.460446 0.887431
4.29614 48.9626 -44.5926 0.0944819 -0.447427 0.889103
5.09172 50.0179 -44.121 0.133533 -0.510696 0.849324
5.24298 50.8236 -43.6627 0.135148 -0.508944 0.850124
5.0984 52.0009 -42.926 0.142013 -0.510506 0.848066
4.74916 53.0024 -42.3149 0.0921809 -0.479692 0.871719
4.37388 53.7711 -41.8989 0.0525697 -0.446292 0.893342
3.77865 54.3999 -41.5711 0.0251414 -0.409785 0.911835
2.55956 54.9782 -41.2996 -0.0386177 -0.41683 0.908012
1.64744 55.0746 -41.3047 -0.055226 -0.426822 0.902634
0.755659 54.618 -41.5825 -0.0619726 -0.42261 0.904142
-0.088691 53.934 -41.9864 -0.127343 -0.43931 0.889264
-0.434028 53.1909 -42.4559 -0.129002 -0.477538 0.868671
-0.707085 52.2045 -43.0853 -0.158019 -0.52939 0.833095
-0.76373 51.4309 -43.5711 -0.184312 -0.535071 0.824457
-0.699957 50.9304 -43.8816 -0.184311 -0.535069 0.824458
-0.690227 50.8563 -43.9276 -0.202049 -0.514433 0.8329
