-1.82895 92.4475 6.42003 0.0792165 -0.989373 -0.121152
-0.635176 92.5476 6.15559 0.0511713 -0.989708 -0.133641
0.691409 92.604 5.9958 0.0153085 -0.991442 -0.129648
1.85023 92.6138 6.0024 0.0134666 -0.993804 -0.110326
3.1255 92.5644 6.21759 -0.0656011 -0.988698 -0.134809
4.34534 92.4252 6.56406 -0.082518 -0.987716 -0.132695
5.39553 92.2724 6.93949 -0.129267 -0.98418 -0.121159
6.40206 92.0922 7.31197 -0.1458 -0.981259 -0.125419
7.61449 91.8506 7.68897 -0.16735 -0.976255 -0.136408
9.15224 91.5466 7.76386 -0.179055 -0.966784 -0.182395
10.5324 91.3597 7.39899 -0.160001 -0.966032 -0.202508
11.4368 91.323 6.91544 -0.139788 -0.966919 -0.212944
12.6746 91.3872 5.9571 -0.116944 -0.967173 -0.225612
13.331 91.468 5.27383 -0.094989 -0.968662 -0.228464
13.9694 91.6037 4.49339 -0.0745649 -0.97078 -0.228092
14.528 91.7461 3.70657 -0.0774632 -0.970439 -0.228497
15.0416 91.8832 2.96851 -0.0710866 -0.970153 -0.231834
15.5768 92.0278 2.20655 -0.0595644 -0.96958 -0.237139
16.0785 92.1726 1.47162 -0.0554518 -0.972897 -0.224492
16.5805 92.3116 0.72888 -0.0599677 -0.976312 -0.207863
17.4125 92.5226 -0.509379 -0.0524012 -0.978515 -0.199347
17.9864 92.6987 -1.56087 -0.0572591 -0.980442 -0.188202
18.4323 92.9149 -2.87783 -0.0607366 -0.982323 -0.177058
18.704 93.0656 -3.81509 -0.0598375 -0.983709 -0.169374
19.047 93.2956 -5.34993 -0.0603415 -0.985818 -0.156567
19.2462 93.5017 -6.81307 -0.0681277 -0.988052 -0.138245
19.3161 93.6336 -7.73168 -0.0851587 -0.987336 -0.133846
19.3016 93.7683 -8.71705 -0.0868796 -0.988586 -0.122636
19.2793 93.9073 -9.93668 -0.0844319 -0.990175 -0.111469
19.2733 94.0282 -11.1167 -0.0897998 -0.991434 -0.094825
19.16 94.1339 -12.1437 -0.0895919 -0.991672 -0.0925227
19.0038 94.2497 -13.2438 -0.0913447 -0.991737 -0.0900722
18.8607 94.3278 -14.1782 -0.0980421 -0.994273 -0.0425391
18.7078 94.38 -15.0904 -0.0993724 -0.994451 -0.0341877
18.4494 94.4442 -16.5563 -0.093024 -0.995183 -0.0290233
18.0806 94.5126 -17.9115 -0.0790165 -0.996719 -0.0175584
17.7161 94.5505 -19.0639 -0.0831704 -0.996526 0.00182432
17.3051 94.569 -20.3373 -0.0721195 -0.996742 0.0339788
16.885 94.555 -21.2405 -0.0603 -0.996103 0.0643668
16.2633 94.5228 -22.2856 -0.0577226 -0.99531 0.0774156
15.6318 94.4823 -23.1972 -0.0535388 -0.995253 0.0812675
15.0414 94.4457 -24.0217 -0.0477825 -0.995804 0.0780481
14.3574 94.4037 -24.8707 -0.0335948 -0.995152 0.0924282
13.3016 94.3211 -25.8376 -0.0133459 -0.992155 0.1243
12.461 94.2609 -26.3902 -0.0121708 -0.993754 0.110924
11.2087 94.1866 -27.195 -0.00791389 -0.993759 0.111187
10.3282 94.1343 -27.6259 0.00163593 -0.992487 0.122343
9.03567 94.0619 -28.1492 0.00785035 -0.991435 0.130364
7.67602 93.9987 -28.5095 0.0143629 -0.990855 0.134165
6.61855 93.9543 -28.677 0.0243477 -0.991177 0.13029
5.67426 93.9218 -28.7385 0.0282427 -0.989912 0.138837
4.65944 93.8777 -28.8123 0.0341505 -0.990402 0.133931
3.52903 93.8336 -28.8927 0.0285284 -0.990791 0.132364
2.45979 93.7877 -28.9763 0.0313599 -0.990314 0.135237
1.37517 93.7438 -28.9812 0.0436791 -0.988854 0.142328
0.376022 93.7157 -28.8931 0.0391738 -0.989742 0.137394
-0.703047 93.6991 -28.7215 0.0387058 -0.98913 0.141793
-1.78182 93.6859 -28.509 0.0388146 -0.988592 0.145531
-2.80065 93.6804 -28.2536 0.0418866 -0.99061 0.13014
-3.70207 93.6792 -27.9723 0.0419603 -0.990601 0.13019
-4.62388 93.6739 -27.7245 0.0410425 -0.990535 0.130983
-5.56469 93.6539 -27.5544 0.0468608 -0.991128 0.124375
-6.4782 93.633 -27.4035 0.0422354 -0.990868 0.128029
-7.63144 93.6091 -27.1939 0.0439959 -0.990617 0.129391
-8.60767 93.594 -26.9574 0.0487548 -0.990817 0.126115
-9.84479 93.5895 -26.4991 0.0506207 -0.990528 0.12763
-10.8468 93.6074 -25.9775 0.0508384 -0.990291 0.129373
-11.8763 93.6361 -25.2401 0.0535266 -0.993064 0.104683
-12.7777 93.6696 -24.455 0.0536869 -0.992842 0.106685
-13.5496 93.688 -23.8944 0.0606176 -0.993077 0.100194
-14.3298 93.6921 -23.2055 0.0867333 -0.989845 0.1118
-15.0749 93.7099 -22.4356 0.0776579 -0.993521 0.0829188
-15.7168 93.7269 -21.4567 0.111672 -0.991576 0.0648149
-16.1387 93.7326 -20.5075 0.100102 -0.993379 0.0561626
-16.408 93.751 -19.6324 0.119473 -0.991935 0.0307311
-16.6861 93.7191 -18.4882 0.136314 -0.990664 0.00157052
-16.9054 93.6746 -17.3311 0.1396 -0.989807 -0.0251422
-16.9448 93.6483 -16.2694 0.115364 -0.992658 -0.0332572
-16.9665 93.5776 -15.0851 0.126811 -0.990007 -0.06168
-16.9535 93.5076 -13.9002 0.142795 -0.987305 -0.0695515
-16.866 93.4138 -12.3975 0.141843 -0.987337 -0.0710262
-16.6927 93.3305 -10.9195 0.140996 -0.987355 -0.0724597
-16.5109 93.2303 -9.44127 0.121323 -0.989208 -0.0819961
-16.3716 93.1503 -8.37271 0.116717 -0.988717 -0.0938912
-16.2394 93.079 -7.40296 0.103611 -0.990665 -0.0884434
-16.1733 92.9865 -6.37636 0.0956891 -0.990605 -0.0976963
-16.0946 92.8827 -5.26209 0.0959454 -0.990383 -0.0996766
-15.9378 92.7982 -4.32634 0.0872559 -0.989456 -0.115441
-15.6235 92.7078 -3.28886 0.0829407 -0.990308 -0.111402
-15.1287 92.581 -2.05758 0.0772371 -0.987918 -0.134294
-14.6509 92.4396 -0.839014 0.0624204 -0.98825 -0.139516
-14.2146 92.2309 0.497156 0.0489429 -0.982179 -0.181348
-13.738 92.0551 1.54229 0.0496538 -0.980972 -0.187693
-13.1701 91.8874 2.5235 0.0638711 -0.976357 -0.206512
-12.5365 91.7183 3.51301 0.0749847 -0.976011 -0.204025
-11.9368 91.6128 4.28983 0.0863934 -0.976131 -0.199259
-11.1946 91.5066 5.09819 0.0958415 -0.972478 -0.211916
-10.4969 91.4407 5.76571 0.109595 -0.971445 -0.210437
-9.78158 91.402 6.31614 0.121446 -0.972061 -0.200051
-8.7655 91.4513 6.82844 0.138601 -0.973761 -0.180497
-7.51693 91.5724 7.24097 0.151321 -0.973695 -0.170231
-6.30083 91.7318 7.45671 0.157724 -0.975291 -0.154697
-5.15167 91.9272 7.4291 0.153214 -0.978438 -0.138506
-4.10411 92.109 7.18276 0.126263 -0.983795 -0.127297
-2.85704 92.3098 6.72937 0.0955539 -0.987626 -0.124356
-2.02878 92.4225 6.47083 0.0942248 -0.987959 -0.122695
-1.95514 92.3038 7.44604 0.083256 -0.987954 -0.12999
-0.580852 92.434 7.09195 0.0525048 -0.99191 -0.11558
0.333851 92.484 6.94384 0.0179851 -0.993668 -0.110907
1.74064 92.5046 6.92945 0.0109365 -0.993166 -0.116171
3.08361 92.4403 7.16252 -0.0680192 -0.988978 -0.131517
4.34374 92.2986 7.55058 -0.0906588 -0.98964 -0.111323
5.1964 92.184 7.87043 -0.131811 -0.983373 -0.124833
6.64468 91.9162 8.41078 -0.164465 -0.978034 -0.124477
7.55564 91.7083 8.67777 -0.177929 -0.97268 -0.149108
8.4797 91.4974 8.76816 -0.217991 -0.954985 -0.201205
9.64049 91.276 8.66303 -0.190588 -0.962473 -0.19319
10.9171 91.1112 8.28697 -0.159242 -0.966701 -0.199854
11.9627 91.0764 7.69869 -0.153927 -0.965235 -0.211224
12.8125 91.1044 7.09323 -0.119029 -0.966346 -0.228053
13.6864 91.1985 6.28238 -0.0800845 -0.967574 -0.239548
14.5539 91.3624 5.32898 -0.0739584 -0.970541 -0.229301
15.1318 91.5101 4.54873 -0.0554945 -0.971458 -0.23063
15.6464 91.6477 3.79868 -0.0621622 -0.974787 -0.214303
16.3954 91.8535 2.74261 -0.0486772 -0.969365 -0.240751
17.0606 92.0551 1.75342 -0.0510483 -0.973861 -0.221326
17.6214 92.2178 0.895658 -0.052452 -0.976995 -0.206711
18.174 92.362 0.0740409 -0.0513097 -0.977375 -0.205184
18.8298 92.5656 -1.12461 -0.0553721 -0.979245 -0.194969
19.1633 92.7223 -2.05611 -0.0522316 -0.981765 -0.182781
19.5538 92.9347 -3.35375 -0.0503314 -0.983887 -0.171561
19.877 93.1239 -4.57846 -0.0466931 -0.986904 -0.154403
20.0502 93.2817 -5.63962 -0.0537437 -0.987184 -0.150037
20.1757 93.3976 -6.52556 -0.0676172 -0.988082 -0.138283
20.2859 93.5741 -7.91815 -0.080281 -0.98861 -0.126981
20.2804 93.7207 -9.056 -0.0869449 -0.989871 -0.112236
20.2302 93.8461 -10.1407 -0.0908632 -0.990234 -0.105702
20.2485 93.9609 -11.28 -0.0835434 -0.991957 -0.0950073
20.0764 94.0735 -12.4438 -0.100673 -0.9921 -0.0748423
19.9007 94.1933 -13.7474 -0.114661 -0.991279 -0.0622918
19.7138 94.2695 -14.9238 -0.108483 -0.993294 -0.0388842
19.5652 94.3144 -15.8886 -0.102696 -0.994044 -0.0358054
19.3528 94.3782 -16.9737 -0.0972457 -0.994544 -0.0377652
19.1044 94.4258 -17.9352 -0.103887 -0.994462 -0.00428898
18.7583 94.4595 -18.9872 -0.0879004 -0.996127 -0.000750434
18.338 94.4764 -20.3994 -0.102738 -0.993903 0.0390046
17.7792 94.4709 -21.692 -0.0872609 -0.995063 0.0460195
17.1865 94.4384 -22.6465 -0.0621535 -0.995344 0.0736665
16.6124 94.4081 -23.4627 -0.053205 -0.995443 0.0791076
16.0778 94.3755 -24.2525 -0.051844 -0.9956 0.0780343
15.3153 94.3221 -25.2476 -0.058415 -0.991859 0.113064
14.6755 94.2838 -25.952 -0.0483729 -0.993125 0.105683
13.7119 94.2016 -26.7121 -0.0160648 -0.990647 0.135503
12.6856 94.123 -27.4572 -0.0118823 -0.991753 0.127615
11.7437 94.0659 -28.0188 -0.0189935 -0.98987 0.140699
10.4322 93.9954 -28.6262 -0.00585861 -0.990272 0.139017
9.05164 93.9248 -29.1929 0.000794247 -0.990883 0.134475
8.11592 93.8781 -29.4407 0.0149071 -0.990039 0.140003
6.90306 93.8305 -29.6092 0.0251309 -0.988526 0.148928
5.93431 93.7963 -29.686 0.0254775 -0.989195 0.144251
4.75598 93.7517 -29.7535 0.032158 -0.98769 0.153051
3.57232 93.7019 -29.8386 0.0349097 -0.986689 0.158737
2.42339 93.64 -29.9346 0.0395462 -0.98625 0.160457
1.45636 93.6076 -29.9442 0.0375526 -0.98771 0.151375
0.363163 93.5732 -29.8688 0.0428759 -0.987818 0.149589
-0.579129 93.5558 -29.7169 0.0404275 -0.987802 0.150378
-1.60845 93.543 -29.5248 0.0387954 -0.988083 0.148939
-2.6581 93.5385 -29.2833 0.0376324 -0.988804 0.144394
-3.66111 93.5424 -28.9768 0.0386564 -0.989129 0.14185
-4.62127 93.5442 -28.7042 0.040114 -0.989967 0.135413
-5.6045 93.526 -28.5204 0.0430657 -0.990758 0.128599
-6.59776 93.5047 -28.3536 0.0450913 -0.99099 0.126117
-7.54676 93.4847 -28.1753 0.0440366 -0.990618 0.129373
-9.13343 93.4581 -27.8216 0.0485209 -0.990808 0.126209
-9.98194 93.4539 -27.5052 0.0521171 -0.990536 0.126975
-11.1146 93.467 -26.9403 0.0526699 -0.989992 0.130928
-12.059 93.4934 -26.3408 0.0612336 -0.989213 0.133075
-12.9181 93.5305 -25.6537 0.0639151 -0.98935 0.130775
-13.8209 93.5548 -24.8918 0.0972594 -0.988145 0.118786
-14.6482 93.5532 -24.2151 0.0992504 -0.988264 0.116115
-15.3753 93.5687 -23.5258 0.0968993 -0.98626 0.133797
-16.186 93.5882 -22.5174 0.134292 -0.986586 0.0928115
-16.681 93.5997 -21.641 0.15774 -0.984011 0.0827035
-17.1671 93.6223 -20.4523 0.155107 -0.984243 0.0848441
-17.4827 93.6017 -19.4375 0.137796 -0.990414 0.00959858
-17.743 93.5743 -18.0843 0.132363 -0.991139 -0.000662875
-17.8816 93.5463 -17.0027 0.133669 -0.990594 -0.0260594
-17.9096 93.4776 -15.5566 0.143594 -0.987982 -0.0572038
-17.9176 93.4044 -14.4836 0.158734 -0.985062 -0.0667553
-17.8825 93.3442 -13.5164 0.162854 -0.983976 -0.0725666
-17.8185 93.2755 -12.4612 0.163745 -0.983735 -0.0738478
-17.6787 93.2118 -11.2515 0.147996 -0.986248 -0.0735741
-17.5535 93.1566 -10.1762 0.13361 -0.98862 -0.0678229
-17.4165 93.0814 -9.01401 0.12181 -0.99005 -0.0697324
-17.2996 93.0206 -8.03739 0.107323 -0.990777 -0.0827161
-17.1639 92.9153 -6.68362 0.0970572 -0.991229 -0.0894291
-17.0847 92.8181 -5.51918 0.088385 -0.991553 -0.0948936
-16.9983 92.7372 -4.60993 0.0869049 -0.991424 -0.0975982
-16.6811 92.6315 -3.3734 0.0770964 -0.990739 -0.111767
-16.2703 92.5428 -2.36873 0.0667167 -0.989637 -0.127152
-15.8043 92.4244 -1.24175 0.0610352 -0.988304 -0.139753
-15.472 92.2943 -0.262771 0.055177 -0.984466 -0.16668
-15.1503 92.1363 0.754512 0.0514026 -0.982192 -0.180521
-14.6899 91.9484 1.83475 0.0440886 -0.979527 -0.196427
-14.1739 91.7867 2.75044 0.0466643 -0.977253 -0.206875
-13.6251 91.634 3.60636 0.0492998 -0.978274 -0.201368
-13.0592 91.4894 4.43803 0.0544543 -0.977295 -0.204683
-12.2245 91.3532 5.40146 0.0849728 -0.974074 -0.209611
-11.3091 91.2215 6.35454 0.0958435 -0.972476 -0.211924
-10.4504 91.1929 7.02828 0.111288 -0.977076 -0.181484
-9.54758 91.2067 7.58188 0.126227 -0.976709 -0.173509
-8.1438 91.326 8.07434 0.159746 -0.973184 -0.165513
-7.26952 91.4299 8.31481 0.166515 -0.972149 -0.164919
-6.35372 91.5651 8.45292 0.172418 -0.972007 -0.159598
-5.46164 91.7272 8.43954 0.169063 -0.972132 -0.162313
-4.22102 91.9551 8.24359 0.154025 -0.975991 -0.153984
-3.32981 92.117 7.91671 0.109605 -0.986279 -0.1214
-1.98853 92.2993 7.45606 0.0939694 -0.987283 -0.128227
-1.45051 92.2318 8.27345 0.0754479 -0.989698 -0.121679
-2.63118 92.0861 8.67687 0.0875253 -0.988896 -0.120097
-3.83271 91.883 9.09739 0.156455 -0.975683 -0.153509
-5.1354 91.6226 9.38379 0.163958 -0.972655 -0.164499
-6.03492 91.4599 9.43817 0.172414 -0.972006 -0.159607
-7.45893 91.2307 9.28811 0.170446 -0.970614 -0.16979
-8.60855 91.0967 8.94363 0.163992 -0.971468 -0.171339
-9.56811 90.9896 8.65984 0.144052 -0.971852 -0.185302
-10.737 90.9726 8.02973 0.111115 -0.976157 -0.186362
-11.7042 91.0017 7.26288 0.101126 -0.976159 -0.191336
-12.4774 91.0814 6.54988 0.0732796 -0.974586 -0.211537
-13.1275 91.1858 5.86942 0.062972 -0.974867 -0.213701
-13.7607 91.313 5.09355 0.0544543 -0.977295 -0.204683
-14.5335 91.5132 3.97043 0.0498599 -0.977463 -0.205098
-15.2447 91.7258 2.86021 0.0270091 -0.978277 -0.205535
-15.8306 91.9304 1.67704 0.0286288 -0.982052 -0.186306
-16.1446 92.0678 0.823921 0.0368214 -0.984909 -0.169108
-16.4103 92.2066 -0.0565096 0.0499233 -0.987299 -0.150823
-16.7951 92.3557 -1.1675 0.0564991 -0.988935 -0.136331
-17.1586 92.4376 -2.01453 0.065042 -0.990011 -0.125062
-17.534 92.5135 -2.89428 0.0704926 -0.991448 -0.109827
-17.8268 92.5915 -3.84945 0.0822212 -0.99194 -0.0963976
-17.9921 92.6761 -4.8669 0.0863815 -0.992102 -0.0909518
-18.0585 92.7648 -5.89344 0.0908245 -0.991819 -0.0896091
-18.1309 92.8464 -6.94778 0.0965717 -0.991861 -0.0829802
-18.2457 92.9029 -7.85526 0.103528 -0.991506 -0.0785208
-18.3701 92.9605 -8.88798 0.117695 -0.991194 -0.0606754
-18.5138 93.0225 -10.2322 0.141278 -0.988335 -0.0568641
-18.6689 93.085 -11.6771 0.157692 -0.985699 -0.0594247
-18.8125 93.1502 -12.9894 0.162934 -0.983811 -0.0746274
-18.8552 93.2161 -13.9747 0.162767 -0.984142 -0.0705136
-18.8592 93.3182 -15.4261 0.167236 -0.983541 -0.068399
-18.8528 93.3803 -16.3575 0.161552 -0.985859 -0.0419771
-18.8289 93.4125 -17.2683 0.153561 -0.987889 -0.0181979
-18.6647 93.4394 -18.637 0.141938 -0.989859 0.00562239
-18.3797 93.472 -19.9417 0.139873 -0.990134 0.00797024
-18.0672 93.4517 -20.8077 0.152447 -0.984521 0.086482
-17.4559 93.4265 -22.2284 0.157712 -0.984058 0.0822006
-16.986 93.4293 -23.0491 0.133028 -0.985544 0.104275
-16.1957 93.4196 -24.0308 0.114336 -0.985379 0.124776
-15.5566 93.4077 -24.6657 0.102149 -0.988018 0.115696
-14.5793 93.3999 -25.5098 0.0987479 -0.985348 0.139061
-13.8623 93.392 -26.075 0.0987883 -0.98535 0.139019
-13.0834 93.3749 -26.7501 0.0813517 -0.98735 0.134897
-11.7948 93.3365 -27.6535 0.0571162 -0.989806 0.13039
-10.936 93.3242 -28.1153 0.0548515 -0.990365 0.127152
-9.76607 93.3184 -28.6539 0.0526164 -0.9906 0.126267
-8.65372 93.3319 -28.9817 0.0465499 -0.991327 0.122835
-7.72205 93.3585 -29.1403 0.0443486 -0.991758 0.120123
-6.52505 93.3838 -29.33 0.0425559 -0.991434 0.123427
-5.49133 93.4036 -29.4786 0.0381591 -0.990083 0.135201
-4.28547 93.4069 -29.771 0.0376921 -0.989452 0.139866
-3.06817 93.3937 -30.1625 0.0351359 -0.988587 0.146496
-1.93734 93.3962 -30.4253 0.0370673 -0.988364 0.147522
-0.972526 93.4042 -30.6147 0.036155 -0.987375 0.154075
-0.0194026 93.4128 -30.7858 0.0403393 -0.985541 0.164567
1.19478 93.4401 -30.8958 0.0331293 -0.985046 0.169078
2.32556 93.4786 -30.897 0.0360191 -0.985217 0.167457
3.80206 93.5626 -30.7546 0.0349143 -0.98669 0.158728
5.18768 93.6238 -30.6693 0.032158 -0.98769 0.153051
6.49178 93.6728 -30.5874 0.0251625 -0.988162 0.151313
7.91248 93.7317 -30.4544 0.0210928 -0.989311 0.144092
9.08592 93.7867 -30.2016 0.0167873 -0.990219 0.13851
10.2315 93.8406 -29.7796 -0.005481 -0.991691 0.128523
11.0664 93.8855 -29.3864 -0.0155421 -0.990673 0.135335
11.9569 93.9261 -29.0002 -0.0135215 -0.990744 0.135068
12.9417 93.9866 -28.4599 -0.0127809 -0.990687 0.135555
13.95 94.0606 -27.7413 -0.0400573 -0.986385 0.159497
14.8663 94.1184 -27.0606 -0.0623014 -0.988071 0.140837
15.6433 94.1704 -26.3463 -0.0633358 -0.988148 0.139827
16.3695 94.2274 -25.5004 -0.102542 -0.986157 0.130309
16.9457 94.2731 -24.755 -0.0880394 -0.988652 0.119643
17.6884 94.3095 -23.6094 -0.106117 -0.988464 0.106374
18.3867 94.3482 -22.6452 -0.0805433 -0.993696 0.077965
18.8744 94.3683 -21.6901 -0.0930139 -0.994925 0.0383878
19.2127 94.3659 -20.8567 -0.128829 -0.991122 0.0328703
19.515 94.3579 -19.9032 -0.128675 -0.991154 0.0324923
19.8536 94.3408 -18.797 -0.11983 -0.992781 -0.0051541
20.2367 94.2877 -17.4074 -0.118532 -0.992939 -0.00470961
20.5315 94.2208 -15.9603 -0.139277 -0.989768 -0.0309873
20.6771 94.1669 -15.0254 -0.120271 -0.99138 -0.0509577
20.8047 94.1007 -14.1182 -0.129846 -0.990061 -0.054032
20.9409 94.0283 -13.1162 -0.12985 -0.990077 -0.0537319
21.1264 93.927 -11.9376 -0.104638 -0.991456 -0.0778871
21.2016 93.8269 -10.8391 -0.106159 -0.990428 -0.0882169
21.2186 93.6933 -9.57691 -0.0912078 -0.989917 -0.108377
21.2451 93.5845 -8.60334 -0.0903009 -0.989931 -0.108131
21.1949 93.4199 -7.21045 -0.0784501 -0.989609 -0.120404
21.0709 93.2822 -6.10924 -0.0622841 -0.989173 -0.13288
20.9558 93.1637 -5.21761 -0.0607882 -0.987463 -0.145674
20.7526 93.0031 -4.10034 -0.050185 -0.983956 -0.171206
20.3526 92.7946 -2.78455 -0.0497604 -0.98399 -0.171133
19.9105 92.5353 -1.25255 -0.0483115 -0.982427 -0.180288
19.4432 92.359 -0.223123 -0.0465374 -0.980832 -0.189213
18.9292 92.2045 0.649743 -0.0438442 -0.977335 -0.207107
18.4283 92.0675 1.40989 -0.0262655 -0.979917 -0.197656
17.9239 91.9219 2.20681 -0.0284939 -0.979987 -0.19701
17.4233 91.7568 2.97803 -0.0290448 -0.972858 -0.229416
16.874 91.6011 3.74308 -0.0381404 -0.97438 -0.22165
16.3227 91.4466 4.51716 -0.0501524 -0.974584 -0.217974
15.5214 91.2443 5.64547 -0.0418297 -0.978543 -0.201753
14.8671 91.0735 6.39511 -0.0479647 -0.96808 -0.243985
14.2002 90.956 7.09528 -0.0808114 -0.96799 -0.237624
13.2513 90.8446 7.93984 -0.116644 -0.963676 -0.240255
12.2839 90.8242 8.60833 -0.157267 -0.964561 -0.211871
10.9534 90.9022 9.31666 -0.17915 -0.960652 -0.212256
10.0029 91.0207 9.57761 -0.192262 -0.962448 -0.191636
8.38076 91.3189 9.72258 -0.205966 -0.958705 -0.195634
7.06825 91.6489 9.60541 -0.204836 -0.958777 -0.196073
5.95943 91.9342 9.17499 -0.164465 -0.978034 -0.124477
4.68001 92.1363 8.68166 -0.0953902 -0.988246 -0.119459
3.16882 92.3176 8.14669 -0.0604643 -0.991563 -0.114657
2.16076 92.3934 7.91362 -0.00238537 -0.991328 -0.130573
0.734323 92.3914 7.82487 0.0170552 -0.992031 -0.124528
-0.656717 92.3148 8.06045 0.0390659 -0.991261 -0.125861
-1.32918 92.2456 8.23643 0.075442 -0.989698 -0.121681
-1.02654 92.1605 9.11618 0.0594901 -0.990157 -0.125618
-0.0224099 92.2355 8.88032 0.0402064 -0.98981 -0.136385
1.10472 92.2811 8.75398 0.0170484 -0.992032 -0.124526
2.24296 92.2587 8.85964 -0.0137111 -0.990088 -0.139781
3.15237 92.1912 9.10117 -0.0448494 -0.991112 -0.124874
4.06309 92.1129 9.45613 -0.0711054 -0.990727 -0.111301
4.91251 91.9879 9.80153 -0.10773 -0.986872 -0.119416
5.80631 91.8081 10.163 -0.229136 -0.962365 -0.146116
6.84054 91.4988 10.5783 -0.234645 -0.956725 -0.170223
7.98767 91.2084 10.7043 -0.220453 -0.955767 -0.194702
8.95664 90.9878 10.7137 -0.205338 -0.957613 -0.201601
10.2209 90.7793 10.5114 -0.18789 -0.960406 -0.205713
11.2237 90.6539 10.2121 -0.180324 -0.960942 -0.209921
12.267 90.5952 9.69471 -0.146819 -0.966224 -0.211792
13.0984 90.5965 9.17852 -0.061312 -0.97654 -0.206424
13.9681 90.6672 8.56109 -0.0638554 -0.978974 -0.193692
14.7541 90.7605 7.84917 -0.0583212 -0.977928 -0.200539
15.5082 90.9095 7.07396 -0.00399944 -0.975957 -0.217927
16.1935 91.0775 6.30398 0.00710866 -0.976323 -0.215887
16.8682 91.2328 5.43291 -0.0379619 -0.978786 -0.201335
17.6402 91.4522 4.35827 -0.0149499 -0.98012 -0.197842
18.2751 91.6278 3.49957 0.00183405 -0.978624 -0.205649
18.7925 91.8113 2.63098 4.30031e-05 -0.978688 -0.205345
19.5095 92.0159 1.53371 -0.0248537 -0.980575 -0.194521
20.1435 92.2 0.47455 -0.0340942 -0.981468 -0.188567
20.5769 92.3424 -0.375778 -0.0379373 -0.982726 -0.181126
20.9372 92.5053 -1.34927 -0.0420715 -0.982876 -0.179396
21.2391 92.6829 -2.40056 -0.0497775 -0.98398 -0.171187
21.6216 92.8691 -3.58206 -0.0588379 -0.984898 -0.16234
21.8384 93.0221 -4.6597 -0.0671302 -0.986293 -0.150698
21.9886 93.1844 -5.83777 -0.0708474 -0.987217 -0.142769
22.1028 93.2952 -6.76206 -0.0785816 -0.990553 -0.112385
22.1938 93.436 -8.03595 -0.0902934 -0.989932 -0.108127
22.1784 93.5464 -9.15533 -0.100248 -0.989479 -0.103993
22.1344 93.6937 -10.5159 -0.115676 -0.988475 -0.0976559
22.0762 93.8042 -11.7945 -0.126344 -0.989719 -0.0670067
21.9042 93.8983 -13.0338 -0.128065 -0.990376 -0.0524808
21.765 93.9687 -14.0063 -0.131328 -0.989935 -0.0527001
21.6388 94.0338 -14.9354 -0.13281 -0.989809 -0.0513683
21.4841 94.0885 -16.0171 -0.137176 -0.990116 -0.0290664
21.2628 94.1539 -17.1462 -0.13967 -0.989767 -0.029211
21.0368 94.1947 -18.1186 -0.119481 -0.992824 -0.00489619
20.7857 94.2296 -19.0408 -0.121879 -0.992167 0.0165498
20.4515 94.2264 -20.2041 -0.126308 -0.991353 0.0353832
20.137 94.2359 -21.1462 -0.128985 -0.991089 0.0332538
19.5583 94.2341 -22.5118 -0.143921 -0.985656 0.0881407
18.9508 94.1942 -23.4879 -0.117118 -0.986108 0.11779
18.3799 94.1597 -24.3971 -0.119074 -0.987745 0.100076
17.8069 94.1228 -25.2506 -0.096639 -0.984787 0.144417
16.9461 94.0539 -26.3185 -0.103572 -0.984188 0.143689
16.2462 94.0064 -27.096 -0.0882448 -0.983575 0.157388
15.3785 93.9498 -27.8722 -0.0724902 -0.984071 0.162273
14.488 93.911 -28.5309 -0.057295 -0.985452 0.159073
13.5393 93.8549 -29.21 -0.0491241 -0.98904 0.139238
12.75 93.8152 -29.7027 -0.0263389 -0.98899 0.145057
11.8211 93.7669 -30.1508 -0.0188275 -0.990643 0.135173
10.4315 93.7054 -30.761 -0.0122527 -0.990702 0.135493
9.1192 93.6449 -31.1959 0.018163 -0.989518 0.143258
8.19685 93.602 -31.3693 0.0248042 -0.988671 0.148036
6.96895 93.55 -31.5034 0.0306955 -0.988492 0.148083
5.9856 93.502 -31.5967 0.0306385 -0.987962 0.151585
5.02412 93.4522 -31.6528 0.038289 -0.98526 0.166606
4.03558 93.4088 -31.7038 0.0372051 -0.984275 0.172682
2.98658 93.3531 -31.8014 0.0387268 -0.98474 0.169609
1.58394 93.2908 -31.8422 0.0360194 -0.985217 0.167457
0.244441 93.2556 -31.7837 0.0327497 -0.984012 0.17506
-0.848689 93.2467 -31.6089 0.035303 -0.986383 0.160628
-2.09925 93.2443 -31.3565 0.0335032 -0.986684 0.159158
-3.30613 93.2468 -31.0857 0.0339849 -0.987533 0.153649
-4.66186 93.2735 -30.6291 0.0280519 -0.989568 0.14113
-5.90587 93.2709 -30.3694 0.0265016 -0.991196 0.129619
-6.83514 93.254 -30.2635 0.0374739 -0.991386 0.125495
-7.84333 93.2368 -30.1096 0.0379069 -0.993768 0.103947
-9.05196 93.2036 -29.9043 0.0462198 -0.992219 0.115604
-10.5229 93.1872 -29.379 0.0552889 -0.99073 0.124037
-11.3606 93.1893 -28.9633 0.0576282 -0.990259 0.126706
-12.5668 93.1939 -28.2978 0.0758713 -0.988884 0.127877
-13.4818 93.2095 -27.6575 0.0939911 -0.985912 0.138358
-14.3684 93.2304 -26.8889 0.0964399 -0.986458 0.132668
-15.0851 93.2266 -26.3027 0.113847 -0.982246 0.149101
-15.9567 93.2163 -25.5893 0.139061 -0.980071 0.141857
-16.6173 93.2217 -24.9359 0.170334 -0.974339 0.147137
-17.5084 93.2211 -23.8961 0.176659 -0.974195 0.140334
-18.1287 93.2331 -22.9882 0.181305 -0.97642 0.114909
-18.685 93.232 -21.7965 0.194383 -0.977315 0.0840873
-19.1197 93.2425 -20.786 0.211275 -0.97299 0.0930223
-19.4962 93.2556 -19.4866 0.212845 -0.976202 0.0415527
-19.6686 93.2634 -18.5033 0.204299 -0.978334 0.0294892
-19.7827 93.2581 -17.2261 0.195792 -0.980464 0.0176572
-19.803 93.1888 -15.8731 0.169252 -0.983668 -0.0607285
-19.8147 93.1169 -14.7973 0.161621 -0.984911 -0.0618722
-19.7721 93.0266 -13.3817 0.156731 -0.985332 -0.067506
-19.6642 92.9612 -12.1234 0.148397 -0.987187 -0.0586493
-19.5548 92.9202 -11.1657 0.149728 -0.986838 -0.0610872
-19.4407 92.8663 -9.98786 0.14709 -0.987879 -0.048444
-19.3471 92.8406 -8.99416 0.136128 -0.989374 -0.0495532
-19.194 92.7879 -7.68771 0.125635 -0.990737 -0.051536
-19.0364 92.6975 -6.24862 0.104997 -0.991056 -0.0821431
-18.9765 92.6147 -5.22092 0.0997 -0.991278 -0.0861816
-18.8586 92.5358 -4.16245 0.0891271 -0.992116 -0.0878568
-18.6651 92.4675 -3.28221 0.0835224 -0.991885 -0.0958559
-18.2568 92.3799 -2.15762 0.0711716 -0.991305 -0.110679
-17.7567 92.2723 -0.992009 0.0653207 -0.990309 -0.122544
-17.4006 92.1573 -0.0642824 0.0503864 -0.9871 -0.151968
-17.075 91.9899 1.07485 0.0362021 -0.985218 -0.167426
-16.7148 91.8329 2.08596 0.028794 -0.983856 -0.176181
-16.1748 91.6378 3.1853 0.0145686 -0.981633 -0.189959
-15.5628 91.4518 4.16312 0.0195839 -0.979522 -0.200341
-14.8567 91.2496 5.22543 0.0292563 -0.977382 -0.209112
-14.2269 91.0817 6.07547 0.0405121 -0.976887 -0.20988
-13.5509 90.963 6.80767 0.0524889 -0.982563 -0.178238
-12.713 90.8561 7.66256 0.0576827 -0.981483 -0.18265
-11.7657 90.7774 8.47594 0.0818713 -0.982734 -0.165923
-10.8103 90.7597 9.15118 0.100195 -0.984714 -0.142477
-9.82508 90.7942 9.61228 0.123506 -0.981552 -0.144249
-8.83104 90.902 9.87617 0.143071 -0.97818 -0.150596
-7.96721 90.9918 10.1621 0.165321 -0.971571 -0.169464
-7.02691 91.1147 10.3955 0.177673 -0.969796 -0.167076
-6.00884 91.3009 10.4102 0.179766 -0.969934 -0.164049
-5.06415 91.489 10.3542 0.176298 -0.972094 -0.154229
-3.8013 91.7326 10.0967 0.149688 -0.977919 -0.145833
-2.96032 91.9017 9.79156 0.111985 -0.982059 -0.151722
-1.84589 92.0669 9.37246 0.0750019 -0.989782 -0.121271
-1.2777 92.132 9.19266 0.0752243 -0.989739 -0.121478
-1.26091 92.0199 10.104 0.0518547 -0.990008 -0.129118
-2.34562 91.8604 10.5255 0.113488 -0.982324 -0.148865
-3.23871 91.7098 10.909 0.157521 -0.979303 -0.127091
-4.48312 91.4444 11.276 0.182347 -0.969888 -0.161432
-5.61174 91.2114 11.3832 0.1908 -0.966504 -0.171246
-6.50815 91.0361 11.4255 0.180158 -0.969692 -0.16505
-7.86871 90.8297 11.2603 0.152807 -0.974936 -0.16171
-8.94582 90.7312 10.8568 0.139147 -0.978738 -0.150655
-9.90425 90.644 10.6066 0.102454 -0.985245 -0.137066
-11.1954 90.5888 10.047 0.104562 -0.984329 -0.141975
-12.0365 90.5821 9.53674 0.0816252 -0.98411 -0.157687
-12.8305 90.6302 8.84217 0.0615812 -0.986623 -0.15094
-13.6173 90.7095 8.13584 0.0659154 -0.979819 -0.188708
-14.589 90.8169 7.35075 0.039591 -0.982113 -0.183839
-15.3327 91.0227 6.19927 0.0193945 -0.978952 -0.202918
-15.9226 91.1955 5.36026 0.0170396 -0.977788 -0.208836
-16.5806 91.397 4.3744 -0.00160611 -0.979288 -0.202057
-17.0886 91.559 3.53444 -0.000897606 -0.982963 -0.183675
-17.7279 91.7955 2.12985 0.0218735 -0.986695 -0.161093
-18.0278 91.933 1.25562 0.0264521 -0.987186 -0.157218
-18.4032 92.1164 -0.0349406 0.0292587 -0.988613 -0.147605
-18.8457 92.219 -1.10022 0.0563113 -0.991859 -0.114213
-19.1935 92.3015 -2.02865 0.0571783 -0.993851 -0.0948149
-19.6319 92.3733 -3.16978 0.0831194 -0.992646 -0.0876387
-19.8902 92.467 -4.47358 0.0907637 -0.992535 -0.081468
-19.9617 92.5473 -5.59574 0.100635 -0.992004 -0.0761562
-20.0421 92.631 -6.78444 0.0996231 -0.992014 -0.0773433
-20.182 92.6742 -7.66793 0.090717 -0.994446 -0.0533589
-20.293 92.696 -9.00865 0.146047 -0.988723 -0.0138059
-20.3728 92.7201 -9.91256 0.156956 -0.98656 -0.0450971
-20.4961 92.7726 -11.1719 0.159322 -0.985297 -0.0616902
-20.6443 92.8437 -12.5209 0.137051 -0.988898 -0.0574295
-20.7108 92.9017 -13.4902 0.125257 -0.989924 -0.0660348
-20.7515 92.9744 -14.8222 0.138894 -0.988675 -0.0559914
-20.7655 93.039 -16.1616 0.161142 -0.985984 -0.0403608
-20.8125 93.0603 -17.1297 0.190481 -0.981458 0.0214027
-20.6502 93.0704 -18.2782 0.164304 -0.98588 0.0231683
-20.4861 93.0522 -19.5086 0.181177 -0.982741 0.0373471
-20.1823 93.0313 -20.6416 0.197939 -0.976269 0.0878352
-19.8616 93.0149 -21.5594 0.199761 -0.97595 0.0872775
-19.3277 93.0159 -22.7181 0.207398 -0.974049 0.0906381
-18.8657 93.0167 -23.5384 0.197386 -0.971487 0.130329
-18.3001 93.0085 -24.347 0.183114 -0.973783 0.134932
-17.7006 93.0176 -25.0827 0.159329 -0.977589 0.137604
-16.6723 93.0299 -26.2053 0.146706 -0.979905 0.134438
-15.971 93.0388 -26.829 0.135655 -0.982061 0.13086
-15.1569 93.0609 -27.4733 0.120931 -0.984203 0.12931
-14.0924 93.0506 -28.3704 0.0946841 -0.985699 0.139399
-13.3302 93.0594 -28.9123 0.0858991 -0.988801 0.121281
-12.5236 93.0565 -29.4119 0.0731621 -0.989974 0.120807
-11.3105 93.0557 -30.0721 0.0568488 -0.991105 0.120329
-10.0673 93.0638 -30.6446 0.0539515 -0.992618 0.108624
-8.96642 93.0944 -30.9158 0.0510299 -0.993347 0.103235
-7.85534 93.1223 -31.2001 0.0379066 -0.993769 0.103939
-6.36913 93.1462 -31.2496 0.0158164 -0.992788 0.118826
-5.18363 93.1448 -31.434 0.00642051 -0.990615 0.135156
-4.17274 93.1075 -31.8214 0.0236126 -0.987773 0.154097
-3.14643 93.0885 -32.1103 0.0315875 -0.986538 0.160454
-2.13006 93.0839 -32.322 0.0291214 -0.985724 0.165754
-1.21329 93.0895 -32.4721 0.0302917 -0.984956 0.170088
-0.215563 93.0847 -32.6614 0.0314673 -0.984046 0.175108
0.819583 93.1089 -32.7204 0.0336232 -0.983932 0.175346
1.81916 93.1376 -32.7483 0.0359434 -0.983599 0.176727
3.02003 93.1794 -32.7792 0.0389089 -0.98332 0.177674
4.25019 93.2422 -32.6904 0.0355083 -0.983502 0.177379
5.374 93.3069 -32.5971 0.0460446 -0.983931 0.172447
6.28007 93.3541 -32.5393 0.0362377 -0.984993 0.168745
7.36706 93.426 -32.3912 0.0356533 -0.986993 0.156308
8.29246 93.4643 -32.2918 0.033084 -0.988696 0.145861
9.17963 93.5167 -32.1483 0.0204352 -0.992309 0.122087
10.2071 93.5606 -31.8803 -0.0148561 -0.991 0.13303
11.1196 93.5953 -31.5151 -0.0210779 -0.990915 0.132702
12.3495 93.6419 -30.9679 -0.0220561 -0.989713 0.14136
13.1842 93.6726 -30.5338 -0.0388091 -0.987961 0.149755
14.1437 93.7105 -29.9772 -0.0629224 -0.986854 0.148865
15.1608 93.7564 -29.2246 -0.0683795 -0.986696 0.147496
16.4049 93.8085 -28.2294 -0.085633 -0.984697 0.151639
17.4904 93.8783 -27.1421 -0.100911 -0.984037 0.146535
18.1546 93.9115 -26.4504 -0.0970631 -0.984504 0.146052
18.7242 93.974 -25.6266 -0.12821 -0.980764 0.147185
19.3463 94.0161 -24.6267 -0.116171 -0.987167 0.109568
20.0562 94.0551 -23.5269 -0.12156 -0.985161 0.121164
20.545 94.0795 -22.6096 -0.146911 -0.985094 0.0894806
21.061 94.0985 -21.4514 -0.147393 -0.987248 0.0556579
21.4218 94.0787 -20.6327 -0.128573 -0.990176 0.0549601
21.7653 94.0858 -19.4708 -0.136192 -0.990355 0.0254537
21.9591 94.0715 -18.4069 -0.137248 -0.990532 0.00317656
22.2346 94.0128 -16.9978 -0.138956 -0.989863 -0.029382
22.5064 93.9344 -15.6122 -0.142946 -0.989424 -0.0246322
22.6516 93.8861 -14.6233 -0.124185 -0.991009 -0.0497896
22.766 93.8065 -13.4878 -0.132158 -0.989565 -0.0569745
22.9265 93.737 -12.552 -0.131607 -0.990163 -0.0473254
23.0116 93.681 -11.651 -0.110747 -0.991301 -0.0711198
23.0881 93.5851 -10.4956 -0.109236 -0.989982 -0.0889092
23.1125 93.4892 -9.54221 -0.104297 -0.989608 -0.0989602
23.1251 93.352 -8.17789 -0.10838 -0.989407 -0.0965758
23.0985 93.2635 -7.18724 -0.0802076 -0.990412 -0.112476
22.9585 93.1261 -5.89341 -0.0731359 -0.988792 -0.129257
22.7539 92.9295 -4.40413 -0.0558914 -0.988213 -0.142208
22.5686 92.8043 -3.51425 -0.0519954 -0.986467 -0.155363
22.3257 92.6755 -2.6557 -0.0439292 -0.984428 -0.170209
21.9914 92.5079 -1.5952 -0.0396669 -0.984193 -0.172489
21.7343 92.363 -0.739235 -0.0358229 -0.983484 -0.177414
21.2686 92.1865 0.330564 -0.0354028 -0.983417 -0.177869
20.8253 92.048 1.18879 -0.0210281 -0.983702 -0.178574
20.1602 91.8543 2.33283 -0.0153124 -0.983293 -0.181281
19.7138 91.7012 3.14885 -0.00174624 -0.978756 -0.205019
19.2005 91.5428 3.9221 0.0130264 -0.980783 -0.193755
18.5547 91.3558 4.7893 -0.00634875 -0.977354 -0.211514
17.93 91.1877 5.58702 0.0109586 -0.977985 -0.208387
17.3992 91.0439 6.39053 -0.0222515 -0.987168 -0.158125
16.744 90.8986 7.16554 0.0187382 -0.976474 -0.214819
16.11 90.7585 7.80817 0.0170264 -0.98182 -0.189049
15.3307 90.5892 8.57041 -0.0144136 -0.979955 -0.194962
14.1039 90.439 9.62937 -0.0523317 -0.977185 -0.205683
12.9246 90.3669 10.3758 -0.102685 -0.976857 -0.185265
11.4955 90.4212 11.097 -0.151008 -0.969649 -0.19094
10.299 90.5537 11.4922 -0.178089 -0.962916 -0.202382
9.09038 90.7603 11.6996 -0.216182 -0.957615 -0.190363
8.104 90.9798 11.7092 -0.207946 -0.958254 -0.196016
7.12894 91.2163 11.6607 -0.224873 -0.955795 -0.189441
6.2638 91.4572 11.4948 -0.240134 -0.951089 -0.194331
5.42319 91.7549 11.0769 -0.225142 -0.955706 -0.188812
4.48806 91.945 10.6731 -0.159248 -0.985205 -0.0633306
3.67622 92.0539 10.2918 -0.0682865 -0.995318 -0.0678733
2.70499 92.1414 9.89325 -0.00727739 -0.995983 -0.0674879
1.3961 92.1501 9.66884 -0.0109311 -0.98862 -0.150033
0.160123 92.0982 9.87552 0.0321129 -0.989251 -0.142573
-0.431526 92.0759 9.87738 0.0368747 -0.989004 -0.143215
-0.477473 92.0722 9.89092 0.0332295 -0.989743 -0.138819
