-28.668 106.38 -10.8054 0.30001 -0.910678 -0.283904
-29.4842 105.97 -10.4775 0.339488 -0.883271 -0.32339
-30.4903 105.357 -9.87557 0.337881 -0.870572 -0.357688
-31.1632 104.809 -9.23546 0.395272 -0.823347 -0.407249
-31.6854 104.242 -8.60046 0.393975 -0.822771 -0.409672
-32.1735 103.615 -7.89434 0.423699 -0.796144 -0.432011
-32.4411 103.101 -7.19523 0.465466 -0.773752 -0.427343
-32.4664 102.442 -6.11027 0.498113 -0.746227 -0.44162
-32.3261 101.99 -5.11021 0.526782 -0.752746 -0.393942
-31.9836 101.674 -3.99397 0.546168 -0.746495 -0.38006
-31.6345 101.508 -3.01993 0.598038 -0.734977 -0.319623
-31.3011 101.434 -2.10167 0.626006 -0.732217 -0.268282
-30.8568 101.412 -0.88382 0.639299 -0.741653 -0.203094
-30.3349 101.594 0.216053 0.667916 -0.727245 -0.157609
-29.5302 102.191 1.06576 0.657304 -0.744418 -0.108412
-28.7081 102.843 1.16794 0.638396 -0.765425 -0.0771814
-27.8688 103.49 1.21018 0.57784 -0.813902 -0.0604971
-27.0079 104.075 1.25803 0.521319 -0.850117 -0.0743527
-26.1746 104.584 1.27987 0.523188 -0.849442 -0.068437
-25.2244 105.074 1.40981 0.443563 -0.894757 -0.0515876
-24.2507 105.529 1.69527 0.411298 -0.909321 -0.0630043
-23.0417 106.019 2.1125 0.37254 -0.924517 -0.0805171
-22.172 106.342 2.44383 0.344529 -0.935755 -0.0669671
-21.3653 106.586 2.80114 0.294705 -0.953029 -0.0698839
-20.3383 106.865 3.32316 0.290094 -0.95461 -0.0673366
-19.4635 107.062 3.78061 0.243752 -0.967531 -0.0668494
-18.2694 107.296 4.47693 0.211001 -0.97474 -0.0731694
-17.4851 107.423 5.01442 0.19779 -0.977022 -0.0784012
-16.339 107.551 5.90441 0.161457 -0.980578 -0.110165
-15.2415 107.645 6.5755 0.152667 -0.983101 -0.101018
-14.3209 107.728 6.91068 0.105341 -0.986571 -0.124822
-13.3592 107.8 7.15755 0.105708 -0.987188 -0.119397
-12.4203 107.865 7.38837 0.0977802 -0.987787 -0.121305
-10.9415 107.921 7.65949 0.0513031 -0.988842 -0.139853
-9.87315 107.947 7.72194 0.0159972 -0.990213 -0.138647
-8.88927 107.955 7.79709 0.012538 -0.989173 -0.145977
-7.67203 107.932 7.87248 -0.0155559 -0.983459 -0.180459
-6.43102 107.888 8.01561 -0.0220079 -0.982844 -0.182857
-5.51379 107.809 8.19268 -0.0504746 -0.978408 -0.200424
-4.58897 107.709 8.47105 -0.0544075 -0.971844 -0.229259
-3.63261 107.577 8.81026 -0.0512755 -0.969868 -0.237981
-2.43231 107.407 9.20084 -0.0481945 -0.967804 -0.246836
-1.06674 107.232 9.4341 -0.0479757 -0.956539 -0.286368
0.12356 107.16 9.52616 -0.035417 -0.951359 -0.306042
1.86628 107.195 9.42695 0.0180931 -0.949078 -0.314322
3.19796 107.334 9.19437 0.0519747 -0.954366 -0.293604
4.42895 107.472 8.9752 0.0717776 -0.955745 -0.285308
5.5662 107.627 8.78317 0.085888 -0.968171 -0.233917
6.49933 107.744 8.58524 0.0736268 -0.97598 -0.204977
7.697 107.881 8.33717 0.0574288 -0.980188 -0.189172
8.69897 107.953 8.21383 0.0515862 -0.983969 -0.170417
10.0512 108.002 8.1505 0.00165746 -0.989645 -0.143526
11.1635 108.029 8.14019 0.0133061 -0.993905 -0.109431
12.3013 108.021 8.18583 -0.0441299 -0.994547 -0.0940294
13.3188 107.965 8.24372 -0.0492972 -0.993587 -0.101763
14.373 107.879 8.2752 -0.0906588 -0.991662 -0.0903099
15.5299 107.766 8.16869 -0.102077 -0.991343 -0.0825137
16.7464 107.628 8.01188 -0.126608 -0.990489 -0.0538757
17.7597 107.48 7.82583 -0.16709 -0.984208 -0.0584499
18.822 107.315 7.5123 -0.187815 -0.979935 -0.0667274
19.7684 107.16 7.1263 -0.191 -0.979665 -0.0611067
20.9808 106.933 6.35426 -0.224855 -0.972872 -0.0538844
21.7655 106.76 5.91203 -0.265043 -0.961961 -0.0662093
22.7182 106.538 5.42934 -0.256653 -0.963846 -0.0716298
23.8638 106.244 4.94988 -0.28779 -0.95641 -0.0495594
24.9019 105.934 4.62741 -0.310708 -0.949973 -0.0318199
25.7629 105.602 4.41541 -0.395728 -0.916468 -0.0584431
26.7315 105.177 4.2322 -0.442698 -0.894403 -0.063737
27.9866 104.578 4.08148 -0.461846 -0.881319 -0.091109
28.9515 103.993 4.05677 -0.526334 -0.841489 -0.121935
29.725 103.51 3.90964 -0.577815 -0.805025 -0.130953
30.5628 102.992 3.29859 -0.593703 -0.781845 -0.186003
31.3685 102.708 2.21568 -0.603337 -0.765857 -0.219682
31.8871 102.578 1.47526 -0.588711 -0.749446 -0.302903
32.3783 102.529 0.64852 -0.563393 -0.750221 -0.344486
33.0221 102.581 -0.479186 -0.504994 -0.785832 -0.355579
33.6045 102.725 -1.53597 -0.505799 -0.762782 -0.402146
33.9852 102.99 -2.53839 -0.470798 -0.799209 -0.373649
34.1569 103.328 -3.36091 -0.4343 -0.804813 -0.40365
34.1425 103.839 -4.35907 -0.4107 -0.808676 -0.42115
33.6555 104.432 -5.16912 -0.364297 -0.857644 -0.362951
33.0626 104.931 -5.75196 -0.297022 -0.891059 -0.342983
32.2028 105.434 -6.34943 -0.26981 -0.911759 -0.307026
31.2724 105.847 -6.90113 -0.230079 -0.934172 -0.271885
30.4817 106.158 -7.34069 -0.229948 -0.93975 -0.25297
29.5234 106.498 -7.91607 -0.190103 -0.961016 -0.200773
28.7579 106.746 -8.43081 -0.165288 -0.970405 -0.176053
27.9682 106.989 -9.00799 -0.176316 -0.970001 -0.167276
27.1625 107.251 -9.72546 -0.162206 -0.974161 -0.156729
26.4798 107.476 -10.4992 -0.149295 -0.978246 -0.144032
25.8291 107.701 -11.3723 -0.129738 -0.982036 -0.136779
25.4107 107.867 -12.2 -0.118063 -0.982939 -0.14104
25.0309 108.044 -13.134 -0.117096 -0.98354 -0.137617
24.7108 108.23 -14.3435 -0.0855556 -0.989881 -0.113209
24.5523 108.367 -15.4182 -0.0860375 -0.989602 -0.115266
24.4336 108.505 -16.6825 -0.0805103 -0.992717 -0.0896114
24.2039 108.643 -18.0186 -0.0582165 -0.995035 -0.0807179
23.8985 108.733 -19.0206 -0.0569721 -0.9963 -0.0642599
23.6032 108.8 -19.8887 -0.0497025 -0.998517 -0.0222147
23.1954 108.844 -20.8234 -0.0562953 -0.998152 -0.0223113
22.6423 108.89 -21.702 -0.0521793 -0.998517 -0.0148589
21.8226 108.937 -22.7329 -0.0477872 -0.998842 -0.00561123
21.0013 108.978 -23.7534 -0.0451962 -0.998978 -0.000286165
20.2994 109.003 -24.7222 -0.0420418 -0.999033 0.0128579
19.6709 109.011 -25.5771 -0.0446502 -0.998643 0.025523
18.8398 109.027 -26.7178 -0.0519689 -0.998314 0.0258393
18.3032 109.027 -27.5257 -0.0417405 -0.998633 0.031452
17.6883 109.025 -28.4325 -0.0475591 -0.998435 0.0294273
16.8988 109.034 -29.4068 -0.0406905 -0.998634 0.0319308
16.0229 109.038 -30.262 -0.034123 -0.998989 0.0292578
15.1773 109.044 -30.9489 -0.0312657 -0.99888 0.0351969
14.2879 109.044 -31.5263 -0.0230178 -0.998804 0.0431241
12.9815 109.043 -32.1832 -0.0203412 -0.998846 0.0434976
12.0889 109.046 -32.5297 -0.020492 -0.998697 0.0467348
11.2217 109.045 -32.8586 -0.0147947 -0.998887 0.0447859
10.0113 109.045 -33.2597 -0.0156161 -0.99889 0.0444319
8.97007 109.048 -33.5637 -0.0156151 -0.998876 0.0447462
7.99143 109.044 -33.8168 -0.00708688 -0.998755 0.0493798
6.96615 109.042 -34.0229 -0.00853908 -0.998728 0.0496862
6.00476 109.042 -34.167 -0.0083324 -0.998716 0.0499792
4.9772 109.042 -34.2616 -0.00246971 -0.998694 0.0509967
3.94255 109.039 -34.3588 -0.00232064 -0.998624 0.0523845
2.62963 109.036 -34.4899 -0.00500187 -0.998386 0.0565654
1.64171 109.04 -34.4789 0.000210685 -0.998423 0.0561412
0.416055 109.046 -34.3756 -0.000814652 -0.998426 0.0560743
-1.05494 109.05 -34.2804 0.00330408 -0.998484 0.0549196
-2.12709 109.049 -34.2454 0.00274443 -0.998402 0.0564474
-3.29771 109.052 -34.157 0.00230098 -0.998258 0.0588667
-4.23852 109.054 -34.0497 0.00624716 -0.998341 0.0572449
-5.32871 109.063 -33.8282 0.00280534 -0.998523 0.0540859
-6.47566 109.075 -33.4681 0.00674207 -0.998698 0.0505615
-7.54308 109.092 -33.0262 0.00742605 -0.998547 0.0533677
-8.64664 109.109 -32.5273 0.007018 -0.998748 0.0495211
-9.69486 109.12 -32.1096 0.0107907 -0.998698 0.0498403
-10.5517 109.131 -31.7248 0.0112022 -0.998636 0.0509912
-11.6711 109.149 -31.0246 0.0140173 -0.998832 0.046192
-12.7219 109.17 -30.2348 0.0170633 -0.998999 0.0413073
-13.839 109.185 -29.3105 0.0204879 -0.999071 0.0379112
-14.6021 109.193 -28.6532 0.0220013 -0.999018 0.0384677
-15.7414 109.201 -27.6709 0.0287809 -0.998977 0.0348318
-16.4541 109.201 -27.0622 0.027931 -0.999058 0.033211
-17.1995 109.203 -26.3721 0.0280813 -0.999199 0.028038
-17.8669 109.199 -25.6887 0.0297922 -0.999283 0.0233557
-18.6809 109.185 -24.5991 0.0454333 -0.99895 0.00583949
-19.2118 109.164 -23.5913 0.0515422 -0.998656 0.00464079
-19.7105 109.146 -22.4701 0.0540505 -0.998517 0.00600017
-20.0599 109.12 -21.5198 0.0553975 -0.99834 -0.0157604
-20.3781 109.076 -20.3163 0.0704451 -0.997073 -0.0285147
-20.6134 109.027 -19.2656 0.0779543 -0.996568 -0.0278418
-20.8534 108.983 -18.3609 0.0815051 -0.995783 -0.0401605
-21.2268 108.895 -17.2884 0.0957692 -0.993873 -0.0541197
-21.6039 108.788 -16.4323 0.104282 -0.991153 -0.0821071
-22.0579 108.677 -15.6594 0.116483 -0.989542 -0.0840607
-22.6102 108.538 -14.8999 0.131056 -0.986717 -0.0956062
-23.402 108.315 -13.974 0.161993 -0.980175 -0.114081
-24.2415 108.05 -13.1447 0.185301 -0.972473 -0.141277
-25.1748 107.749 -12.4502 0.194762 -0.963627 -0.183007
-26.1942 107.401 -11.8586 0.22925 -0.95015 -0.21133
-26.966 107.108 -11.4683 0.277563 -0.927011 -0.252016
-27.8136 106.754 -11.1053 0.282792 -0.920171 -0.270443
-28.4527 106.475 -10.8835 0.304135 -0.911307 -0.277526
-28.7138 106.668 -11.7555 0.281095 -0.921287 -0.267081
-29.5795 106.273 -11.4606 0.324858 -0.900006 -0.290613
-30.3596 105.865 -11.09 0.314005 -0.890186 -0.330022
-31.0385 105.463 -10.6541 0.357548 -0.867325 -0.3461
-31.6293 104.997 -10.1213 0.360169 -0.862514 -0.355454
-32.218 104.404 -9.44714 0.400591 -0.82295 -0.40284
-32.7457 103.802 -8.76408 0.404191 -0.808917 -0.426494
-33.188 103.162 -8.03405 0.448383 -0.759455 -0.471361
-33.334 102.357 -6.874 0.448876 -0.760065 -0.469906
-33.2864 101.864 -6.04934 0.481714 -0.739122 -0.470743
-33.0912 101.361 -4.94712 0.540146 -0.731891 -0.415426
-32.7632 101.082 -4.00176 0.573397 -0.72359 -0.384231
-32.4358 100.899 -3.11691 0.595766 -0.736394 -0.320605
-32.0595 100.79 -2.11362 0.632893 -0.72116 -0.281139
-31.6948 100.732 -1.18062 0.650921 -0.71073 -0.264942
-31.2694 100.777 -0.0450258 0.682952 -0.697477 -0.217031
-30.7484 101.029 1.01412 0.713334 -0.682002 -0.161329
-30.0354 101.578 1.89739 0.68589 -0.722265 -0.0888176
-29.2713 102.286 2.08634 0.674466 -0.734371 -0.070146
-28.3132 103.112 2.09483 0.614063 -0.785682 -0.0583122
-27.3462 103.804 2.14926 0.549925 -0.832946 -0.0418841
-26.5745 104.27 2.18907 0.525056 -0.848768 -0.0625258
-25.4533 104.893 2.31197 0.473105 -0.877301 -0.0807187
-24.509 105.353 2.55695 0.404178 -0.911437 -0.0755621
-23.2438 105.862 2.98089 0.384799 -0.919035 -0.0843128
-21.9419 106.347 3.50743 0.361279 -0.929559 -0.0719523
-21.0015 106.624 3.98658 0.291209 -0.955538 -0.0463028
-20.1637 106.836 4.4274 0.272076 -0.959506 -0.0729551
-19.3246 107.017 4.89072 0.241425 -0.966381 -0.0868805
-18.2575 107.204 5.55865 0.23211 -0.967232 -0.102895
-17.2772 107.336 6.31056 0.181086 -0.977114 -0.111611
-16.481 107.406 6.97571 0.168254 -0.978916 -0.115383
-15.601 107.49 7.47011 0.15952 -0.980822 -0.111948
-14.5114 107.598 7.83064 0.110724 -0.986827 -0.117795
-13.4388 107.678 8.10675 0.0947813 -0.988336 -0.1192
-12.4816 107.742 8.33867 0.0945609 -0.988156 -0.120842
-11.3335 107.771 8.59365 0.0475504 -0.989875 -0.13358
-10.212 107.812 8.64572 0.0312011 -0.989391 -0.141044
-9.14159 107.81 8.70967 0.00217741 -0.986853 -0.161606
-7.80889 107.769 8.77368 -0.022191 -0.984901 -0.171338
-6.34916 107.699 8.9418 -0.0270824 -0.978977 -0.202163
-5.09192 107.556 9.26576 -0.0615399 -0.973983 -0.218056
-3.76907 107.338 9.7472 -0.0939105 -0.962389 -0.25493
-2.89198 107.191 10.027 -0.0926394 -0.949022 -0.301289
-1.66316 107.002 10.2878 -0.066865 -0.950128 -0.304606
-0.374114 106.893 10.4234 -0.0373928 -0.952625 -0.301839
0.672249 106.843 10.4344 -0.00479315 -0.939139 -0.343324
1.59476 106.87 10.371 0.00396979 -0.936817 -0.349798
2.95496 107.004 10.1276 0.0525955 -0.936517 -0.346655
4.08362 107.159 9.92609 0.107873 -0.940913 -0.320989
5.57574 107.39 9.67626 0.0923346 -0.961634 -0.258298
6.56262 107.54 9.49397 0.10544 -0.962334 -0.250591
7.80495 107.709 9.25041 0.0877486 -0.981848 -0.168151
9.02344 107.827 9.09444 0.0585617 -0.984965 -0.162525
10.2565 107.898 9.07174 0.0393444 -0.99138 -0.124972
11.1693 107.928 9.05515 0.00769434 -0.993136 -0.116369
12.1245 107.923 9.11403 0.00207928 -0.992366 -0.123311
13.2131 107.873 9.16865 -0.0459513 -0.99294 -0.109356
14.1471 107.807 9.2027 -0.0769904 -0.992535 -0.0945843
15.3668 107.703 9.14194 -0.0994558 -0.991768 -0.0806477
16.5475 107.585 8.98723 -0.118979 -0.99006 -0.074998
17.8532 107.405 8.77691 -0.168194 -0.983652 -0.0643332
19.0737 107.211 8.41866 -0.181618 -0.981472 -0.0610186
19.9881 107.056 8.05518 -0.214954 -0.97489 -0.0581796
20.7903 106.904 7.62627 -0.232631 -0.970561 -0.0602204
21.7275 106.699 7.01783 -0.265586 -0.962508 -0.055161
22.6099 106.487 6.50572 -0.260852 -0.962902 -0.0689222
23.7059 106.22 5.9964 -0.272736 -0.958718 -0.0804729
24.6859 105.953 5.63858 -0.323493 -0.941176 -0.0880337
25.7167 105.552 5.3551 -0.39166 -0.916847 -0.0774195
26.9857 105 5.10542 -0.433118 -0.90084 -0.0299304
28.0635 104.453 5.00908 -0.512849 -0.855916 -0.0614561
29.0019 103.866 5.01653 -0.556446 -0.823832 -0.0964379
29.9205 103.2 4.88876 -0.601049 -0.790731 -0.116121
30.7657 102.629 4.29162 -0.628304 -0.754643 -0.189072
31.6378 102.2 3.17336 -0.630671 -0.745005 -0.217305
32.1955 102.014 2.3182 -0.587625 -0.758771 -0.281004
32.7114 101.905 1.54822 -0.578591 -0.747203 -0.326482
33.1714 101.906 0.707648 -0.563395 -0.750219 -0.344486
33.8543 102.005 -0.458018 -0.532355 -0.749505 -0.393452
34.3186 102.14 -1.32906 -0.512349 -0.753827 -0.410728
34.7045 102.405 -2.25042 -0.480471 -0.757671 -0.441183
34.9995 102.844 -3.35771 -0.451978 -0.787826 -0.418385
35.1116 103.288 -4.20647 -0.405741 -0.795546 -0.448696
34.9652 103.771 -4.97068 -0.363158 -0.802561 -0.4733
34.5487 104.323 -5.68854 -0.325011 -0.850785 -0.412957
33.944 104.835 -6.2905 -0.30789 -0.886098 -0.34646
33.1348 105.334 -6.87707 -0.275609 -0.907796 -0.314777
32.0681 105.824 -7.49565 -0.230083 -0.934174 -0.271875
30.9756 106.247 -8.12209 -0.224049 -0.940797 -0.254294
30.2238 106.499 -8.56883 -0.183907 -0.961958 -0.202025
29.1014 106.847 -9.29609 -0.163621 -0.969384 -0.183093
28.0407 107.17 -10.1272 -0.151003 -0.973508 -0.1717
27.1095 107.481 -11.1343 -0.136352 -0.97698 -0.164068
26.3861 107.755 -12.2573 -0.127887 -0.981573 -0.141987
25.903 107.98 -13.4004 -0.112765 -0.98317 -0.143741
25.6679 108.125 -14.263 -0.104055 -0.987856 -0.115385
25.486 108.266 -15.2505 -0.0883525 -0.98876 -0.119997
25.3916 108.385 -16.2552 -0.0806336 -0.990103 -0.114659
25.3054 108.498 -17.2255 -0.0678268 -0.992152 -0.105039
25.1319 108.602 -18.2329 -0.0533959 -0.996035 -0.0705608
24.7707 108.708 -19.4389 -0.0650433 -0.99613 -0.0584888
24.4649 108.766 -20.3052 -0.0496758 -0.998518 -0.0222294
24.0034 108.808 -21.3395 -0.0524165 -0.998485 -0.0165552
23.5248 108.848 -22.1056 -0.0543549 -0.998407 -0.00332974
22.7018 108.89 -23.1457 -0.0655736 -0.997837 0.00459088
21.9931 108.924 -23.9786 -0.0567614 -0.998159 0.0213593
21.3647 108.942 -24.8175 -0.0609324 -0.997974 0.0175403
20.78 108.966 -25.631 -0.0592891 -0.997586 0.0344435
20.2147 108.964 -26.382 -0.0497741 -0.99805 0.0376098
19.5732 108.97 -27.2899 -0.0585417 -0.997764 0.0322453
18.7092 108.969 -28.6294 -0.0488377 -0.998111 0.0372855
17.8323 108.976 -29.8104 -0.0498559 -0.998297 0.0302751
16.7523 108.991 -30.8958 -0.0396226 -0.99867 0.0330017
15.8704 108.995 -31.6288 -0.0325385 -0.998641 0.0407152
14.8731 108.997 -32.2794 -0.0237367 -0.998788 0.0431217
14.065 108.997 -32.7369 -0.0210955 -0.998799 0.0441272
12.7567 108.995 -33.3196 -0.0204868 -0.998697 0.0467392
11.8049 109 -33.6366 -0.0183137 -0.998746 0.0465394
10.7615 109.002 -33.9862 -0.0154437 -0.998949 0.0431028
9.49381 109.003 -34.385 -0.0125252 -0.998778 0.0476491
8.51749 108.999 -34.6536 -0.00831905 -0.998717 0.0499461
7.1746 108.993 -34.9342 -0.00582709 -0.998655 0.0515156
6.20719 108.994 -35.0905 -0.00485473 -0.998246 0.0584589
5.05717 108.991 -35.2138 -0.00783913 -0.997873 0.064712
3.96411 108.99 -35.2931 -0.00149919 -0.998582 0.0531963
2.57942 108.985 -35.4029 -0.00284532 -0.998464 0.0552743
1.41213 108.988 -35.3893 -0.00343657 -0.998356 0.0571768
0.0644148 108.996 -35.3243 -0.000700547 -0.998537 0.0540521
-0.860331 108.998 -35.2768 0.00222026 -0.998536 0.054031
-2.31933 108.996 -35.1511 0.00761909 -0.998263 0.0583802
-3.58001 108.994 -35.0827 0.00322912 -0.99809 0.0616965
-4.60537 109 -34.9416 0.00349558 -0.998028 0.0626585
-5.62732 109.01 -34.7255 0.00327634 -0.997935 0.0641545
-6.5485 109.023 -34.4363 0.00986184 -0.998399 0.0557013
-7.49289 109.036 -34.0616 0.00669256 -0.99847 0.0548723
-8.78313 109.059 -33.4854 0.00467182 -0.998542 0.0537849
-9.90442 109.071 -33.0697 0.0114821 -0.998745 0.0487537
-11.1199 109.082 -32.5327 0.0127167 -0.998585 0.0516415
-12.0681 109.102 -31.9058 0.0157267 -0.998578 0.0509351
-12.8072 109.118 -31.3397 0.0168834 -0.998594 0.050241
-13.7262 109.133 -30.6322 0.0203256 -0.998834 0.0437928
-14.6339 109.146 -29.8661 0.0213684 -0.999119 0.0361278
-15.3291 109.154 -29.237 0.0221249 -0.999026 0.0381808
-16.0342 109.157 -28.663 0.0248006 -0.999101 0.0343843
-17.0772 109.161 -27.764 0.0258817 -0.999123 0.032901
-17.8491 109.163 -27.0485 0.0301658 -0.999087 0.0302539
-18.5809 109.163 -26.3072 0.0299792 -0.999185 0.0268074
-19.2092 109.149 -25.5481 0.0455099 -0.998826 0.0165844
-19.9544 109.125 -24.2232 0.0510669 -0.998694 0.00174706
-20.3345 109.107 -23.4062 0.0515336 -0.998656 0.00464715
-20.8764 109.083 -22.0558 0.0557565 -0.998377 -0.00563852
-21.1266 109.035 -21.1545 0.0891442 -0.995605 -0.0287022
-21.3688 108.991 -20.0725 0.0829127 -0.996224 -0.0250059
-21.5635 108.949 -19.1791 0.0956141 -0.995007 -0.0286162
-21.8419 108.882 -18.2247 0.105863 -0.992774 -0.0565041
-22.3884 108.736 -16.8977 0.111815 -0.990973 -0.0739551
-22.8862 108.612 -16.0592 0.117048 -0.988226 -0.0985377
-23.6187 108.425 -15.0993 0.128069 -0.984251 -0.120455
-24.5371 108.153 -14.1131 0.153941 -0.976049 -0.153529
-25.7052 107.786 -13.2162 0.194769 -0.963993 -0.181063
-26.8385 107.397 -12.5746 0.24347 -0.947684 -0.206442
-27.9255 106.967 -12.0377 0.280403 -0.928686 -0.242726
-28.5231 106.739 -11.8182 0.266305 -0.932526 -0.243879
-28.6392 106.952 -12.7537 0.263081 -0.932274 -0.2483
-29.5683 106.597 -12.4496 0.294553 -0.920117 -0.258115
-30.5608 106.136 -12.0451 0.298088 -0.903263 -0.308642
-31.5946 105.53 -11.416 0.355139 -0.872147 -0.336505
-32.4705 104.813 -10.5977 0.401795 -0.841353 -0.361505
-32.9969 104.285 -9.97879 0.405539 -0.818991 -0.405884
-33.4878 103.74 -9.37452 0.389621 -0.821205 -0.416915
-34.0053 103.061 -8.60103 0.418949 -0.77715 -0.469185
-34.2178 102.484 -7.86875 0.429512 -0.751219 -0.500373
-34.1884 101.922 -7.02947 0.449924 -0.740233 -0.499624
-34.1352 101.422 -6.22425 0.481714 -0.73912 -0.470746
-34.0336 100.997 -5.43951 0.497856 -0.731176 -0.465987
-33.5728 100.527 -4.09306 0.562416 -0.717013 -0.411801
-33.2315 100.322 -3.27042 0.56243 -0.716939 -0.411911
-32.7908 100.106 -2.04969 0.612187 -0.71054 -0.346928
-32.4145 100.066 -1.13728 0.640803 -0.709389 -0.293491
-31.9835 100.048 0.0306601 0.686647 -0.689955 -0.227125
-31.5997 100.197 0.859075 0.691659 -0.693746 -0.200453
-31.1718 100.439 1.73561 0.71293 -0.689859 -0.125798
-30.5537 100.936 2.61131 0.727398 -0.678009 -0.10576
-29.9645 101.518 2.95725 0.715575 -0.692374 -0.0881356
-29.1039 102.349 3.03506 0.674465 -0.734371 -0.0701536
-28.322 103.021 3.02538 0.648633 -0.757738 -0.0714707
-27.4577 103.682 3.04468 0.58468 -0.80701 -0.0792591
-26.4565 104.278 3.09854 0.511085 -0.857194 -0.0633218
-25.3136 104.903 3.27144 0.476889 -0.878066 -0.0397058
-24.4593 105.31 3.50326 0.41013 -0.909596 -0.0618439
-23.6682 105.629 3.79026 0.382527 -0.922011 -0.0589058
-22.7404 105.981 4.1396 0.374342 -0.925025 -0.0647777
-21.9094 106.273 4.52328 0.349319 -0.93366 -0.0790824
-21.1297 106.518 4.92186 0.280123 -0.955929 -0.0879233
-20.1136 106.763 5.47584 0.257173 -0.961169 -0.0974427
-19.1419 106.94 6.04092 0.235613 -0.96645 -0.102279
-18.3104 107.073 6.63523 0.229733 -0.967088 -0.109379
-17.52 107.177 7.30706 0.179592 -0.977142 -0.113726
-16.5683 107.267 8.07886 0.162913 -0.981789 -0.0972118
-15.6729 107.368 8.46042 0.157334 -0.981909 -0.105241
-14.7091 107.463 8.76249 0.117856 -0.987409 -0.105514
-13.5342 107.554 9.04746 0.0903774 -0.988704 -0.119464
-12.5506 107.609 9.28602 0.0569832 -0.989203 -0.135022
-11.6123 107.635 9.49107 0.0555291 -0.989428 -0.133957
-10.1727 107.66 9.58851 0.0190969 -0.985911 -0.166174
-8.93202 107.657 9.64324 -0.00232566 -0.984831 -0.173164
-7.75656 107.603 9.69474 -0.037882 -0.98314 -0.178889
-6.6101 107.534 9.81868 -0.0494437 -0.979413 -0.19484
-5.62065 107.416 10.0573 -0.0684662 -0.975143 -0.210735
-4.50533 107.217 10.4722 -0.0936791 -0.961991 -0.256511
-3.22347 106.96 10.8835 -0.105436 -0.953067 -0.283514
-2.35455 106.815 11.0926 -0.0835093 -0.955394 -0.283281
-1.29553 106.655 11.2614 -0.090902 -0.937187 -0.336519
0.0558428 106.523 11.3526 -0.0384763 -0.937889 -0.343806
1.40749 106.518 11.3129 -0.00479846 -0.939137 -0.343329
2.45311 106.617 11.1339 0.0357086 -0.94183 -0.334187
3.37799 106.734 10.9216 0.0816487 -0.938269 -0.334654
4.63554 106.943 10.7432 0.107873 -0.940913 -0.32099
5.5134 107.114 10.5963 0.14679 -0.951665 -0.26979
6.4628 107.305 10.4386 0.147357 -0.95156 -0.269852
7.50785 107.48 10.2419 0.10974 -0.970318 -0.215501
8.49542 107.632 10.0603 0.0987427 -0.976082 -0.191828
9.45134 107.724 9.97861 0.0834916 -0.986105 -0.143618
10.5673 107.797 9.9767 0.0409028 -0.991517 -0.123377
11.792 107.812 10.0155 -0.0004721 -0.992957 -0.118476
13.2164 107.773 10.0869 -0.0453406 -0.995803 -0.0794988
14.2106 107.72 10.1333 -0.060363 -0.995029 -0.0791794
15.5592 107.619 10.0601 -0.104321 -0.992245 -0.0675362
16.5718 107.513 9.92019 -0.1272 -0.989892 -0.0627287
17.5008 107.399 9.81526 -0.155078 -0.985932 -0.0586985
18.8113 107.188 9.5277 -0.176115 -0.982237 -0.064556
19.9356 106.998 9.11514 -0.221956 -0.972314 -0.0689949
20.798 106.815 8.6963 -0.235857 -0.968211 -0.0833038
21.9106 106.591 8.00374 -0.246624 -0.966373 -0.0725086
23.0332 106.307 7.32347 -0.28326 -0.956849 -0.0648299
24.162 106.025 6.785 -0.286002 -0.95488 -0.0785701
24.9815 105.743 6.48188 -0.35957 -0.927176 -0.105141
26.3085 105.237 6.1557 -0.384522 -0.920179 -0.073576
27.2038 104.865 5.99584 -0.462464 -0.884507 -0.0481156
28.1327 104.34 5.92317 -0.519664 -0.846571 -0.112181
28.9633 103.774 5.94527 -0.593828 -0.798896 -0.0955725
29.8025 103.151 5.9341 -0.594653 -0.798172 -0.0964804
30.7192 102.388 5.4465 -0.656682 -0.74318 -0.119191
31.3713 101.97 4.79124 -0.666247 -0.720311 -0.193046
32.1498 101.583 3.70223 -0.656525 -0.714773 -0.240102
32.7371 101.376 2.79188 -0.625485 -0.718192 -0.304907
33.4429 101.279 1.64524 -0.593014 -0.730117 -0.339362
34.0049 101.295 0.692862 -0.546251 -0.738384 -0.395466
34.6483 101.423 -0.428254 -0.532106 -0.741553 -0.408215
35.1984 101.675 -1.51806 -0.505269 -0.749113 -0.428054
35.5373 101.951 -2.35125 -0.46629 -0.757093 -0.457583
35.7828 102.301 -3.18034 -0.459748 -0.772067 -0.438007
35.9812 102.839 -4.20799 -0.378714 -0.787194 -0.486724
35.8662 103.629 -5.40982 -0.345257 -0.808871 -0.475946
35.3606 104.298 -6.24686 -0.293446 -0.841441 -0.453725
34.7927 104.781 -6.83368 -0.268313 -0.879945 -0.392042
34.0965 105.234 -7.36837 -0.254597 -0.896659 -0.359915
33.281 105.627 -7.87657 -0.236364 -0.915125 -0.326617
32.4232 105.968 -8.3529 -0.204634 -0.946285 -0.24957
31.5475 106.306 -8.86749 -0.208836 -0.951229 -0.225968
30.7272 106.576 -9.33708 -0.186798 -0.959193 -0.212089
29.9174 106.817 -9.83851 -0.155566 -0.970078 -0.186407
29.1949 107.03 -10.3451 -0.155179 -0.970946 -0.182151
28.2903 107.317 -11.1303 -0.141602 -0.974489 -0.173703
27.6904 107.523 -11.8614 -0.133947 -0.977097 -0.165342
27.0527 107.784 -12.9582 -0.114595 -0.980187 -0.161561
26.6879 107.972 -13.949 -0.103711 -0.982984 -0.151294
26.4701 108.123 -14.8684 -0.0906843 -0.987212 -0.131103
26.3035 108.322 -16.3249 -0.0772111 -0.989697 -0.120574
26.1883 108.486 -17.6278 -0.0611657 -0.991318 -0.116396
25.9829 108.595 -18.6887 -0.0478653 -0.996738 -0.0649777
25.7275 108.659 -19.5869 -0.0444392 -0.99783 -0.0485755
25.3583 108.729 -20.6321 -0.0598901 -0.997363 -0.0368839
24.6618 108.786 -22.1242 -0.056558 -0.998323 0.00168667
23.8164 108.819 -23.2759 -0.0556074 -0.998375 0.0123552
23.0944 108.854 -24.1281 -0.0658697 -0.997735 0.0136654
22.4206 108.88 -24.9617 -0.0567823 -0.998088 0.0242257
21.8016 108.894 -25.7855 -0.0594671 -0.997897 0.0257881
21.2477 108.907 -26.5351 -0.0598798 -0.997364 0.0409401
20.4342 108.907 -27.6623 -0.0587074 -0.997455 0.0404396
19.7103 108.909 -28.825 -0.0626507 -0.99736 0.0367148
19.1447 108.911 -29.6857 -0.0588438 -0.997544 0.0379961
18.3557 108.925 -30.6643 -0.0491695 -0.998378 0.0287151
17.6075 108.94 -31.3882 -0.0427863 -0.998472 0.034448
16.7026 108.943 -32.2364 -0.035643 -0.998587 0.0392763
15.841 108.948 -32.8316 -0.0327141 -0.998721 0.0385425
14.5851 108.949 -33.5548 -0.0241908 -0.998781 0.0430264
13.4704 108.948 -34.0788 -0.0181321 -0.998942 0.0422624
12.5985 108.951 -34.3679 -0.0199151 -0.998836 0.0439384
11.5426 108.957 -34.7001 -0.019218 -0.99884 0.0441616
10.6481 108.96 -34.9888 -0.0136604 -0.998953 0.0436637
9.67159 108.956 -35.3104 -0.0087103 -0.998801 0.0481704
8.36833 108.948 -35.6355 -0.00538681 -0.998515 0.0541857
7.36887 108.944 -35.8358 -0.00283648 -0.998156 0.0602046
6.46903 108.934 -35.998 -0.0010797 -0.997816 0.0660529
5.43772 108.93 -36.1162 -0.00666168 -0.997709 0.0672669
4.45201 108.93 -36.1883 -0.00578527 -0.99755 0.0697116
3.02549 108.925 -36.3336 -0.00308086 -0.99798 0.063348
1.87205 108.933 -36.3218 -0.00391765 -0.998198 0.0598012
0.971584 108.937 -36.3077 -0.00270389 -0.997809 0.066104
-0.23109 108.942 -36.2691 0.000745027 -0.998109 0.061458
-1.24311 108.945 -36.1986 0.00701234 -0.997992 0.0628905
-2.34042 108.941 -36.095 0.00961439 -0.998155 0.0599239
-3.30895 108.937 -36.0466 0.00683487 -0.99812 0.0609069
-4.27796 108.937 -35.9516 0.00493902 -0.998048 0.0622271
-5.41594 108.945 -35.7547 0.00365689 -0.997967 0.0636221
-6.54696 108.962 -35.4228 0.00318684 -0.997935 0.0641579
-7.70906 108.983 -34.9826 0.0119375 -0.997725 0.0663428
-8.89863 109.005 -34.4455 0.00954578 -0.998179 0.0595633
-9.78076 109.018 -34.1026 0.00545576 -0.998156 0.0604586
-11.0018 109.028 -33.6608 0.0147333 -0.998721 0.0483583
-11.8113 109.036 -33.2561 0.0141413 -0.998571 0.0515172
-13.0581 109.065 -32.324 0.01426 -0.998593 0.0510642
-14.0099 109.085 -31.6158 0.0152002 -0.998836 0.0457581
-14.8111 109.101 -30.9621 0.0163413 -0.998893 0.044111
-15.8754 109.11 -30.0393 0.0268255 -0.998935 0.0375321
-16.7509 109.116 -29.3225 0.0247449 -0.999019 0.036655
-17.519 109.119 -28.6622 0.0263234 -0.999075 0.0340034
-18.5061 109.123 -27.703 0.030424 -0.999048 0.0312724
-19.3022 109.119 -26.911 0.0431676 -0.998755 0.0250049
-19.9814 109.107 -26.0937 0.0425851 -0.998979 0.0150559
-20.4574 109.099 -25.3049 0.0456085 -0.998893 0.00667297
-21.035 109.07 -24.1107 0.0571766 -0.998324 -0.00369537
-21.5459 109.027 -22.938 0.067057 -0.997697 0.000301051
-21.851 108.99 -22.0399 0.0901314 -0.99568 -0.0223069
-22.132 108.939 -20.9237 0.0919366 -0.995499 -0.0229436
-22.311 108.901 -20.0004 0.0953614 -0.995022 -0.0289535
-22.552 108.847 -18.9345 0.100509 -0.9939 -0.0428304
-22.9728 108.735 -17.7753 0.109696 -0.991827 -0.0646611
-23.4757 108.61 -16.8385 0.111995 -0.991025 -0.0729811
-24.0766 108.459 -15.9849 0.126071 -0.986728 -0.102346
-24.9724 108.212 -14.9693 0.159066 -0.977738 -0.136844
-26.1826 107.845 -14.012 0.182285 -0.965214 -0.187439
-26.9509 107.603 -13.5803 0.241873 -0.943675 -0.225775
-27.7996 107.275 -13.1171 0.236461 -0.944336 -0.228644
-28.2052 107.119 -12.9201 0.262933 -0.932473 -0.247711
-28.7244 107.192 -13.7479 0.262783 -0.932673 -0.247117
-27.9063 107.505 -14.1655 0.231057 -0.944994 -0.231513
-27.0959 107.774 -14.5725 0.163967 -0.971049 -0.172209
-26.3029 108.004 -15.0441 0.184427 -0.969377 -0.162159
-25.3106 108.299 -15.986 0.15502 -0.978277 -0.137573
-24.5248 108.498 -16.9127 0.125898 -0.986719 -0.102638
-23.8417 108.654 -18.0243 0.107152 -0.991609 -0.0721092
-23.3969 108.77 -19.184 0.108055 -0.992599 -0.0554242
-23.161 108.831 -20.409 0.0957981 -0.995022 -0.0273402
-22.9727 108.874 -21.3896 0.0928337 -0.995374 -0.0246611
-22.5994 108.942 -22.8263 0.0876172 -0.99585 -0.0246335
-21.9612 109.006 -24.3025 0.0735608 -0.997277 -0.00521877
-21.5398 109.038 -25.2451 0.0624747 -0.998041 0.00323002
-21.1194 109.056 -26.0619 0.0620688 -0.997995 0.0123521
-20.5359 109.07 -26.9353 0.0465662 -0.99883 0.013056
-19.9327 109.08 -27.6295 0.034034 -0.999022 0.0282102
-19.1449 109.082 -28.393 0.0303223 -0.999052 0.03124
-18.2634 109.079 -29.2476 0.0273305 -0.998977 0.0360159
-17.4007 109.072 -30.0071 0.0260253 -0.998807 0.0412596
-16.4705 109.067 -30.7724 0.0279974 -0.998777 0.040748
-15.6034 109.055 -31.549 0.0274907 -0.998559 0.0460979
-14.6654 109.042 -32.3096 0.0244531 -0.998556 0.0478417
-13.7093 109.02 -33.0162 0.0135784 -0.998589 0.0513476
-12.9646 109 -33.6317 0.0146893 -0.998524 0.0522629
-12.1949 108.984 -34.1202 0.0122479 -0.998414 0.0549023
-10.9756 108.97 -34.6612 0.0167322 -0.997913 0.0622337
-9.92386 108.961 -35.0265 0.00953646 -0.997977 0.0626889
-9.08945 108.944 -35.3836 0.00603501 -0.997704 0.0674513
-8.14281 108.923 -35.803 0.00959935 -0.99747 0.0702858
-7.2353 108.903 -36.1586 0.00748326 -0.997214 0.0742123
-6.1835 108.888 -36.5167 0.0114928 -0.997563 0.0688203
-5.09362 108.877 -36.7877 0.00663236 -0.997731 0.066994
-4.04518 108.875 -36.9458 0.00904045 -0.997698 0.0672027
-2.73139 108.881 -37.0213 0.00693188 -0.998126 0.0607944
-1.66697 108.885 -37.1015 0.00702225 -0.997992 0.0628959
-0.33964 108.885 -37.1986 0.00266387 -0.998024 0.0627404
0.993699 108.875 -37.2379 -0.00454887 -0.997866 0.0651036
2.04034 108.864 -37.2643 -0.00597123 -0.997353 0.0723903
3.40878 108.857 -37.2669 -0.00568608 -0.996826 0.0793877
4.61594 108.864 -37.1209 -0.00502337 -0.997177 0.0747372
5.80247 108.863 -37.0064 -0.00815122 -0.997295 0.0730452
6.76357 108.875 -36.8883 0.00177903 -0.997493 0.0705409
7.714 108.888 -36.7025 0.00137863 -0.997812 0.0661023
8.83314 108.902 -36.478 -0.000608579 -0.998904 0.0468035
9.88002 108.912 -36.2274 -0.00689984 -0.999156 0.0404997
10.7394 108.919 -35.9339 -0.00876435 -0.999297 0.0359576
12.0964 108.914 -35.5027 -0.0164498 -0.999288 0.0338638
13.0709 108.908 -35.2108 -0.0161114 -0.999183 0.0370508
14.1101 108.901 -34.8807 -0.0213876 -0.998903 0.0415688
15.1586 108.902 -34.3285 -0.0241822 -0.998778 0.0431095
15.9771 108.903 -33.8543 -0.0241999 -0.998781 0.0430275
17.0043 108.9 -33.1895 -0.0253326 -0.999053 0.0353743
17.7236 108.893 -32.5562 -0.0380798 -0.998746 0.0321307
18.4777 108.884 -31.8483 -0.0482753 -0.998324 0.0319288
19.3725 108.859 -30.9602 -0.0629181 -0.997719 0.0244736
20.0656 108.843 -30.028 -0.0608051 -0.99746 0.0370271
20.7028 108.84 -29.0053 -0.0626416 -0.99736 0.0367138
21.3398 108.841 -27.9818 -0.0588916 -0.997498 0.0391112
21.9406 108.839 -27.1593 -0.0612363 -0.997317 0.040112
22.5506 108.835 -26.3404 -0.060362 -0.997606 0.0329492
23.2559 108.815 -25.3805 -0.0706632 -0.99703 0.0306187
24.1466 108.777 -24.3059 -0.0646158 -0.997661 0.0206134
24.8596 108.757 -23.4469 -0.0570437 -0.998177 0.0189159
25.544 108.731 -22.5141 -0.0558236 -0.998344 0.0138967
26.0721 108.701 -21.5159 -0.0494899 -0.998751 -0.00684873
26.5776 108.643 -20.1455 -0.0555571 -0.997823 -0.0355268
26.8368 108.587 -19.2024 -0.063394 -0.995077 -0.0740071
27.0009 108.498 -18.2899 -0.0789298 -0.993417 -0.0830285
27.1317 108.386 -17.3084 -0.0658214 -0.991002 -0.116541
27.2392 108.238 -16.1538 -0.0691095 -0.989327 -0.12828
27.3528 108.08 -15.1177 -0.0708606 -0.985494 -0.154209
27.617 107.882 -13.9701 -0.0978748 -0.982383 -0.159201
28.0434 107.661 -12.966 -0.125558 -0.976745 -0.173394
28.7424 107.392 -11.9384 -0.143969 -0.974938 -0.169238
29.4651 107.16 -11.2742 -0.154277 -0.972153 -0.17634
30.2992 106.913 -10.6673 -0.156911 -0.970437 -0.183385
31.1327 106.68 -10.1474 -0.157282 -0.970403 -0.183249
31.927 106.423 -9.71961 -0.178244 -0.956631 -0.230108
32.7494 106.156 -9.28105 -0.186815 -0.948604 -0.255434
33.6799 105.804 -8.73924 -0.226931 -0.931474 -0.284356
34.6485 105.369 -8.14893 -0.236184 -0.913306 -0.331757
35.518 104.852 -7.48738 -0.265761 -0.880963 -0.391505
36.2875 104.191 -6.65132 -0.297605 -0.839472 -0.454663
36.7577 103.549 -5.84623 -0.316859 -0.797699 -0.513071
36.8982 103.007 -5.10453 -0.31962 -0.78462 -0.531238
36.8572 102.509 -4.34299 -0.34559 -0.764121 -0.543545
36.7036 101.991 -3.47064 -0.413391 -0.752321 -0.512953
36.389 101.487 -2.44932 -0.440917 -0.758941 -0.478113
35.9458 101.115 -1.4099 -0.465708 -0.747594 -0.473518
35.4162 100.857 -0.372075 -0.518249 -0.745595 -0.418935
34.9037 100.698 0.56611 -0.546249 -0.738386 -0.395466
34.2645 100.608 1.62335 -0.573618 -0.731569 -0.366397
33.7034 100.647 2.51483 -0.600534 -0.718082 -0.351735
33.0357 100.757 3.63772 -0.633503 -0.711144 -0.304686
32.4468 100.995 4.49452 -0.681595 -0.675865 -0.28042
31.7666 101.36 5.4693 -0.689656 -0.691749 -0.213069
31.2105 101.743 6.10281 -0.725736 -0.669964 -0.156382
30.2366 102.595 6.84456 -0.685057 -0.707623 -0.170997
29.2491 103.422 6.87861 -0.594958 -0.788468 -0.156027
28.3802 104.048 6.83071 -0.535936 -0.837252 -0.107571
27.5165 104.583 6.87086 -0.490423 -0.864457 -0.10985
26.7158 105.008 7.01217 -0.432167 -0.895224 -0.088923
25.4336 105.525 7.28695 -0.385184 -0.920908 -0.0596876
24.4638 105.854 7.63406 -0.298768 -0.950473 -0.0856705
23.5584 106.1 8.08131 -0.290058 -0.954311 -0.0710805
22.5524 106.348 8.69115 -0.283009 -0.955977 -0.0775538
21.6607 106.542 9.27229 -0.26418 -0.961501 -0.0740358
20.8019 106.738 9.76192 -0.246821 -0.966968 -0.0635664
19.8449 106.932 10.1949 -0.204657 -0.976767 -0.0615927
18.9212 107.11 10.4759 -0.189712 -0.980145 -0.0576708
17.9765 107.273 10.6738 -0.155074 -0.985933 -0.0586904
16.7213 107.436 10.8275 -0.132051 -0.989032 -0.0659107
15.2813 107.575 11.0309 -0.100719 -0.991524 -0.0820743
14.2278 107.644 11.06 -0.0604242 -0.994765 -0.0823904
13.1088 107.698 11.0094 -0.0263131 -0.99489 -0.0974754
12.0638 107.718 10.9466 0.0140339 -0.995622 -0.0924092
11.1492 107.708 10.9003 0.0487826 -0.993435 -0.0988222
9.9056 107.63 10.8777 0.0718787 -0.986238 -0.148418
8.67015 107.493 10.9369 0.111458 -0.978275 -0.1748
7.36022 107.254 11.2045 0.172702 -0.961064 -0.215162
5.99388 106.955 11.4182 0.147077 -0.951611 -0.269824
4.80462 106.684 11.5931 0.17624 -0.932556 -0.315085
3.88573 106.508 11.7298 0.137505 -0.921419 -0.363428
2.83846 106.305 11.9415 0.0712823 -0.930221 -0.360011
1.84378 106.202 12.128 -0.00882285 -0.933157 -0.359362
0.536121 106.172 12.2644 -0.0265558 -0.934203 -0.355658
-0.688792 106.258 12.2254 -0.0882383 -0.929457 -0.358224
-2.22606 106.48 12.0293 -0.119717 -0.940666 -0.316263
-3.2524 106.691 11.8257 -0.128364 -0.950861 -0.281274
-4.57282 106.963 11.4443 -0.139157 -0.955237 -0.260147
-5.48584 107.152 11.1065 -0.104023 -0.961719 -0.253528
-6.87937 107.356 10.7133 -0.0579394 -0.975789 -0.2109
-8.05705 107.448 10.6129 -0.0404964 -0.982605 -0.181195
-9.1286 107.492 10.5441 -0.00860121 -0.983291 -0.181837
-10.1456 107.513 10.4926 0.0026146 -0.989901 -0.141645
-11.1045 107.512 10.4626 0.00545583 -0.990477 -0.137572
-12.203 107.49 10.3323 0.0573662 -0.990018 -0.128737
-13.1242 107.464 10.1046 0.0743924 -0.989234 -0.125318
-14.3809 107.389 9.82135 0.102141 -0.98842 -0.110975
-15.4421 107.283 9.52703 0.132838 -0.984216 -0.11693
-16.2892 107.189 9.22158 0.153343 -0.982023 -0.110075
-17.1198 107.097 8.83293 0.181631 -0.978451 -0.0982011
-17.9063 107.013 8.21721 0.200158 -0.975226 -0.092098
-19.1696 106.831 7.12304 0.227424 -0.969403 -0.0916923
-20.2042 106.637 6.45663 0.236843 -0.966818 -0.0955173
-21.0032 106.451 5.98945 0.290615 -0.95092 -0.106272
-21.9159 106.199 5.48635 0.335416 -0.94034 -0.0570754
-23.012 105.824 5.00627 0.364811 -0.929769 -0.047656
-23.9658 105.455 4.65172 0.386389 -0.921048 -0.0455831
-24.8055 105.079 4.33969 0.430375 -0.900868 -0.0540233
-25.7006 104.655 4.11187 0.494275 -0.86747 -0.0513493
-26.8153 104 3.97146 0.511088 -0.857192 -0.063328
-27.8017 103.338 3.91871 0.560269 -0.825372 -0.0489048
-28.8408 102.5 3.95546 0.64465 -0.762328 -0.0572887
-29.7154 101.648 3.95363 0.71558 -0.692369 -0.0881308
-30.4512 100.866 3.80248 0.73066 -0.675507 -0.0989492
-31.1219 100.196 3.12505 0.756895 -0.64031 -0.130258
-31.7425 99.7124 2.07105 0.732584 -0.659552 -0.166679
-32.1475 99.5116 1.23014 0.70607 -0.672808 -0.220897
-32.5326 99.3753 0.416295 0.673197 -0.694694 -0.253388
-32.918 99.3603 -0.566571 0.673164 -0.694719 -0.253409
-33.3317 99.386 -1.51323 0.654057 -0.693197 -0.302665
-33.7644 99.5747 -2.66238 0.604166 -0.715763 -0.350238
-34.18 99.8331 -3.7138 0.56243 -0.716939 -0.411911
-34.6238 100.17 -4.80712 0.513657 -0.724386 -0.459805
-34.9332 100.606 -5.79639 0.466743 -0.725757 -0.505399
-35.025 101.314 -6.89492 0.466486 -0.72434 -0.507664
-35.0849 101.833 -7.6936 0.425458 -0.737269 -0.524285
-35.0874 102.398 -8.48051 0.404558 -0.741706 -0.53498
-34.7984 102.967 -9.17865 0.365803 -0.802281 -0.471735
-34.2649 103.655 -9.93407 0.386347 -0.818589 -0.424931
-33.6998 104.275 -10.6026 0.372294 -0.828521 -0.417664
-33.2228 104.765 -11.1991 0.363355 -0.84035 -0.402221
-32.5585 105.324 -11.8489 0.337543 -0.874725 -0.347736
-31.8768 105.778 -12.3506 0.338127 -0.886609 -0.315586
-31.0639 106.232 -12.8299 0.299652 -0.908327 -0.291808
-30.1238 106.653 -13.2442 0.26966 -0.920989 -0.28118
-29.0425 107.066 -13.6104 0.26278 -0.932673 -0.24712
-29.5456 107.161 -14.4335 0.240223 -0.933921 -0.264735
-28.5365 107.527 -14.9099 0.215061 -0.949284 -0.228659
-27.7445 107.833 -15.4006 0.187084 -0.960308 -0.201011
-26.9038 108.029 -15.7844 0.14425 -0.971269 -0.189153
-26.2044 108.212 -16.3524 0.151492 -0.979024 -0.13624
-25.5939 108.384 -17.0101 0.105386 -0.988436 -0.109032
-24.9693 108.531 -17.8466 0.100603 -0.991381 -0.0836707
-24.4957 108.644 -18.7638 0.0804655 -0.995264 -0.0545498
-24.1761 108.711 -19.6293 0.0923801 -0.995222 -0.0315634
-23.9945 108.764 -20.9397 0.0967636 -0.995036 -0.0232243
-23.831 108.804 -21.9459 0.0973559 -0.994883 -0.0270014
-23.4879 108.871 -23.0734 0.0808117 -0.996217 -0.0303798
-23.073 108.924 -24.2377 0.0707767 -0.997302 -0.0194558
-22.5534 108.969 -25.2613 0.0661017 -0.997785 -0.00749938
-22.084 108.997 -26.2096 0.0579891 -0.998271 0.00963173
-21.4294 109.02 -27.2872 0.0530512 -0.998449 0.0166015
-20.6564 109.033 -28.2842 0.0409196 -0.998714 0.0299486
-19.8112 109.046 -29.096 0.0274091 -0.999451 0.0185931
-19.0077 109.044 -29.8379 0.0146762 -0.999379 0.0320262
-18.2385 109.031 -30.4604 0.0282812 -0.998498 0.0469208
-17.4476 109.021 -31.2156 0.0294649 -0.998726 0.0409287
-16.6829 109.012 -31.9249 0.0219595 -0.998797 0.0438473
-15.9628 109.002 -32.4752 0.0227597 -0.998572 0.0483245
-15.2777 108.988 -33.1149 0.0244524 -0.998556 0.0478292
-14.4249 108.976 -33.6648 0.0158304 -0.998487 0.052663
-13.6645 108.958 -34.2779 0.0141186 -0.998767 0.0473699
-12.8511 108.94 -34.82 0.00665126 -0.998481 0.0542084
-11.7186 108.915 -35.3704 0.0120524 -0.997918 0.0633587
-10.3877 108.906 -35.8329 0.0126209 -0.998139 0.059653
-9.2886 108.882 -36.314 0.00435617 -0.997909 0.0644834
-7.94339 108.842 -36.8637 0.00971097 -0.996782 0.0795667
-6.61782 108.823 -37.3499 0.0137725 -0.99711 0.0747071
-5.71204 108.818 -37.6117 0.00613103 -0.997808 0.0658842
-4.59177 108.807 -37.837 0.0135283 -0.996138 0.0850605
-3.55331 108.809 -38.0371 0.010934 -0.997885 0.0640752
-2.55106 108.82 -38.0132 0.00818147 -0.997933 0.0637414
-1.4222 108.828 -38.0632 0.00431999 -0.998383 0.056669
-0.480097 108.831 -38.0886 0.00523247 -0.998331 0.057516
0.475652 108.816 -38.1296 -0.00688005 -0.997467 0.0707965
1.58609 108.803 -38.1763 -0.00936238 -0.997443 0.0708521
2.92414 108.783 -38.2433 -0.00726334 -0.996803 0.0795738
3.87238 108.781 -38.1818 -0.00180711 -0.995581 0.0931907
4.85531 108.78 -38.1243 -0.00619998 -0.996559 0.0826541
5.76313 108.788 -37.9683 -0.0114701 -0.996173 0.0863574
6.89165 108.796 -37.7607 -0.0040003 -0.995041 0.0993804
7.85372 108.835 -37.6144 0.0175218 -0.996846 0.0745846
8.92577 108.852 -37.4352 0.00651582 -0.998313 0.0576976
9.83092 108.869 -37.1837 -0.000543825 -0.998771 0.0495526
10.74 108.879 -36.9418 -0.00359424 -0.99924 0.0388247
11.7313 108.88 -36.6789 -0.0164498 -0.999288 0.0338638
12.6036 108.874 -36.3668 -0.0207902 -0.999108 0.0366568
13.4735 108.867 -36.0887 -0.0199915 -0.999061 0.0384383
14.674 108.858 -35.7099 -0.0190949 -0.999167 0.0360746
15.6163 108.848 -35.2021 -0.0366829 -0.998502 0.038445
16.4353 108.851 -34.6902 0.00327565 -0.998292 0.0583243
17.3123 108.863 -34.1539 -0.023172 -0.999331 0.0282792
18.0637 108.847 -33.5278 -0.0478557 -0.998241 0.0350058
18.7117 108.842 -32.8913 -0.0412324 -0.998535 0.0344028
19.7312 108.821 -31.9643 -0.0509401 -0.998454 0.0210685
20.3632 108.798 -31.2318 -0.082601 -0.996099 0.0117586
20.9903 108.764 -30.3945 -0.0746021 -0.995998 0.04878
21.5049 108.761 -29.5875 -0.0710215 -0.996465 0.0447078
22.0393 108.768 -28.648 -0.0682319 -0.996568 0.0468708
22.6944 108.766 -27.7143 -0.0688243 -0.996654 0.0440722
23.3526 108.752 -26.9879 -0.0711383 -0.996649 0.0402046
23.9733 108.743 -25.9495 -0.0822322 -0.995955 0.0362128
24.9224 108.712 -24.7741 -0.0728566 -0.996682 0.0362811
25.5064 108.694 -24.0566 -0.0709007 -0.996831 0.0360146
26.464 108.664 -22.869 -0.0695378 -0.997281 0.0243975
27.0989 108.644 -21.6901 -0.0636276 -0.997959 0.00538068
27.5302 108.619 -20.5127 -0.020501 -0.999295 -0.031452
27.8002 108.524 -18.9996 -0.0416421 -0.995433 -0.0853456
27.9385 108.435 -18.1073 -0.042442 -0.993773 -0.102522
28.1149 108.283 -16.8474 -0.0434214 -0.992195 -0.116896
28.1988 108.096 -15.5819 -0.059294 -0.986335 -0.15371
28.5028 107.81 -14.1492 -0.100001 -0.977512 -0.183667
28.9746 107.577 -13.1207 -0.11849 -0.97599 -0.182767
29.5121 107.361 -12.3818 -0.136372 -0.971986 -0.191434
30.7382 106.992 -11.4366 -0.15305 -0.969373 -0.192074
31.6648 106.739 -10.9006 -0.147904 -0.970052 -0.192604
32.5213 106.498 -10.4526 -0.166977 -0.957717 -0.234299
33.3514 106.235 -10.0112 -0.180721 -0.948791 -0.259105
34.3859 105.871 -9.4305 -0.194445 -0.939079 -0.282586
35.2879 105.456 -8.82982 -0.234032 -0.912232 -0.336247
36.3747 104.849 -7.97381 -0.236481 -0.874347 -0.423785
36.945 104.39 -7.36731 -0.257004 -0.833406 -0.489268
37.5559 103.742 -6.50522 -0.195589 -0.830582 -0.51636
37.7911 103.067 -5.66243 -0.254251 -0.768338 -0.585323
37.795 102.319 -4.71629 -0.371559 -0.74362 -0.555854
37.6973 101.769 -3.89651 -0.383778 -0.757994 -0.527408
37.4253 101.285 -3.05078 -0.431022 -0.725096 -0.535697
36.9436 100.742 -1.83728 -0.471555 -0.730521 -0.493497
36.5646 100.484 -1.05862 -0.486477 -0.73174 -0.477382
36.1203 100.274 -0.266071 -0.546509 -0.718319 -0.430518
35.4008 100.038 1.05427 -0.559576 -0.718595 -0.412605
34.641 99.9535 2.31132 -0.592345 -0.716287 -0.368088
34.0678 99.997 3.20402 -0.625873 -0.694176 -0.354288
33.5872 100.014 4.1037 -0.646244 -0.687027 -0.332209
32.9952 100.232 4.97683 -0.69464 -0.66055 -0.284825
32.4128 100.537 5.75625 -0.719709 -0.638146 -0.273474
31.8322 100.958 6.5167 -0.744914 -0.634244 -0.206546
31.2273 101.467 7.17494 -0.727515 -0.664933 -0.169074
30.4221 102.265 7.74739 -0.709457 -0.693928 -0.0909183
29.6699 102.901 7.89492 -0.643187 -0.759806 -0.0930191
28.895 103.53 7.83217 -0.61914 -0.773654 -0.134631
28.0631 104.141 7.78448 -0.531682 -0.84166 -0.0944607
26.9131 104.836 7.88789 -0.461158 -0.887186 -0.0153166
25.9674 105.264 8.06184 -0.378708 -0.925052 -0.0292973
24.8051 105.683 8.46335 -0.308434 -0.948555 -0.0704912
23.7212 105.973 9.05938 -0.281795 -0.956398 -0.0767783
22.8006 106.197 9.56689 -0.300365 -0.948763 -0.0952253
22.0233 106.385 10.2062 -0.265879 -0.962225 -0.0585717
21.2016 106.575 10.6443 -0.249219 -0.966221 -0.0656288
20.0865 106.836 11.1254 -0.209694 -0.976658 -0.046549
19.2032 107.016 11.385 -0.18767 -0.982074 -0.0176097
17.969 107.225 11.6023 -0.148963 -0.987858 -0.0422243
17.0732 107.346 11.6979 -0.137788 -0.989799 -0.0362271
15.6839 107.479 11.9241 -0.0844488 -0.995522 -0.0424853
14.6326 107.553 11.9908 -0.0681313 -0.996143 -0.0552945
13.3608 107.619 11.9299 -0.0261451 -0.997325 -0.068224
11.8511 107.625 11.8564 0.0236476 -0.995302 -0.0935007
10.6404 107.578 11.8064 0.0794028 -0.992052 -0.0976146
9.65941 107.49 11.7432 0.115546 -0.9862 -0.117838
8.52564 107.305 11.8863 0.180683 -0.967155 -0.178389
7.34687 107.042 12.1298 0.189763 -0.958611 -0.212241
6.45892 106.848 12.2246 0.208778 -0.950184 -0.229704
5.59301 106.597 12.3853 0.192033 -0.944269 -0.267355
4.35812 106.237 12.5139 0.219832 -0.886361 -0.389658
3.19409 106.004 12.759 0.0700521 -0.917608 -0.391172
2.33305 105.873 12.9487 -0.0124804 -0.929545 -0.368498
1.11293 105.811 13.0649 -0.0138979 -0.902361 -0.42891
-0.124773 105.85 13.1362 -0.0759497 -0.913219 -0.397959
-1.51098 106.008 13.0202 -0.0705828 -0.918443 -0.389204
-3.02526 106.31 12.9458 -0.136757 -0.946036 -0.29379
-4.01117 106.56 12.603 -0.148421 -0.947286 -0.283547
-5.14728 106.839 12.278 -0.159363 -0.954628 -0.251573
-6.04556 107.036 11.9231 -0.112119 -0.972287 -0.205151
-7.19881 107.189 11.7066 -0.0742776 -0.979578 -0.186842
-8.36468 107.303 11.4879 -0.0492809 -0.984515 -0.168232
-9.40666 107.362 11.4369 -0.0294513 -0.989595 -0.140836
-10.4008 107.382 11.3853 -0.000226995 -0.989326 -0.145718
-11.434 107.387 11.3243 0.0289195 -0.993189 -0.112866
-12.6183 107.36 11.2108 0.0518022 -0.992743 -0.106963
-13.5816 107.316 11.0165 0.0776806 -0.992037 -0.0981716
-14.4736 107.256 10.8707 0.0851481 -0.989339 -0.118142
-15.3882 107.174 10.5424 0.120437 -0.98748 -0.100714
-16.4917 107.071 10.115 0.142331 -0.986914 -0.0757867
-17.5109 106.948 9.63488 0.167698 -0.982519 -0.0808306
-18.4805 106.82 8.9602 0.212373 -0.973619 -0.0833649
-19.3569 106.694 8.15996 0.227166 -0.970627 -0.0778931
-20.3289 106.5 7.49525 0.250424 -0.963139 -0.0982353
-21.2754 106.278 6.86476 0.299462 -0.950411 -0.0835817
-22.1044 106.057 6.33723 0.307398 -0.947877 -0.0838827
-22.9751 105.776 5.97038 0.360635 -0.930211 -0.0681947
-23.9806 105.39 5.65529 0.396878 -0.915698 -0.0624275
-25.1745 104.868 5.17683 0.430151 -0.902004 -0.0368553
-26.5212 104.134 4.87397 0.510713 -0.859258 -0.029136
-27.3315 103.647 4.83196 0.533736 -0.845097 -0.0170587
-28.1243 103.077 4.89033 0.66502 -0.746404 -0.0250789
-28.8554 102.398 4.88433 0.694207 -0.716778 -0.0653856
-29.8539 101.384 4.90566 0.727088 -0.682116 -0.0776923
-30.656 100.489 4.74625 0.773347 -0.628225 -0.0852533
-31.3426 99.7392 4.05338 0.785378 -0.607991 -0.116315
-31.8574 99.2979 3.15391 0.768899 -0.617308 -0.166511
-32.3222 99.002 2.28499 0.74303 -0.636184 -0.207791
-32.8658 98.7391 1.2563 0.715889 -0.659547 -0.228869
-33.3499 98.6258 0.200402 0.687957 -0.666075 -0.288199
-33.76 98.6211 -0.702156 0.660853 -0.688003 -0.299876
-34.1244 98.6668 -1.50802 0.614852 -0.695989 -0.370886
-34.4299 98.9269 -2.49611 0.59853 -0.700032 -0.389202
-34.8284 99.1592 -3.46936 0.593802 -0.692375 -0.409899
-35.3111 99.5638 -4.67263 0.546136 -0.699544 -0.460841
-35.608 99.9196 -5.48601 0.504249 -0.694989 -0.512564
-35.8265 100.374 -6.31771 0.485427 -0.697298 -0.526852
-35.966 101.047 -7.34599 0.44688 -0.726586 -0.521892
-36.0739 101.599 -8.14909 0.434939 -0.710136 -0.553647
-35.9663 102.308 -9.01914 0.404237 -0.741384 -0.53567
-35.588 102.913 -9.69893 0.365804 -0.802282 -0.471731
-35.103 103.493 -10.3457 0.370193 -0.816695 -0.442629
-34.5273 104.165 -11.1227 0.367144 -0.822148 -0.435034
-33.7996 104.891 -11.9733 0.358122 -0.840098 -0.407412
-33.0635 105.472 -12.6833 0.331234 -0.872561 -0.359056
-32.3737 105.891 -13.1169 0.307964 -0.89243 -0.329468
-31.3958 106.403 -13.6672 0.28282 -0.907269 -0.31125
-30.5984 106.761 -14.0487 0.269777 -0.92057 -0.282438
-30.2084 106.952 -14.2979 0.255006 -0.927244 -0.273585
-29.8944 107.042 -14.3331 0.240227 -0.933921 -0.264733
