-31.6064 101.462 0.00371428 0.649963 -0.737339 -0.183367
-31.1258 101.678 0.903129 0.64839 -0.742473 -0.168298
-30.2434 102.372 1.31239 0.652914 -0.745788 -0.132096
-29.2684 103.184 1.25218 0.624124 -0.773274 -0.111877
-28.4771 103.803 1.25814 0.589916 -0.800265 -0.105145
-27.3822 104.542 1.4085 0.547722 -0.830559 -0.100861
-26.6097 105.004 1.47443 0.490744 -0.866981 -0.0866855
-25.5786 105.568 1.54706 0.460056 -0.88325 -0.0885948
-24.4599 106.106 1.73104 0.427015 -0.900227 -0.080948
-23.5535 106.474 1.9773 0.381775 -0.921251 -0.0744585
-22.4627 106.88 2.34593 0.353744 -0.932093 -0.0779018
-21.5461 107.193 2.7242 0.318135 -0.945965 -0.0626303
-20.6662 107.459 3.14257 0.283959 -0.955844 -0.0681506
-19.8439 107.643 3.54387 0.25538 -0.964284 -0.0699919
-19.0419 107.824 4.00091 0.240951 -0.968394 -0.0644656
-17.9276 108.053 4.70444 0.213508 -0.97394 -0.0715494
-16.7762 108.207 5.39927 0.182316 -0.977331 -0.107542
-15.8075 108.318 5.96474 0.153107 -0.982626 -0.104447
-14.5122 108.45 6.40519 0.130965 -0.984594 -0.115861
-13.5687 108.532 6.68383 0.0893776 -0.988826 -0.119311
-12.639 108.58 6.98431 0.0890323 -0.988878 -0.119141
-11.5583 108.636 7.26618 0.0839436 -0.988918 -0.12245
-10.2145 108.676 7.48269 0.0316974 -0.985924 -0.163442
-8.88567 108.653 7.72126 0.0167654 -0.987382 -0.157244
-7.97551 108.616 7.92309 -0.0121706 -0.981239 -0.192413
-6.83862 108.542 8.18123 -0.026699 -0.97787 -0.207502
-5.62843 108.429 8.46993 -0.0533926 -0.975433 -0.213729
-4.47441 108.279 8.80529 -0.0646476 -0.970373 -0.23264
-3.22853 108.106 9.19258 -0.0662614 -0.963135 -0.259876
-1.92986 107.895 9.52362 -0.0810331 -0.949449 -0.302724
-0.862454 107.773 9.70063 -0.0382526 -0.951765 -0.304433
0.170137 107.682 9.8161 -0.0364587 -0.934624 -0.352847
1.09292 107.663 9.82745 -0.0168959 -0.939218 -0.342905
2.10313 107.731 9.69983 0.0370234 -0.940638 -0.337386
3.61372 107.916 9.39494 0.0666905 -0.953525 -0.293842
5.04881 108.119 9.16303 0.112727 -0.949162 -0.293912
6.10006 108.262 9.01507 0.104328 -0.963644 -0.245978
7.29229 108.435 8.76509 0.0882858 -0.972351 -0.21568
8.41891 108.58 8.50181 0.0488148 -0.983938 -0.171707
9.62348 108.676 8.29314 0.0469267 -0.986485 -0.156985
10.8797 108.715 8.15416 -0.00560323 -0.993901 -0.11013
11.9738 108.715 8.0935 -0.00713306 -0.993766 -0.111255
13.0042 108.698 8.0573 -0.0553723 -0.994363 -0.0849711
14.2575 108.59 8.01367 -0.0964794 -0.991619 -0.0858594
15.3093 108.489 7.95691 -0.104601 -0.990972 -0.0836334
16.6569 108.347 7.82772 -0.114644 -0.98993 -0.0830331
17.5488 108.222 7.67519 -0.155675 -0.98643 -0.0521674
18.5622 108.052 7.41618 -0.186677 -0.980256 -0.0651976
19.6726 107.865 7.05263 -0.191305 -0.979099 -0.0687828
20.7344 107.637 6.51863 -0.233041 -0.971267 -0.0482903
21.7042 107.408 6.03544 -0.25267 -0.96684 -0.0371276
22.5068 107.215 5.65653 -0.270935 -0.958944 -0.0809662
23.3792 106.981 5.3167 -0.285794 -0.955085 -0.0773726
24.7289 106.57 4.88932 -0.333783 -0.941792 -0.0402088
25.7727 106.186 4.66201 -0.388554 -0.920194 -0.0476365
26.8711 105.735 4.53629 -0.416048 -0.905897 -0.0679974
27.8841 105.226 4.46595 -0.447786 -0.891646 -0.0656537
28.8246 104.693 4.48529 -0.510804 -0.854668 -0.0928529
29.9998 103.939 4.50374 -0.548806 -0.824498 -0.134985
30.9418 103.355 4.28892 -0.572933 -0.800581 -0.173161
31.6555 102.957 3.67243 -0.615679 -0.760891 -0.203172
32.1672 102.778 2.90592 -0.595417 -0.775171 -0.209506
32.6926 102.677 2.02284 -0.551336 -0.786193 -0.279156
33.1783 102.655 1.1984 -0.525076 -0.78216 -0.335442
33.6522 102.698 0.345008 -0.527064 -0.771225 -0.355936
34.1066 102.846 -0.594008 -0.503827 -0.785007 -0.360448
34.5528 103.144 -1.65843 -0.459871 -0.773834 -0.435544
34.9278 103.648 -3.01732 -0.385522 -0.815775 -0.430812
34.9169 104.114 -3.86767 -0.320851 -0.83309 -0.446664
34.3539 104.824 -4.92894 -0.323341 -0.870501 -0.368957
33.4442 105.444 -5.73014 -0.271801 -0.895826 -0.350505
32.6945 105.796 -6.11324 -0.283313 -0.911975 -0.296708
31.385 106.37 -6.86251 -0.222359 -0.945339 -0.238516
30.5268 106.707 -7.39402 -0.186218 -0.953338 -0.237294
29.255 107.123 -8.07406 -0.196346 -0.961764 -0.189665
28.1752 107.43 -8.66115 -0.176688 -0.967938 -0.178542
27.3666 107.682 -9.37394 -0.160381 -0.974039 -0.159567
26.6993 107.907 -10.0928 -0.16327 -0.975503 -0.147432
26.1063 108.125 -10.9289 -0.138004 -0.978709 -0.151683
25.5809 108.363 -11.9961 -0.126704 -0.980871 -0.147778
25.2868 108.53 -12.8397 -0.115405 -0.981187 -0.15454
25.0078 108.71 -13.8211 -0.108042 -0.98458 -0.136952
24.8205 108.863 -14.8742 -0.100845 -0.986095 -0.131682
24.6199 109.067 -16.3292 -0.0839874 -0.988516 -0.125573
24.3627 109.219 -17.5909 -0.0608573 -0.993636 -0.094064
24.0874 109.344 -18.7629 -0.046936 -0.993934 -0.0994607
23.7007 109.452 -20.0376 -0.0291077 -0.997954 -0.05381
23.2525 109.492 -20.8802 -0.0321645 -0.99877 -0.0360262
22.6817 109.538 -21.6999 -0.0444669 -0.99889 -0.0155634
21.8313 109.586 -22.8133 -0.0370929 -0.999276 -0.00845089
21.1268 109.618 -23.6904 -0.0269469 -0.999619 -0.00599928
20.554 109.638 -24.3914 -0.0357467 -0.999313 -0.00234934
19.9689 109.654 -25.2804 -0.0510763 -0.998515 0.0189588
19.215 109.667 -26.4901 -0.0424797 -0.998773 0.0244554
18.7308 109.666 -27.2694 -0.0382474 -0.999124 0.0169627
18.1548 109.673 -28.1369 -0.036737 -0.999184 0.0167705
17.4089 109.686 -29.0401 -0.0341465 -0.999271 0.0168633
16.6149 109.695 -29.825 -0.0308062 -0.999324 0.020082
15.8101 109.704 -30.4781 -0.0256631 -0.999383 0.0239741
15.0095 109.711 -31.0496 -0.0230647 -0.99932 0.0285029
13.9914 109.709 -31.654 -0.0146808 -0.999507 0.0277675
12.8877 109.715 -32.1604 -0.0163287 -0.999549 0.0251348
11.8005 109.716 -32.5328 -0.0080156 -0.999573 0.0280861
10.6372 109.717 -32.9206 -0.0115359 -0.99945 0.030883
9.57288 109.714 -33.3153 -0.0104049 -0.999362 0.0341693
8.60992 109.713 -33.5962 -0.00831514 -0.999388 0.0339717
7.57672 109.71 -33.7807 -0.00285776 -0.999334 0.0363918
6.59097 109.709 -33.9342 -0.00567252 -0.999324 0.0363128
5.38427 109.705 -34.1752 -0.0027575 -0.999272 0.0380495
4.42244 109.701 -34.3553 -0.00307348 -0.999289 0.0375827
3.22517 109.702 -34.4324 -0.00284591 -0.999307 0.0371192
2.09336 109.704 -34.5014 -0.00501638 -0.999315 0.0366711
1.03844 109.707 -34.5172 -0.0019129 -0.999216 0.0395501
-0.170964 109.712 -34.446 -0.00143813 -0.999238 0.0390164
-1.12897 109.715 -34.3636 0.000526061 -0.999306 0.0372526
-2.28588 109.715 -34.2728 0.00419434 -0.999206 0.0396141
-3.49589 109.719 -34.1152 0.000869099 -0.999197 0.0400683
-4.79974 109.73 -33.8548 -0.00260488 -0.999035 0.043847
-5.87798 109.746 -33.5708 -7.90328e-05 -0.999143 0.0411996
-6.76629 109.754 -33.2903 0.00172373 -0.999256 0.0385027
-7.74521 109.766 -32.9275 0.00155687 -0.9993 0.0373786
-8.63051 109.778 -32.5936 0.00128925 -0.999391 0.0348754
-9.74605 109.792 -32.1097 0.00309313 -0.999395 0.0346281
-11.1321 109.811 -31.44 0.00359616 -0.999422 0.033816
-11.909 109.825 -30.9461 0.00464519 -0.999483 0.0317321
-13.0942 109.846 -30.0438 0.00685887 -0.999618 0.0264637
-14.0273 109.852 -29.2972 0.0143812 -0.999602 0.0242565
-15.1424 109.865 -28.2401 0.0131565 -0.999563 0.0264695
-16.1692 109.869 -27.3461 0.0172992 -0.999534 0.0251498
-17.2073 109.877 -26.4145 0.0175558 -0.999624 0.0199126
-17.914 109.874 -25.5868 0.0211484 -0.999664 0.0148866
-18.4891 109.866 -24.7617 0.0372997 -0.999256 0.00982063
-19.296 109.834 -23.4248 0.0397976 -0.999142 -0.0114509
-19.7157 109.805 -22.5511 0.0486555 -0.99864 -0.018687
-20.1234 109.767 -21.3588 0.0559303 -0.998364 -0.0118383
-20.3626 109.733 -20.4507 0.0592118 -0.997915 -0.0256705
-20.6682 109.669 -19.1161 0.0780229 -0.996243 -0.037571
-20.9349 109.604 -18.1015 0.083254 -0.994514 -0.062316
-21.4172 109.46 -16.6952 0.0903702 -0.993283 -0.0722392
-21.866 109.33 -15.8085 0.128108 -0.987703 -0.0896152
-22.4469 109.174 -14.9591 0.138003 -0.984823 -0.105254
-23.0959 109.002 -14.1803 0.144028 -0.981222 -0.125543
-23.9582 108.744 -13.3724 0.168355 -0.975593 -0.140742
-24.787 108.494 -12.7599 0.209023 -0.964164 -0.161725
-25.5178 108.24 -12.2995 0.215904 -0.959311 -0.181943
-26.6109 107.875 -11.741 0.239106 -0.943567 -0.228468
-27.5511 107.506 -11.284 0.256234 -0.938145 -0.232864
-28.5285 107.048 -10.7693 0.297558 -0.914358 -0.274606
-29.635 106.503 -10.2313 0.31548 -0.904727 -0.286165
-30.6154 105.971 -9.7791 0.318508 -0.882831 -0.345199
-31.428 105.382 -9.16952 0.374308 -0.847189 -0.377048
-32.1543 104.73 -8.45529 0.414415 -0.821997 -0.390616
-32.8522 103.911 -7.51603 0.401288 -0.807727 -0.431908
-33.1801 103.254 -6.64226 0.437823 -0.784453 -0.438802
-33.2671 102.744 -5.77582 0.45993 -0.772252 -0.437258
-33.1676 102.333 -4.95388 0.500358 -0.762802 -0.409603
-32.9569 101.973 -4.02605 0.507828 -0.753031 -0.418128
-32.6543 101.723 -3.05397 0.561687 -0.746999 -0.35567
-32.3349 101.553 -2.06281 0.581387 -0.760249 -0.289845
-31.979 101.461 -1.00244 0.60748 -0.755766 -0.244513
-31.7274 101.44 -0.311655 0.629454 -0.744028 -0.221494
-32.3749 100.78 -0.0330156 0.657003 -0.726115 -0.202742
-32.6687 100.821 -0.896406 0.624871 -0.725285 -0.286568
-33.1215 100.97 -2.15322 0.599124 -0.743749 -0.296458
-33.4516 101.141 -3.06678 0.551081 -0.753119 -0.359334
-33.7263 101.392 -3.94355 0.515291 -0.743261 -0.426659
-33.9459 101.725 -4.78873 0.515614 -0.743114 -0.426525
-34.1147 102.143 -5.66777 0.476962 -0.752922 -0.453448
-34.1127 102.647 -6.50335 0.451656 -0.75105 -0.48018
-33.9932 103.194 -7.30108 0.377067 -0.794135 -0.476624
-33.5141 103.98 -8.26344 0.401906 -0.808816 -0.429288
-32.9152 104.643 -9.00256 0.376432 -0.831974 -0.407574
-32.2589 105.254 -9.69821 0.354096 -0.853275 -0.382801
-31.563 105.8 -10.2997 0.350801 -0.869662 -0.3473
-30.7623 106.302 -10.8019 0.315008 -0.89885 -0.304691
-29.5898 106.853 -11.2964 0.288875 -0.911925 -0.291453
-28.7277 107.259 -11.6865 0.288458 -0.922668 -0.254819
-27.9028 107.619 -12.1347 0.268439 -0.934533 -0.233352
-27.0503 107.955 -12.5686 0.23125 -0.950856 -0.203564
-25.93 108.305 -13.1257 0.210086 -0.960075 -0.184646
-25.1845 108.541 -13.6001 0.189502 -0.9659 -0.176426
-24.3966 108.799 -14.2404 0.158688 -0.976393 -0.146543
-23.4658 109.059 -15.1595 0.124579 -0.986156 -0.109434
-22.7199 109.258 -16.1627 0.118047 -0.987843 -0.101146
-22.0808 109.457 -17.5073 0.102925 -0.991668 -0.0763907
-21.7949 109.548 -18.4214 0.0909736 -0.994255 -0.0539454
-21.5547 109.606 -19.4074 0.083699 -0.995897 -0.0344172
-21.3619 109.652 -20.3038 0.0831993 -0.996026 -0.0317678
-21.1135 109.709 -21.351 0.0722177 -0.996805 -0.0332861
-20.7217 109.758 -22.6142 0.0486643 -0.99864 -0.0186916
-20.2947 109.796 -23.6062 0.0442008 -0.9989 -0.0146524
-19.6962 109.826 -24.6151 0.041 -0.999157 -0.00205139
-19.1665 109.838 -25.4843 0.0321907 -0.999347 0.0164414
-18.4057 109.845 -26.5146 0.0319184 -0.999351 0.0166832
-17.6884 109.848 -27.246 0.0145593 -0.999554 0.0260783
-16.954 109.843 -27.8531 0.0168542 -0.999408 0.0298006
-15.9802 109.836 -28.7441 0.0179091 -0.999466 0.0273434
-14.9645 109.828 -29.73 0.0183113 -0.99946 0.0272809
-14.0023 109.82 -30.5363 0.015715 -0.999465 0.0286846
-13.295 109.81 -31.1047 0.00904171 -0.999372 0.0341831
-12.1659 109.791 -31.9312 0.00823068 -0.99945 0.0321182
-11.1836 109.775 -32.5194 0.00159203 -0.999415 0.0341619
-9.89381 109.758 -33.0921 0.00245156 -0.999418 0.0340235
-8.64259 109.741 -33.5996 0.00137533 -0.999214 0.0395174
-7.32653 109.723 -34.0998 0.000491384 -0.999264 0.0383564
-5.99293 109.704 -34.5303 -0.00312384 -0.999037 0.0437583
-4.70566 109.687 -34.8713 0.000970034 -0.9992 0.0399794
-3.52091 109.68 -35.0914 0.00102704 -0.999233 0.0391421
-2.22771 109.679 -35.2371 0.00504184 -0.99927 0.0378558
-1.20973 109.68 -35.2967 -0.000459382 -0.999272 0.0381331
0.174239 109.674 -35.4186 -0.00214195 -0.999282 0.0378279
1.46209 109.668 -35.4661 -0.00298809 -0.999196 0.0399713
2.94774 109.666 -35.3964 -0.00311891 -0.999231 0.0390801
3.95749 109.666 -35.3398 -0.00252888 -0.999259 0.0383976
4.90732 109.667 -35.2315 -0.003391 -0.999305 0.0371136
5.84114 109.67 -35.0539 -0.00380226 -0.999269 0.0380263
7.33967 109.675 -34.7562 -0.00225462 -0.999251 0.0385471
8.24226 109.68 -34.6203 -0.000509446 -0.99932 0.0367795
9.39751 109.68 -34.353 -0.00821976 -0.999287 0.036767
10.7009 109.683 -33.9148 -0.00943517 -0.99943 0.0324143
11.7479 109.687 -33.5319 -0.00639756 -0.999429 0.033171
12.7761 109.687 -33.2251 -0.0139731 -0.999462 0.029679
13.7514 109.683 -32.8313 -0.0178419 -0.999506 0.0258666
14.7872 109.676 -32.3261 -0.019881 -0.999398 0.0283267
16.0761 109.671 -31.4829 -0.0263413 -0.999304 0.0264225
17.2167 109.657 -30.5504 -0.0381598 -0.999045 0.0206211
17.8767 109.647 -29.931 -0.0456572 -0.998707 0.0223434
18.6415 109.632 -29.0636 -0.0466755 -0.998649 0.0228046
19.3638 109.622 -28.0254 -0.0478727 -0.99852 0.0257958
20.0006 109.615 -27.0353 -0.0499282 -0.998463 0.0240624
20.6167 109.606 -26.0691 -0.0455279 -0.998755 0.0195831
21.2635 109.601 -25.0631 -0.0399787 -0.998996 0.0201987
21.9285 109.593 -24.2075 -0.04734 -0.998643 0.0200752
22.5122 109.565 -23.4493 -0.0588099 -0.998261 0.00408876
23.4144 109.521 -22.3068 -0.030391 -0.999354 -0.0191919
24.2675 109.473 -21.0944 -0.0299462 -0.99938 -0.0185109
24.7422 109.412 -20.0294 -0.0437159 -0.996553 -0.0702098
24.9783 109.338 -19.1471 -0.0531157 -0.995374 -0.0794292
25.2518 109.211 -17.9879 -0.0477624 -0.993887 -0.0995394
25.4899 109.049 -16.7277 -0.0756838 -0.989868 -0.119144
25.6501 108.881 -15.581 -0.0842356 -0.988001 -0.12935
25.7872 108.733 -14.6058 -0.0940554 -0.985758 -0.13941
26.1633 108.456 -13.0608 -0.122376 -0.979644 -0.159125
26.4679 108.281 -12.2129 -0.124539 -0.980257 -0.153454
26.8692 108.096 -11.4133 -0.149669 -0.975439 -0.161608
27.6284 107.812 -10.4062 -0.150977 -0.975165 -0.162039
28.4382 107.556 -9.63111 -0.152422 -0.975029 -0.161509
29.5137 107.256 -9.00425 -0.163405 -0.968592 -0.187424
30.5673 106.963 -8.46399 -0.173208 -0.961031 -0.214374
31.5299 106.627 -7.90654 -0.20661 -0.945555 -0.251019
32.2846 106.322 -7.41308 -0.200016 -0.941767 -0.270311
33.086 105.991 -6.96756 -0.245068 -0.919402 -0.306585
33.9141 105.605 -6.54119 -0.25777 -0.908084 -0.330058
34.6762 105.183 -6.02362 -0.244478 -0.889997 -0.384885
35.4747 104.515 -5.10787 -0.288016 -0.864554 -0.411806
35.81 104.028 -4.3771 -0.353143 -0.80055 -0.484159
35.9289 103.508 -3.6037 -0.361649 -0.810331 -0.460255
35.7635 103.111 -2.72719 -0.377627 -0.814448 -0.440537
35.2535 102.524 -1.27099 -0.441183 -0.78443 -0.435922
34.7131 102.21 -0.0940985 -0.49757 -0.779327 -0.380885
34.1435 102.072 1.00412 -0.550107 -0.758448 -0.348639
33.4324 102.072 2.19768 -0.579489 -0.756754 -0.30225
32.9609 102.127 2.98419 -0.601307 -0.765267 -0.229774
32.4906 102.258 3.78065 -0.604284 -0.763121 -0.229069
31.7192 102.628 4.8117 -0.651569 -0.732214 -0.197219
30.9168 103.138 5.3512 -0.590782 -0.790736 -0.160352
30.1158 103.735 5.46718 -0.558239 -0.823419 -0.101733
29.1477 104.394 5.46219 -0.535981 -0.837517 -0.101429
28.1538 105.002 5.40659 -0.51799 -0.850966 -0.0868512
27.2921 105.462 5.41965 -0.443947 -0.894389 -0.0545868
26.2451 105.934 5.51796 -0.399253 -0.913842 -0.074093
25.4177 106.284 5.65733 -0.393906 -0.917017 -0.0608647
24.3155 106.648 5.95334 -0.319201 -0.945282 -0.0674738
23.4578 106.893 6.25759 -0.284023 -0.956846 -0.0611919
22.647 107.116 6.60294 -0.286676 -0.956385 -0.0560812
21.6394 107.373 7.10755 -0.271331 -0.960231 -0.0654322
20.7323 107.581 7.5837 -0.233154 -0.970943 -0.0539323
19.6991 107.787 8.03379 -0.195929 -0.977945 -0.0723536
18.8375 107.938 8.31977 -0.195975 -0.9786 -0.0618388
17.7322 108.122 8.60388 -0.18006 -0.980764 -0.0753736
16.8393 108.256 8.75872 -0.132645 -0.987865 -0.0776582
15.905 108.358 8.85545 -0.110564 -0.991559 -0.0675556
14.4679 108.502 8.9373 -0.0789562 -0.993616 -0.0770076
13.1298 108.592 8.97599 -0.0554627 -0.990733 -0.119558
12.0563 108.612 9.00436 -0.00714008 -0.993768 -0.111242
11.1218 108.601 9.06749 0.00603865 -0.990885 -0.134579
9.9754 108.554 9.17185 0.0477077 -0.986383 -0.155418
9.02366 108.473 9.30648 0.0556421 -0.982768 -0.176268
7.98522 108.344 9.53272 0.102185 -0.973764 -0.203327
7.06787 108.184 9.7593 0.137976 -0.963234 -0.230528
6.02594 108.006 9.95004 0.134678 -0.950475 -0.280104
5.10205 107.852 10.0653 0.120487 -0.952637 -0.279223
3.90607 107.643 10.2563 0.0838087 -0.931155 -0.35486
2.70693 107.442 10.4797 0.0944811 -0.928069 -0.360224
1.30177 107.315 10.7189 -0.0156137 -0.923269 -0.38316
0.0774208 107.342 10.7259 -0.0364573 -0.934624 -0.352846
-0.927799 107.454 10.6065 -0.0656482 -0.934513 -0.34976
-2.14852 107.64 10.4136 -0.0939718 -0.947381 -0.306005
-3.15161 107.823 10.1559 -0.0885279 -0.953676 -0.286719
-4.00944 107.966 9.90267 -0.0829946 -0.959867 -0.267893
-4.86966 108.112 9.64582 -0.0765741 -0.965737 -0.246929
-5.80327 108.236 9.36683 -0.0569172 -0.97316 -0.22298
-6.80265 108.345 9.11936 -0.0340155 -0.977742 -0.206958
-8.30174 108.451 8.77313 -0.0122206 -0.980296 -0.197155
-9.7041 108.511 8.50788 0.0176318 -0.986115 -0.165128
-10.8753 108.509 8.31948 0.0363486 -0.98743 -0.153332
-11.8764 108.498 8.14122 0.0815204 -0.988469 -0.127604
-12.9195 108.446 7.87991 0.0783339 -0.989198 -0.123799
-14.2979 108.372 7.46242 0.113444 -0.98717 -0.109353
-15.3963 108.25 7.12758 0.142488 -0.984195 -0.105155
-16.3465 108.153 6.74772 0.164889 -0.981306 -0.0962733
-17.206 108.036 6.22212 0.186848 -0.977553 -0.0969869
-18.2034 107.91 5.62368 0.22733 -0.966358 -0.116622
-19.1932 107.718 4.9757 0.23896 -0.966203 -0.0957756
-20.008 107.537 4.48013 0.254051 -0.965478 -0.0575359
-20.7935 107.355 4.07671 0.272357 -0.959904 -0.0632982
-21.658 107.09 3.67281 0.322395 -0.94414 -0.0681688
-22.7261 106.728 3.20869 0.369105 -0.927776 -0.0547134
-23.8657 106.293 2.82731 0.400272 -0.913607 -0.0639298
-25.2279 105.648 2.54691 0.448553 -0.891376 -0.0651865
-26.3542 105.042 2.40878 0.506676 -0.856992 -0.0913752
-27.3971 104.414 2.32244 0.536839 -0.837843 -0.0972954
-28.3996 103.718 2.20668 0.607578 -0.786801 -0.107758
-29.3876 102.949 2.20852 0.635856 -0.761592 -0.123511
-30.5028 101.968 2.31238 0.652914 -0.745787 -0.132097
-31.1522 101.409 2.033 0.687589 -0.709638 -0.153737
-31.742 100.998 1.35387 0.677518 -0.71749 -0.161791
-32.1852 100.809 0.480153 0.657002 -0.726116 -0.202742
-32.9089 100.11 0.528498 0.683401 -0.69236 -0.231519
-33.4089 100.214 -0.900516 0.630813 -0.707043 -0.319631
-33.753 100.327 -1.81396 0.598793 -0.717466 -0.355935
-34.1095 100.471 -2.70389 0.598775 -0.717657 -0.355579
-34.5595 100.913 -4.12098 0.528908 -0.730439 -0.432106
-34.7617 101.242 -4.93535 0.507647 -0.734188 -0.450062
-34.993 101.768 -5.95152 0.44031 -0.742037 -0.505435
-34.9895 102.376 -6.83954 0.426308 -0.750288 -0.505297
-34.8884 103 -7.68534 0.401664 -0.772767 -0.490155
-34.5041 103.652 -8.51791 0.381528 -0.810404 -0.444613
-33.8218 104.426 -9.37707 0.367743 -0.828494 -0.422101
-33.3309 104.924 -9.95518 0.356914 -0.845322 -0.397013
-32.7583 105.427 -10.5536 0.355595 -0.854499 -0.37866
-31.9882 105.995 -11.2086 0.344212 -0.870697 -0.351242
-31.2727 106.398 -11.6115 0.313468 -0.895823 -0.315021
-30.2284 106.89 -12.0482 0.289757 -0.912575 -0.288527
-29.2996 107.296 -12.4396 0.270292 -0.92555 -0.265136
-28.4591 107.674 -12.9082 0.248717 -0.935455 -0.249767
-27.6014 107.988 -13.3324 0.219183 -0.950058 -0.221424
-26.5736 108.323 -13.8531 0.205076 -0.956076 -0.209436
-25.4894 108.657 -14.5651 0.183359 -0.966738 -0.178202
-24.7473 108.871 -15.1617 0.157674 -0.980053 -0.120977
-24.0413 109.064 -15.8582 0.123477 -0.986676 -0.105875
-23.3134 109.265 -16.9284 0.120209 -0.987519 -0.101741
-22.7391 109.461 -18.4588 0.10781 -0.991595 -0.0696636
-22.481 109.527 -19.4902 0.0874535 -0.995424 -0.0385185
-22.1865 109.609 -20.8755 0.0832712 -0.995662 -0.04152
-21.8875 109.673 -22.0663 0.0716766 -0.997128 -0.0243325
-21.5672 109.723 -23.1929 0.064277 -0.997707 -0.0184247
-21.1672 109.753 -24.0337 0.0562841 -0.998415 0.000454036
-20.6073 109.781 -24.9446 0.0534572 -0.998564 0.00348236
-20.0132 109.8 -25.9288 0.0399166 -0.999005 0.0198929
-19.3758 109.809 -26.827 0.035935 -0.99925 0.0136841
-18.5864 109.82 -27.7155 0.0320218 -0.999356 0.0161796
-17.6845 109.812 -28.4802 0.0142283 -0.999394 0.0317777
-16.7208 109.806 -29.3282 0.0196147 -0.999389 0.0289002
-16.0752 109.801 -29.9667 0.0183758 -0.999451 0.0275555
-15.3565 109.795 -30.634 0.0171367 -0.999434 0.0289383
-14.6575 109.79 -31.2155 0.0174701 -0.9994 0.0298868
-13.9233 109.779 -31.8099 0.00935739 -0.999493 0.030437
-12.9863 109.765 -32.5168 0.00850235 -0.99943 0.032678
-11.92 109.749 -33.2309 0.00460144 -0.999354 0.0356006
-10.9319 109.735 -33.6987 0.00107583 -0.999226 0.0391297
-10.0567 109.72 -34.0428 0.000264525 -0.999095 0.0425353
-9.2051 109.706 -34.3881 0.00245246 -0.999006 0.044414
-8.30533 109.691 -34.7447 0.00500119 -0.998946 0.0454809
-7.23611 109.679 -35.1682 -0.00178586 -0.999016 0.0441178
-5.90936 109.656 -35.5623 0.000707439 -0.998997 0.0446186
-5.03483 109.649 -35.7888 0.00246969 -0.99912 0.0418602
-3.79246 109.643 -36.0258 0.00348284 -0.999194 0.0399832
-2.68925 109.641 -36.1787 0.00472879 -0.999263 0.0380969
-1.55241 109.644 -36.2306 0.0021715 -0.999239 0.0388711
-0.397873 109.641 -36.2975 -0.000677515 -0.999261 0.0384172
0.735335 109.632 -36.3927 -0.00816183 -0.998841 0.0474387
2.14538 109.626 -36.41 0.00212185 -0.998867 0.0475513
3.28159 109.628 -36.3463 -0.00298763 -0.999232 0.0390609
4.31652 109.625 -36.2697 -0.00874719 -0.99894 0.0452016
5.43582 109.624 -36.1345 -0.00386376 -0.998913 0.0464499
6.8122 109.635 -35.8221 -0.00210902 -0.998895 0.0469553
7.78621 109.641 -35.6092 -0.00219033 -0.999159 0.0408398
9.05862 109.644 -35.3977 -0.00753299 -0.99917 0.0398348
10.0664 109.647 -35.1352 -0.00461818 -0.999436 0.0330638
11.1595 109.652 -34.7628 -0.00868113 -0.999445 0.0321497
12.0823 109.656 -34.4141 -0.00818117 -0.99938 0.0341795
13.0308 109.656 -34.1225 -0.0121004 -0.999382 0.0328606
14.1625 109.651 -33.6894 -0.0178728 -0.99938 0.0303467
15.0756 109.646 -33.2586 -0.0187337 -0.999511 0.0249706
15.8904 109.643 -32.8017 -0.0217949 -0.999478 0.0234593
16.7257 109.637 -32.194 -0.0239956 -0.999378 0.0258373
17.6458 109.627 -31.4318 -0.0398702 -0.999072 0.0161949
18.5972 109.6 -30.538 -0.0469456 -0.998717 0.018344
19.4685 109.576 -29.5276 -0.0560011 -0.998268 0.0180118
20.1954 109.568 -28.4641 -0.0509678 -0.998202 0.0315426
20.7 109.565 -27.6914 -0.0505655 -0.998431 0.0240374
21.2677 109.557 -26.8031 -0.0512002 -0.9984 0.024017
22.0958 109.559 -25.4847 -0.0435929 -0.998683 0.0261406
23.0187 109.531 -24.3046 -0.0526944 -0.998456 0.0175629
23.6993 109.505 -23.4209 -0.0443367 -0.998967 0.00901532
24.5545 109.482 -22.3851 -0.0475359 -0.998752 0.014172
25.1423 109.453 -21.539 -0.0333846 -0.999275 -0.0182865
25.5703 109.412 -20.6519 -0.0521827 -0.996375 -0.0671913
25.8264 109.336 -19.7255 -0.0511805 -0.996332 -0.0685526
26.0325 109.252 -18.8472 -0.0560378 -0.994459 -0.0889498
26.2385 109.148 -17.9084 -0.0545426 -0.98967 -0.132327
26.3982 109.021 -16.9911 -0.0605079 -0.990094 -0.126698
26.5538 108.84 -15.7892 -0.0791857 -0.986429 -0.143408
26.6673 108.686 -14.865 -0.0885507 -0.985222 -0.146374
26.8745 108.506 -13.8541 -0.111794 -0.980214 -0.163349
27.2153 108.293 -12.8288 -0.125716 -0.977584 -0.168891
27.8146 108 -11.6303 -0.128472 -0.975195 -0.180248
28.3865 107.782 -10.9125 -0.14619 -0.973452 -0.175854
29.1594 107.554 -10.2847 -0.163608 -0.971059 -0.174001
30.2701 107.254 -9.6566 -0.157721 -0.971111 -0.178911
31.0492 107.025 -9.25236 -0.187049 -0.964383 -0.187026
32.1311 106.67 -8.60779 -0.192318 -0.955576 -0.223357
32.9428 106.386 -8.13988 -0.22668 -0.929064 -0.291938
33.8339 106.03 -7.67304 -0.220876 -0.927108 -0.302699
34.7996 105.603 -7.14477 -0.241726 -0.903958 -0.352653
35.6557 105.1 -6.44865 -0.22288 -0.898126 -0.378894
36.2787 104.558 -5.70835 -0.230925 -0.861832 -0.451575
36.7122 103.806 -4.6207 -0.280443 -0.817075 -0.503726
36.7848 103.156 -3.58398 -0.320261 -0.808019 -0.494509
36.5343 102.515 -2.3911 -0.38745 -0.774461 -0.500092
36.244 102.156 -1.61383 -0.409218 -0.772649 -0.48429
35.8669 101.859 -0.759023 -0.441087 -0.770585 -0.459802
35.3545 101.592 0.315091 -0.506252 -0.765949 -0.396271
34.7205 101.433 1.4672 -0.516514 -0.769415 -0.375784
34.0354 101.441 2.5709 -0.60524 -0.727326 -0.323544
33.37 101.547 3.69228 -0.631198 -0.726216 -0.272356
32.8407 101.708 4.55606 -0.657309 -0.722312 -0.214967
32.3125 101.97 5.28552 -0.684587 -0.689251 -0.235941
31.4029 102.579 6.12477 -0.687128 -0.700163 -0.191784
30.7155 103.129 6.41162 -0.641565 -0.749763 -0.162021
29.6811 103.904 6.43247 -0.549805 -0.827031 -0.117194
28.7101 104.569 6.38262 -0.566236 -0.816337 -0.113887
27.5553 105.267 6.3229 -0.454621 -0.886043 -0.0792412
26.6498 105.678 6.39461 -0.419615 -0.904684 -0.0735887
25.7761 106.06 6.51537 -0.402868 -0.9127 -0.0683808
24.8721 106.412 6.73365 -0.314425 -0.947456 -0.0588546
23.959 106.689 7.03599 -0.301219 -0.950762 -0.0728198
22.8662 106.992 7.52969 -0.29334 -0.95268 -0.0793209
22.0519 107.193 7.96116 -0.269225 -0.960343 -0.072527
21.0952 107.417 8.46695 -0.260216 -0.962793 -0.0728718
19.8801 107.692 8.98699 -0.237251 -0.968257 -0.078676
18.8292 107.876 9.31257 -0.167502 -0.983624 -0.0665349
17.8627 108.025 9.55121 -0.173781 -0.982194 -0.0709541
16.9757 108.153 9.69277 -0.152369 -0.986089 -0.0664289
15.691 108.311 9.80701 -0.106032 -0.991296 -0.0780347
14.5082 108.412 9.86884 -0.0604777 -0.993366 -0.0977893
13.5334 108.468 9.89191 -0.0394806 -0.993274 -0.106673
12.2257 108.494 9.94041 -0.0274654 -0.992178 -0.121774
11.1051 108.475 10.001 0.016584 -0.990445 -0.136506
10.19 108.409 10.0634 0.0625422 -0.982581 -0.174996
8.72386 108.254 10.2886 0.08861 -0.973915 -0.208896
7.47736 108.039 10.6016 0.138473 -0.961343 -0.238002
6.4104 107.819 10.8218 0.157804 -0.956647 -0.244794
5.24454 107.572 10.956 0.15513 -0.927732 -0.339481
4.167 107.355 11.1314 0.115289 -0.929397 -0.350011
2.93529 107.125 11.3431 0.0921953 -0.924254 -0.370478
2.02195 106.987 11.4983 -0.003636 -0.913522 -0.406772
1.10186 106.935 11.6354 -0.0280263 -0.916709 -0.398493
-0.0509819 106.997 11.6208 -0.076702 -0.920189 -0.383765
-1.53826 107.186 11.4556 -0.0952688 -0.932829 -0.34652
-2.77673 107.438 11.2134 -0.126791 -0.93206 -0.339214
-3.7422 107.64 10.9272 -0.11348 -0.954993 -0.274062
-4.63381 107.822 10.665 -0.109268 -0.960078 -0.256789
-5.49203 107.976 10.3998 -0.0716757 -0.969428 -0.234675
-6.53518 108.119 10.1115 -0.0493737 -0.975668 -0.213182
-7.76664 108.234 9.8341 -0.049112 -0.98025 -0.191549
-9.11451 108.344 9.56365 -0.0110573 -0.985191 -0.16864
-10.5357 108.372 9.28609 0.0109127 -0.988398 -0.151434
-11.5995 108.369 9.14847 0.0256707 -0.989727 -0.140645
-12.5425 108.342 8.9726 0.0751474 -0.989926 -0.119995
-13.6422 108.279 8.66996 0.098732 -0.987769 -0.120683
-14.686 108.206 8.3464 0.134319 -0.98198 -0.132941
-15.6205 108.121 8.03654 0.138633 -0.983064 -0.118955
-16.6979 107.99 7.57307 0.177367 -0.976092 -0.125637
-17.8364 107.835 6.91677 0.209382 -0.973427 -0.0927283
-18.6482 107.709 6.4035 0.206406 -0.971678 -0.113178
-19.598 107.546 5.79237 0.22668 -0.969623 -0.0919092
-20.4143 107.381 5.30687 0.272357 -0.959904 -0.0632989
-21.4595 107.085 4.76907 0.3331 -0.941476 -0.0516464
-22.3417 106.793 4.38229 0.342642 -0.93624 -0.0777832
-23.2154 106.485 4.00453 0.36907 -0.927651 -0.0570235
-24.102 106.107 3.71999 0.427092 -0.901589 -0.0687746
-24.989 105.691 3.54967 0.469584 -0.880049 -0.0693453
-26.0646 105.137 3.36095 0.490932 -0.867367 -0.0768861
-27.2312 104.428 3.25602 0.527157 -0.845669 -0.0833651
-28.3629 103.631 3.159 0.612444 -0.78474 -0.095365
-29.5501 102.676 3.22137 0.663194 -0.745833 -0.0625072
-30.404 101.901 3.32788 0.703916 -0.700626 -0.116731
-31.0782 101.246 3.19376 0.695151 -0.707008 -0.128986
-31.8255 100.632 2.51321 0.711997 -0.687245 -0.144063
-32.3151 100.327 1.74748 0.695602 -0.692876 -0.1899
-32.6229 100.18 1.16342 0.6834 -0.69236 -0.231521
-33.0577 99.5551 1.75699 0.711171 -0.668933 -0.216227
-32.3669 99.9464 2.96761 0.722243 -0.67087 -0.168219
-31.8819 100.308 3.6737 0.732763 -0.672039 -0.106876
-31.209 100.965 4.16194 0.733294 -0.671529 -0.106438
-30.3376 101.831 4.34088 0.701245 -0.708232 -0.0816256
-29.5575 102.586 4.20387 0.664521 -0.744218 -0.0674652
-28.3148 103.605 4.10947 0.59624 -0.801762 -0.0389052
-27.2073 104.37 4.17041 0.524905 -0.850011 -0.0436446
-26.3374 104.907 4.27089 0.528787 -0.847335 -0.0490717
-25.506 105.36 4.41233 0.47455 -0.878243 -0.0588932
-24.6194 105.795 4.55034 0.435297 -0.897267 -0.0736819
-23.7425 106.185 4.7913 0.405575 -0.910877 -0.0761242
-22.7069 106.595 5.21388 0.377015 -0.922255 -0.0854713
-21.8137 106.897 5.58398 0.330566 -0.939083 -0.0940697
-20.891 107.162 6.04743 0.306245 -0.946925 -0.0977048
-19.5681 107.439 6.87328 0.236287 -0.966606 -0.0988343
-18.6658 107.607 7.46624 0.223743 -0.970284 -0.0905364
-17.3774 107.791 8.24307 0.195798 -0.974081 -0.113269
-16.3774 107.912 8.75088 0.167479 -0.979245 -0.114147
-14.9674 108.064 9.25847 0.117521 -0.986259 -0.115816
-13.5401 108.163 9.70329 0.0988092 -0.987739 -0.120863
-12.3304 108.214 9.99344 0.0542159 -0.989555 -0.133573
-11.1404 108.233 10.1305 0.0151015 -0.988342 -0.1515
-10.0109 108.218 10.3112 -0.00138986 -0.985636 -0.167852
-9.01683 108.165 10.5 -0.049707 -0.980967 -0.187702
-7.84483 108.064 10.727 -0.0491108 -0.980248 -0.191558
-6.56473 107.91 11.0074 -0.0751055 -0.969574 -0.232993
-5.63167 107.759 11.2927 -0.108788 -0.953952 -0.279537
-4.5612 107.536 11.6306 -0.11409 -0.954866 -0.27425
-3.35446 107.252 11.9764 -0.134554 -0.934211 -0.330371
-2.431 107.034 12.2195 -0.143641 -0.922927 -0.35588
-1.27143 106.781 12.4219 -0.0975147 -0.9228 -0.372734
-0.229745 106.639 12.5159 -0.0767022 -0.920189 -0.383765
0.871198 106.543 12.5779 -0.0375952 -0.928804 -0.368227
1.98296 106.598 12.3967 0.0515485 -0.924831 -0.373858
3.43151 106.85 12.1497 0.08194 -0.910781 -0.40452
4.61118 107.105 11.9664 0.149632 -0.932408 -0.328975
5.53927 107.349 11.8283 0.195117 -0.928628 -0.314541
6.50484 107.571 11.7194 0.181047 -0.938881 -0.292788
7.57503 107.829 11.5318 0.153979 -0.964283 -0.215147
8.65937 108.073 11.2387 0.123144 -0.970467 -0.203334
10.0311 108.258 10.9933 0.106558 -0.978875 -0.174495
11.2295 108.348 10.8882 0.0223129 -0.989159 -0.145142
12.2672 108.38 10.8272 0.0338615 -0.992528 -0.111703
13.1684 108.368 10.8086 -0.0202273 -0.997237 -0.0714735
14.6578 108.309 10.8129 -0.0624014 -0.994536 -0.082
16.0824 108.193 10.7162 -0.113117 -0.990111 -0.0829705
17.0974 108.072 10.6173 -0.150313 -0.9865 -0.0649439
18.0013 107.945 10.4813 -0.148272 -0.986909 -0.0634466
18.9219 107.804 10.2797 -0.168024 -0.984324 -0.0536157
19.8367 107.627 10.0136 -0.240098 -0.969161 -0.0554893
20.7067 107.431 9.71176 -0.248988 -0.965552 -0.0745051
21.7011 107.193 9.23057 -0.267495 -0.960564 -0.0759115
22.5043 106.988 8.77038 -0.285477 -0.955192 -0.0776587
23.3429 106.777 8.30877 -0.28925 -0.953392 -0.0859027
24.4903 106.461 7.77957 -0.305002 -0.949558 -0.0728938
25.4413 106.144 7.50997 -0.385626 -0.920787 -0.0571927
26.4284 105.723 7.33768 -0.428474 -0.902048 -0.0521419
27.2779 105.326 7.25377 -0.454621 -0.886043 -0.0792412
28.2572 104.752 7.28838 -0.53154 -0.837653 -0.120116
29.1956 104.099 7.34115 -0.560468 -0.819806 -0.117296
29.9453 103.569 7.3815 -0.565313 -0.812046 -0.144919
30.8654 102.799 7.34497 -0.64893 -0.745261 -0.152689
31.5503 102.205 7.03873 -0.702768 -0.691048 -0.169023
32.3898 101.58 6.27652 -0.69662 -0.684463 -0.215015
33.1702 101.137 5.29213 -0.669187 -0.697186 -0.257099
33.7091 100.948 4.46325 -0.641714 -0.708606 -0.293396
34.2553 100.832 3.52715 -0.620003 -0.725309 -0.297715
34.9057 100.79 2.51301 -0.556775 -0.758931 -0.337677
35.4094 100.824 1.72539 -0.52859 -0.751746 -0.394297
35.9885 100.984 0.718348 -0.486854 -0.772014 -0.408344
36.4263 101.18 -0.147363 -0.432296 -0.769314 -0.470399
36.9396 101.542 -1.22084 -0.409219 -0.772648 -0.484291
37.3393 102.008 -2.22974 -0.388823 -0.770766 -0.504677
37.5823 102.502 -3.11688 -0.35552 -0.763822 -0.538685
37.6771 103.079 -4.04164 -0.307432 -0.787333 -0.534408
37.6195 103.689 -4.9361 -0.279244 -0.81504 -0.507652
37.3814 104.251 -5.69917 -0.258067 -0.836002 -0.482414
36.9886 104.768 -6.47446 -0.222428 -0.87738 -0.423562
36.2967 105.262 -7.2108 -0.222881 -0.898126 -0.378894
35.5589 105.655 -7.77544 -0.218081 -0.917367 -0.332984
34.7576 106.001 -8.2566 -0.198854 -0.926104 -0.320605
34.0017 106.31 -8.65741 -0.204344 -0.94013 -0.270779
33.0031 106.643 -9.16566 -0.187219 -0.952351 -0.240666
31.9939 106.969 -9.7701 -0.169596 -0.961483 -0.216306
31.1046 107.237 -10.2949 -0.161578 -0.969335 -0.185155
30.0808 107.507 -10.8372 -0.151845 -0.971158 -0.183834
29.3082 107.716 -11.2894 -0.148231 -0.970849 -0.188296
28.4069 108.066 -12.4194 -0.144913 -0.97177 -0.186174
27.8997 108.359 -13.6275 -0.107108 -0.97587 -0.190276
27.5379 108.65 -15.039 -0.0850014 -0.979789 -0.181073
27.433 108.813 -16.0108 -0.0634939 -0.987 -0.147647
27.3021 109.008 -17.2748 -0.0417853 -0.989718 -0.136614
27.1512 109.157 -18.2912 -0.0441683 -0.992274 -0.11311
26.8674 109.281 -19.5031 -0.0326234 -0.994759 -0.0969007
26.693 109.356 -20.4369 -0.0251544 -0.997315 -0.0687767
26.1501 109.403 -21.7621 -0.0423464 -0.999001 0.0088004
25.6132 109.423 -22.6368 -0.0512462 -0.998543 0.0169047
24.8428 109.448 -23.5646 -0.053139 -0.998463 0.0157241
24.0529 109.474 -24.4578 -0.0600531 -0.997992 0.0201252
23.4628 109.492 -25.2331 -0.0547259 -0.998115 0.0261701
22.8416 109.498 -26.0372 -0.0574144 -0.99777 0.0339734
22.2134 109.503 -27.0256 -0.0596423 -0.997633 0.0341741
21.5468 109.505 -28.1209 -0.0566837 -0.997873 0.0321912
20.8865 109.508 -29.0936 -0.0579193 -0.997714 0.0348251
20.3402 109.517 -29.9186 -0.0595977 -0.997973 0.0222453
19.6265 109.544 -30.8197 -0.0595755 -0.998071 0.017326
18.9318 109.571 -31.5056 -0.0522926 -0.998484 0.016031
18.0446 109.595 -32.3135 -0.0417209 -0.998958 0.018487
17.2567 109.604 -32.9774 -0.0285659 -0.999228 0.0265706
16.484 109.61 -33.5527 -0.0261149 -0.999393 0.023049
15.507 109.616 -34.1381 -0.0170154 -0.999511 0.0262288
14.3643 109.621 -34.647 -0.0148111 -0.999525 0.0270218
13.3971 109.625 -34.9794 -0.00887608 -0.999641 0.0252766
12.2929 109.627 -35.3459 -0.00958338 -0.999621 0.0257916
11.2481 109.622 -35.724 -0.00809988 -0.999508 0.0302954
10.3298 109.62 -36.013 -0.00557019 -0.999526 0.030174
9.21101 109.611 -36.3273 0.000656973 -0.999391 0.0348906
8.2507 109.607 -36.4846 4.97807e-05 -0.999211 0.0397147
6.98117 109.592 -36.7879 0.00399158 -0.999201 0.0397681
5.67324 109.576 -37.0979 -0.00210505 -0.998608 0.0526938
4.45459 109.574 -37.2117 -0.00445905 -0.998622 0.0522916
3.34711 109.577 -37.2879 -0.00853854 -0.998587 0.0524429
2.42847 109.579 -37.346 5.05269e-05 -0.998621 0.0524965
1.12526 109.586 -37.341 -0.00767439 -0.99914 0.0406271
0.151377 109.597 -37.285 -0.00236048 -0.998947 0.0458273
-1.03944 109.604 -37.1982 -0.00299846 -0.998929 0.0461762
-2.427 109.601 -37.1912 0.0071905 -0.999012 0.0438497
-3.76431 109.599 -37.0162 0.00707627 -0.999013 0.0438435
-5.19707 109.604 -36.7718 0.00489918 -0.99883 0.0480988
-6.28324 109.615 -36.45 0.00854807 -0.998606 0.0517916
-7.64903 109.632 -36.0315 0.00352343 -0.998254 0.0589655
-8.65877 109.649 -35.6255 0.002726 -0.998503 0.0543567
-9.65654 109.668 -35.2109 -0.000655205 -0.998947 0.0458679
-10.498 109.684 -34.8813 -0.000451049 -0.999018 0.0442713
-11.3473 109.698 -34.5713 -0.000624052 -0.999092 0.0426016
-12.6123 109.72 -33.9274 0.00486599 -0.999464 0.0323787
-13.7755 109.74 -33.0989 0.00768768 -0.999436 0.0326813
-14.5558 109.752 -32.5042 0.0136063 -0.99943 0.0305965
-15.3593 109.758 -31.8526 0.0178273 -0.999367 0.0307901
-16.2824 109.765 -31.0716 0.0206167 -0.999329 0.030231
-17.165 109.771 -30.1912 0.0205575 -0.999362 0.0291976
-18.1008 109.778 -29.3416 0.0226578 -0.999256 0.0312186
-19.0246 109.783 -28.5833 0.0274296 -0.999081 0.0325133
-19.7113 109.781 -27.8944 0.0319136 -0.999207 0.0228668
-20.3914 109.766 -27.0477 0.0397144 -0.999149 0.0111177
-21.151 109.745 -25.8851 0.0537177 -0.998515 0.00910976
-21.683 109.724 -24.9893 0.054873 -0.998489 0.00196275
-22.1959 109.692 -24.1357 0.0661072 -0.997812 0.00046465
-22.5751 109.649 -23.1968 0.0750322 -0.996952 -0.0212588
-22.8748 109.598 -22.0615 0.0787826 -0.9966 -0.0241061
-23.1354 109.534 -20.9678 0.0848761 -0.995438 -0.0435114
-23.3298 109.468 -19.9096 0.0869663 -0.995319 -0.0420069
-23.5808 109.387 -18.7885 0.107993 -0.992712 -0.0534822
-23.924 109.272 -17.7661 0.110904 -0.98997 -0.0875182
-24.5278 109.097 -16.6892 0.123985 -0.985804 -0.112726
-25.6307 108.808 -15.6343 0.148829 -0.97808 -0.145197
-26.698 108.494 -14.87 0.176068 -0.966963 -0.184341
-27.483 108.249 -14.4095 0.206099 -0.953601 -0.219189
-28.3609 107.964 -13.9791 0.219179 -0.950061 -0.221418
-29.1327 107.662 -13.5726 0.25234 -0.938855 -0.234254
-29.9055 107.339 -13.2074 0.271789 -0.925023 -0.26545
-31.053 106.848 -12.7459 0.290777 -0.912257 -0.288505
-31.9096 106.436 -12.352 0.315094 -0.895356 -0.314722
-32.676 105.982 -11.8559 0.341546 -0.875577 -0.341631
-33.3749 105.465 -11.2285 0.340154 -0.873995 -0.346979
-33.9921 104.925 -10.5797 0.355566 -0.854513 -0.378657
-34.6472 104.293 -9.84712 0.360852 -0.824162 -0.436132
-35.2516 103.639 -9.10511 0.350075 -0.820084 -0.452647
-35.754 102.837 -8.13129 0.398174 -0.778507 -0.485163
-35.8873 102.002 -7.01468 0.400445 -0.74784 -0.529449
-35.8494 101.334 -6.06048 0.408924 -0.735098 -0.54058
-35.6075 100.783 -5.04387 0.451999 -0.734703 -0.505874
-35.3504 100.355 -4.14534 0.492543 -0.7386 -0.45805
-35.0918 100.018 -3.25156 0.529296 -0.733539 -0.426341
-34.6509 99.7453 -2.15153 0.598793 -0.717465 -0.355938
-34.2843 99.6397 -1.32277 0.598805 -0.717278 -0.356293
-33.9257 99.4814 -0.297521 0.630773 -0.708328 -0.316854
-33.5169 99.416 0.800204 0.692215 -0.679161 -0.243439
-33.259 99.4708 1.36026 0.703656 -0.669658 -0.236683
-33.799 98.7853 1.68509 0.701835 -0.667998 -0.245763
-34.2879 98.6755 0.690468 0.682435 -0.683148 -0.259984
-34.5981 98.8059 -0.204055 0.645628 -0.681656 -0.343781
-34.9725 98.9731 -1.16856 0.616926 -0.700786 -0.358191
-35.5627 99.2119 -2.53091 0.571187 -0.706011 -0.418454
-35.8671 99.4751 -3.36357 0.536735 -0.703173 -0.463735
-36.1447 99.8294 -4.14652 0.50161 -0.705404 -0.500791
-36.4503 100.272 -5.06695 0.467966 -0.698274 -0.541369
-36.7358 100.708 -5.89362 0.423479 -0.739346 -0.523482
-36.804 101.206 -6.62264 0.418461 -0.726491 -0.545069
-36.7875 101.967 -7.62461 0.355888 -0.758763 -0.545548
-36.5571 102.749 -8.59769 0.35427 -0.781822 -0.512977
-36.0627 103.599 -9.66726 0.343237 -0.825153 -0.448595
-35.4026 104.281 -10.4121 0.344491 -0.827465 -0.443428
-34.4615 105.153 -11.4404 0.324968 -0.852952 -0.408495
-33.5974 105.834 -12.3437 0.3129 -0.879833 -0.357753
-32.8693 106.3 -12.8852 0.303896 -0.888968 -0.342612
-31.9269 106.791 -13.3921 0.280582 -0.908091 -0.310876
-30.7898 107.288 -13.8683 0.260195 -0.921638 -0.287891
-29.8402 107.658 -14.2476 0.235854 -0.937009 -0.257643
-28.6069 108.117 -14.8596 0.213141 -0.949796 -0.228841
-27.7548 108.403 -15.3599 0.167637 -0.967979 -0.186856
-26.9391 108.633 -15.8112 0.152731 -0.97032 -0.186764
-25.882 108.914 -16.6092 0.122589 -0.982762 -0.138117
-25.2103 109.088 -17.301 0.112962 -0.985545 -0.12579
-24.7109 109.233 -18.2144 0.0909441 -0.991006 -0.0981689
-24.427 109.323 -19.07 0.0845379 -0.994529 -0.0613696
-24.1183 109.427 -20.5974 0.0902286 -0.995021 -0.0422504
-23.9193 109.498 -21.8617 0.091254 -0.995073 -0.0387608
-23.7101 109.555 -22.8286 0.0717456 -0.996934 -0.0312164
-23.4446 109.603 -23.8355 0.063662 -0.997823 -0.0172341
-22.9379 109.65 -24.7601 0.054331 -0.998438 -0.0130523
-22.2671 109.697 -25.8605 0.046695 -0.998868 -0.00367083
-21.7925 109.716 -26.6413 0.0393373 -0.9992 0.00532101
-20.945 109.736 -27.8749 0.0386619 -0.999198 0.0104304
-20.3022 109.748 -28.6072 0.0222531 -0.999501 0.0224101
-19.2825 109.743 -29.609 0.0212013 -0.999286 0.0312411
-18.4073 109.739 -30.3528 0.0227364 -0.999256 0.0311573
-17.7116 109.74 -30.923 0.0205486 -0.999453 0.0257081
-17.0725 109.733 -31.6108 0.0179095 -0.999457 0.027652
-16.2787 109.728 -32.3125 0.0179582 -0.999448 0.0279593
-15.1891 109.72 -33.1878 0.0179823 -0.999358 0.0309783
-13.9939 109.702 -34.0639 0.0104352 -0.999236 0.0376569
-12.8928 109.683 -35.0094 0.000165807 -0.999259 0.0378204
-11.7509 109.658 -35.4797 -0.00464233 -0.999203 0.0394507
-10.861 109.636 -35.8079 -0.00439226 -0.998557 0.0535237
-9.71188 109.619 -36.2256 0.00242536 -0.998702 0.0507869
-8.68389 109.595 -36.6772 -0.00173838 -0.998693 0.0510884
-7.72997 109.572 -37.0498 0.0098398 -0.99798 0.0623584
-6.64006 109.555 -37.4552 0.0132469 -0.998407 0.054836
-5.73608 109.557 -37.6601 0.0112033 -0.998631 0.0508846
-4.76604 109.553 -37.852 0.00648793 -0.998591 0.0526747
-3.76593 109.55 -38.0292 0.0120942 -0.99804 0.0614031
-2.82835 109.556 -38.1428 -0.000789622 -0.999331 0.0341052
-1.7235 109.558 -38.2545 0.00151773 -0.998965 0.0451671
-0.770386 109.559 -38.149 -0.00461868 -0.998812 0.0484512
0.577904 109.558 -38.1993 -0.000265689 -0.999373 0.0346184
1.54294 109.549 -38.2617 -0.0084065 -0.999409 0.0332832
2.60007 109.539 -38.2719 -0.00913399 -0.999336 0.0352688
3.71771 109.517 -38.2632 -0.0116392 -0.998189 0.0590176
4.8979 109.52 -38.1527 -0.00632127 -0.997798 0.0655318
5.87751 109.526 -38.0521 -0.00171399 -0.998633 0.0522358
6.83277 109.536 -37.8961 0.00991661 -0.998438 0.0549894
7.70305 109.565 -37.575 0.0348227 -0.998457 0.042638
8.63322 109.578 -37.39 0.00716439 -0.999692 0.0236873
10.1006 109.594 -37.0189 0.00447197 -0.999722 0.0231567
11.2535 109.598 -36.6863 -0.0045064 -0.999726 0.0229556
12.1032 109.6 -36.4154 -0.00550658 -0.999725 0.0227961
13.0889 109.599 -36.1362 -0.00847363 -0.99968 0.0238148
14.1194 109.596 -35.9485 -0.0120266 -0.999648 0.0232725
14.9512 109.592 -35.4925 -0.016128 -0.99963 0.0219233
15.7993 109.585 -35.0808 -0.0212346 -0.999473 0.0241098
16.6364 109.577 -34.74 -0.0235604 -0.999367 0.0263736
17.7509 109.574 -33.7282 -0.0255626 -0.999457 0.0203794
18.9066 109.553 -32.8013 -0.0351315 -0.999258 0.0157994
19.5951 109.533 -32.2317 -0.0536925 -0.998554 -0.00260073
20.2886 109.49 -31.5151 -0.0710881 -0.997363 0.00996733
21.088 109.456 -30.4965 -0.0675002 -0.997391 0.025153
21.5935 109.445 -29.7228 -0.0641924 -0.997424 0.0317863
22.101 109.443 -28.9595 -0.0599694 -0.997442 0.0389088
22.6973 109.438 -28.0618 -0.0625235 -0.997525 0.0321618
23.1615 109.435 -27.3055 -0.0605671 -0.997523 0.0357707
23.6815 109.436 -26.4339 -0.0581582 -0.997647 0.0363153
24.7003 109.421 -25.1539 -0.0602463 -0.997775 0.0275675
25.4565 109.395 -24.3541 -0.0547092 -0.998165 0.0259687
26.0432 109.383 -23.6407 -0.0522169 -0.998479 0.0176876
26.7411 109.366 -22.6889 -0.0472615 -0.998642 0.0217219
27.2716 109.365 -21.6957 -0.0472684 -0.998585 0.0243522
27.6427 109.343 -20.8532 0.00961648 -0.998689 -0.0502816
27.7676 109.293 -19.8967 -0.0113482 -0.996312 -0.0849414
28.0097 109.176 -18.6763 -0.00476597 -0.995463 -0.0950331
28.1793 109.032 -17.679 -0.0268441 -0.989308 -0.142909
28.3225 108.835 -16.3708 -0.0345591 -0.986364 -0.160907
28.3591 108.677 -15.4249 -0.0345654 -0.983116 -0.178999
28.5242 108.498 -14.548 -0.0725025 -0.970106 -0.225425
29.0002 108.205 -13.5082 -0.130536 -0.972042 -0.194803
29.6027 107.866 -12.2956 -0.142047 -0.970637 -0.193993
30.4878 107.606 -11.6629 -0.152786 -0.968324 -0.197202
31.7845 107.245 -10.9281 -0.161001 -0.969285 -0.185919
32.5951 107.041 -10.4779 -0.153471 -0.957213 -0.245336
33.4997 106.764 -9.99287 -0.178128 -0.950435 -0.25478
34.8399 106.323 -9.28515 -0.185337 -0.942052 -0.278319
35.7704 105.963 -8.79012 -0.170786 -0.93585 -0.30632
36.8268 105.472 -8.00148 -0.165942 -0.916769 -0.363316
37.43 105.075 -7.39439 -0.204768 -0.894736 -0.396885
37.9341 104.674 -6.79803 -0.240076 -0.860024 -0.450247
38.3206 104.139 -5.94412 -0.197403 -0.848984 -0.487282
38.5576 103.212 -4.7084 -0.260926 -0.782535 -0.564325
38.4652 102.219 -3.31245 -0.33904 -0.748561 -0.568301
38.1313 101.467 -2.04294 -0.386035 -0.754346 -0.530275
37.6382 100.922 -0.843101 -0.419442 -0.762851 -0.49137
37.2387 100.655 -0.0399398 -0.436279 -0.763132 -0.476688
36.6975 100.396 0.956393 -0.491822 -0.763257 -0.418986
36.1767 100.233 1.86016 -0.524489 -0.739331 -0.422257
35.4717 100.152 2.94157 -0.557027 -0.742345 -0.371196
34.9521 100.177 3.72946 -0.582539 -0.730677 -0.356007
34.3107 100.256 4.78655 -0.657897 -0.691793 -0.297645
33.7484 100.433 5.62963 -0.685899 -0.665118 -0.29523
32.9645 100.833 6.64394 -0.706963 -0.658708 -0.257401
32.3778 101.219 7.28838 -0.738488 -0.63753 -0.212763
31.391 102.105 8.12359 -0.702203 -0.69224 -0.166479
30.7727 102.762 8.33191 -0.642302 -0.763304 -0.0693883
29.8435 103.498 8.33594 -0.585892 -0.803511 -0.105357
29.0921 104.034 8.32602 -0.558295 -0.822015 -0.112235
28.1374 104.716 8.17096 -0.545141 -0.835566 -0.0306609
27.1652 105.304 8.20853 -0.523788 -0.848196 -0.0787983
25.7146 105.966 8.37803 -0.384028 -0.920481 -0.0722213
24.5327 106.379 8.6811 -0.304441 -0.949803 -0.072044
23.7412 106.582 9.08774 -0.291051 -0.952311 -0.091606
22.6855 106.852 9.75787 -0.306152 -0.948448 -0.0819595
21.8898 107.073 10.245 -0.294752 -0.953508 -0.0552052
20.9977 107.302 10.7953 -0.252289 -0.966412 -0.044832
19.9946 107.532 11.0104 -0.237589 -0.970495 -0.0395267
18.9451 107.744 11.2472 -0.193731 -0.980817 -0.0215827
17.9053 107.911 11.4374 -0.149015 -0.988137 -0.0371415
16.3949 108.102 11.6184 -0.113952 -0.991977 -0.0547149
15.513 108.189 11.7634 -0.0670609 -0.995383 -0.0686701
14.6051 108.245 11.8198 -0.0379963 -0.996776 -0.0699409
13.6565 108.284 11.8469 -0.0315737 -0.996602 -0.0751269
12.1532 108.299 11.7486 0.00707976 -0.995929 -0.08986
11.1696 108.252 11.819 0.0653713 -0.992642 -0.0979464
9.79464 108.088 11.9521 0.121141 -0.986425 -0.110864
8.64812 107.861 12.1872 0.173421 -0.966708 -0.186285
7.71675 107.639 12.5425 0.18663 -0.957481 -0.216731
6.16089 107.228 12.6336 0.240367 -0.930194 -0.277413
5.16378 106.921 12.8085 0.244332 -0.925495 -0.289072
4.11855 106.563 12.9978 0.192788 -0.873765 -0.446505
3.19854 106.387 13.1303 0.0730398 -0.908616 -0.411195
1.98553 106.241 13.3195 0.0121744 -0.909602 -0.415303
0.860581 106.179 13.443 -0.0208337 -0.910015 -0.413508
-0.0591945 106.229 13.4173 -0.0710978 -0.907335 -0.412721
-1.18313 106.368 13.3908 -0.102018 -0.911249 -0.39902
-2.52107 106.682 13.1451 -0.187122 -0.925111 -0.330386
-3.66502 107.023 12.8279 -0.168998 -0.935527 -0.309092
-4.52983 107.251 12.5497 -0.156672 -0.94479 -0.287794
-5.43373 107.482 12.2975 -0.140886 -0.956406 -0.252303
-6.31805 107.651 12.0338 -0.120946 -0.968569 -0.217363
-7.44169 107.828 11.7272 -0.090409 -0.97693 -0.193479
-8.78947 107.976 11.4585 -0.0487775 -0.983681 -0.173182
-9.84421 108.056 11.2392 -0.025722 -0.988298 -0.150353
-11.1928 108.103 11.0519 0.00218357 -0.989409 -0.144774
-12.2098 108.088 11.0105 0.05762 -0.990142 -0.127668
-13.2674 108.047 10.8096 0.0809787 -0.991147 -0.105219
-14.159 108.007 10.4919 0.0929578 -0.990228 -0.103541
-15.1451 107.934 10.215 0.101731 -0.989862 -0.099113
-16.1579 107.839 9.85769 0.15057 -0.985402 -0.0794467
-17.6051 107.659 9.14595 0.177426 -0.980664 -0.0824939
-18.5534 107.53 8.60628 0.205486 -0.974788 -0.0825891
-19.7648 107.305 7.82241 0.234401 -0.96876 -0.0809997
-20.5151 107.15 7.27985 0.274578 -0.958176 -0.0803097
-21.3871 106.938 6.7568 0.315344 -0.945265 -0.073253
-22.4237 106.591 6.32221 0.344852 -0.932218 -0.109758
-23.2043 106.317 5.99305 0.374064 -0.922909 -0.091157
-24.1204 105.961 5.61329 0.397189 -0.915845 -0.0588969
-25.0053 105.562 5.5159 0.454462 -0.889102 -0.0454063
-26.0369 105.013 5.26206 0.472951 -0.879902 -0.043549
-27.0477 104.423 5.15336 0.521024 -0.852686 -0.0382184
-28.3049 103.579 5.06923 0.600516 -0.799149 -0.0272257
-29.0145 103.003 5.03687 0.669606 -0.740626 -0.0556949
-29.8258 102.24 5.2584 0.701133 -0.711384 -0.0484395
-30.6826 101.387 5.28203 0.735157 -0.674926 -0.0461036
-31.5239 100.497 5.09147 0.748124 -0.658331 -0.0761969
-32.1293 99.8523 4.55761 0.765236 -0.626142 -0.14953
-32.7425 99.3484 3.59334 0.749422 -0.637093 -0.179028
-33.1794 99.0721 2.83928 0.734956 -0.645701 -0.206482
-33.5018 98.9138 2.2486 0.721191 -0.65295 -0.231386
-33.6681 98.8394 1.94037 0.72119 -0.652949 -0.231391
