-0.507718 109.223 10.993 -0.0561419 -0.897078 -0.438292
-1.73454 109.527 10.6206 -0.100318 -0.90632 -0.410511
-2.67046 109.744 10.2856 -0.0857139 -0.935251 -0.343451
-3.48292 109.948 9.93235 -0.0836854 -0.943461 -0.31976
-4.3552 110.117 9.57975 -0.0756453 -0.960229 -0.268773
-5.51417 110.304 9.18078 -0.0587019 -0.968299 -0.242658
-6.92089 110.499 8.70153 -0.043997 -0.975045 -0.217605
-7.77113 110.598 8.37566 -0.0114142 -0.981181 -0.192627
-9.01756 110.698 7.90356 -0.0077359 -0.982444 -0.186395
-10.1223 110.745 7.49385 0.0392947 -0.987382 -0.153238
-11.0252 110.752 7.16804 0.0608731 -0.987122 -0.147899
-12.3959 110.73 6.67489 0.0840171 -0.985505 -0.14738
-13.2644 110.693 6.31459 0.113808 -0.986037 -0.121408
-14.3703 110.618 5.78955 0.142905 -0.984699 -0.0997328
-15.2238 110.54 5.34358 0.155099 -0.981404 -0.112451
-16.2128 110.434 4.82122 0.159412 -0.981797 -0.10326
-17.1853 110.286 4.42516 0.220556 -0.971164 -0.0905272
-18.3898 110.058 3.96925 0.227742 -0.968805 -0.0968142
-19.3326 109.852 3.60816 0.272247 -0.959877 -0.0672105
-20.3181 109.598 3.12645 0.29306 -0.954356 -0.0576278
-21.2157 109.349 2.74683 0.317734 -0.945577 -0.0628687
-22.6059 108.829 2.38695 0.371148 -0.925605 -0.0741904
-23.985 108.267 2.12553 0.424393 -0.900581 -0.0929232
-24.8764 107.845 2.00074 0.446338 -0.890131 -0.0908158
-26.2292 107.166 1.84784 0.454294 -0.885159 -0.100557
-27.1198 106.661 1.7854 0.499512 -0.857714 -0.121713
-28.1984 106.032 1.78119 0.527742 -0.83553 -0.152897
-29.2666 105.351 1.83576 0.542436 -0.827436 -0.143822
-30.0128 104.817 1.96634 0.567371 -0.809864 -0.148485
-31.1332 103.962 2.23335 0.588608 -0.790917 -0.166149
-32.1038 103.164 2.45364 0.598695 -0.780924 -0.178091
-32.9116 102.473 2.5594 0.629846 -0.761527 -0.152877
-33.6001 101.983 2.25355 0.596223 -0.77969 -0.187933
-34.1523 101.779 1.51653 0.588768 -0.77748 -0.221034
-34.5889 101.732 0.673439 0.56834 -0.77685 -0.271097
-34.9529 101.788 -0.165423 0.541644 -0.76795 -0.34187
-35.3323 101.894 -0.97455 0.50346 -0.778487 -0.374573
-35.6562 102.116 -1.87352 0.466359 -0.778738 -0.419614
-35.9025 102.638 -3.08964 0.433407 -0.781411 -0.448949
-35.7542 103.283 -4.09914 0.383421 -0.803793 -0.454381
-35.4023 103.896 -4.88045 0.362613 -0.798109 -0.480895
-34.9685 104.461 -5.5407 0.376785 -0.810872 -0.447794
-34.5181 105.038 -6.2713 0.35494 -0.83961 -0.411185
-33.9822 105.636 -7.04704 0.343539 -0.850934 -0.397293
-33.1689 106.348 -7.88942 0.347723 -0.861521 -0.36996
-32.2964 106.982 -8.64163 0.322018 -0.884158 -0.33839
-31.5327 107.479 -9.23794 0.312622 -0.893568 -0.321794
-30.8161 107.878 -9.72475 0.294546 -0.909413 -0.293581
-30.0651 108.251 -10.1167 0.298925 -0.908356 -0.292461
-29.2178 108.617 -10.4588 0.279571 -0.921338 -0.270141
-28.015 109.102 -10.9413 0.254682 -0.937244 -0.238096
-27.055 109.467 -11.4038 0.233831 -0.949076 -0.211133
-26.1306 109.811 -11.9185 0.226754 -0.953481 -0.197915
-25.2334 110.129 -12.5158 0.21422 -0.95744 -0.193274
-24.2446 110.476 -13.2702 0.20176 -0.96363 -0.175243
-23.3615 110.778 -14.2096 0.168971 -0.973757 -0.152062
-22.6148 111.008 -15.0647 0.149818 -0.980131 -0.12999
-22.0234 111.194 -16.0127 0.12334 -0.985417 -0.116757
-21.5598 111.345 -16.9957 0.0886133 -0.991467 -0.095607
-21.1571 111.487 -18.1834 0.0708107 -0.994169 -0.0813194
-20.9138 111.58 -19.1017 0.0577874 -0.995543 -0.0725383
-20.614 111.668 -20.3382 0.0436447 -0.996768 -0.0670596
-20.3305 111.733 -21.3125 0.022014 -0.998402 -0.0520418
-19.8372 111.797 -22.5093 0.00779585 -0.99915 -0.0404836
-19.386 111.832 -23.3015 0.00857288 -0.999702 -0.022867
-18.8843 111.854 -24.0844 0.00851289 -0.999695 -0.0231632
-18.1115 111.87 -25.2517 -0.00323318 -0.999912 -0.0128951
-17.4519 111.874 -26.0926 -0.00680573 -0.999954 -0.00670662
-16.5441 111.873 -27.0427 -0.0113535 -0.999924 -0.00479346
-15.6983 111.867 -27.9615 -0.0126021 -0.999912 -0.00393279
-14.815 111.858 -28.7635 -0.0110408 -0.999937 -0.00203128
-14.0748 111.852 -29.4788 -0.011226 -0.99993 -0.00373788
-13.407 111.848 -30.0916 -0.0106443 -0.999934 -0.00433682
-12.5373 111.837 -30.7931 -0.0170443 -0.999855 -0.000503244
-11.6545 111.823 -31.3546 -0.0166294 -0.999862 -0.000460525
-10.4652 111.803 -31.9264 -0.0156202 -0.999876 -0.00141984
-9.17483 111.784 -32.4706 -0.0169003 -0.999852 -0.0031564
-7.84446 111.765 -32.9207 -0.0148831 -0.999882 -0.0036939
-6.63052 111.748 -33.291 -0.0158893 -0.999862 -0.00478755
-5.73824 111.735 -33.538 -0.0124982 -0.999916 -0.00355544
-4.78748 111.724 -33.738 -0.0123995 -0.999916 -0.00384192
-3.23215 111.706 -34.0058 -0.00813758 -0.999959 -0.00265039
-2.27569 111.701 -34.0757 -0.00536703 -0.999978 -0.0039459
-1.2336 111.694 -34.163 -0.00738599 -0.999967 -0.00323305
-0.080101 111.688 -34.2256 -0.0044502 -0.999978 -0.00496703
1.21398 111.684 -34.2321 -0.00180475 -0.999996 -0.00227576
2.5243 111.68 -34.2552 -0.00474567 -0.999986 -0.00241433
3.71676 111.677 -34.2048 0.000565998 -0.999996 -0.00272641
4.79169 111.678 -33.9858 0.0018135 -0.999994 -0.00281777
5.71704 111.68 -33.7748 0.00497443 -0.999987 -0.00113479
6.80582 111.687 -33.5864 0.00504199 -0.999982 -0.00289831
7.84783 111.691 -33.3992 0.00858069 -0.999946 -0.00583101
8.90576 111.696 -33.1171 0.00787574 -0.999924 -0.00917314
9.87526 111.703 -32.8149 0.00970539 -0.9999 -0.0103038
10.9072 111.709 -32.4963 0.00906622 -0.999902 -0.0106552
12.2785 111.716 -32.0433 0.00974687 -0.999873 -0.0126031
13.5502 111.717 -31.4848 0.0052784 -0.999896 -0.013382
14.9221 111.714 -30.8105 0.0034562 -0.999894 -0.014123
16.1189 111.708 -30.1623 0.00204273 -0.999887 -0.0148973
17.3408 111.69 -29.252 -0.00674734 -0.999825 -0.0168387
18.0798 111.67 -28.393 -0.00905778 -0.99988 -0.01227
18.7818 111.656 -27.5564 -0.0107067 -0.999897 -0.0087938
19.4115 111.641 -26.7645 -0.0103338 -0.999879 -0.0116438
20.0724 111.625 -25.8156 -0.00810639 -0.999934 -0.00809196
20.6535 111.616 -25.0068 -0.00535977 -0.999969 -0.00581487
21.2432 111.607 -24.2102 -0.0061801 -0.999719 -0.0192959
21.8135 111.582 -23.4901 -0.00447042 -0.999495 -0.0314669
22.4541 111.558 -22.7076 -0.000718097 -0.999576 -0.029114
23.1075 111.52 -21.918 -0.00602885 -0.998268 -0.057898
23.7098 111.477 -21.127 0.000434424 -0.997999 -0.0628898
24.2773 111.405 -20.0708 0.00162429 -0.996468 -0.0824148
24.6012 111.3 -19.0622 -0.00558671 -0.994676 -0.102896
24.7279 111.164 -18.0891 -0.0308473 -0.988767 -0.146248
24.7875 111.018 -17.1153 -0.0440996 -0.986032 -0.159491
24.8487 110.735 -15.6216 -0.0819495 -0.981491 -0.172863
24.9928 110.465 -14.2872 -0.0976114 -0.976963 -0.189586
25.3254 110.204 -13.1215 -0.110521 -0.976211 -0.186541
25.8244 109.921 -11.9221 -0.138992 -0.975216 -0.171571
26.3158 109.687 -11.0762 -0.152057 -0.974077 -0.166728
26.8524 109.475 -10.3661 -0.173905 -0.9704 -0.167573
27.7231 109.164 -9.46175 -0.18106 -0.971217 -0.154774
28.74 108.836 -8.62509 -0.18579 -0.969521 -0.15972
29.591 108.585 -8.03556 -0.172304 -0.971559 -0.162433
30.5466 108.316 -7.42753 -0.166466 -0.970541 -0.173853
31.5227 108.043 -6.90203 -0.173152 -0.967904 -0.182154
32.3557 107.805 -6.52274 -0.183537 -0.961103 -0.206384
33.5876 107.417 -5.96022 -0.21106 -0.945934 -0.246299
33.7917 107.344 -5.85566 -0.192136 -0.948855 -0.249759
34.3034 107.475 -6.69994 -0.17273 -0.951481 -0.254648
35.2139 107.153 -6.16833 -0.195257 -0.933984 -0.298808
36.1684 106.725 -5.40189 -0.19432 -0.924429 -0.326498
36.7334 106.349 -4.73066 -0.173309 -0.919709 -0.352277
37.2146 105.952 -4.02866 -0.196134 -0.897527 -0.394938
37.7366 105.351 -2.97072 -0.195004 -0.883614 -0.425677
38.0142 104.905 -2.19963 -0.213107 -0.862396 -0.459193
38.1788 104.437 -1.39724 -0.228666 -0.869669 -0.436555
38.0023 103.759 -0.0535455 -0.289019 -0.851209 -0.436665
37.4486 103.333 1.18528 -0.321887 -0.839674 -0.437419
36.9558 103.02 2.25149 -0.350784 -0.835646 -0.42185
36.4767 102.864 3.1175 -0.466139 -0.815002 -0.344218
35.759 102.781 4.40189 -0.486356 -0.822349 -0.295297
35.0718 102.814 5.59268 -0.531029 -0.811137 -0.245082
34.5004 102.979 6.39184 -0.579778 -0.792203 -0.190452
33.862 103.318 6.98234 -0.610365 -0.783413 -0.110534
33.0519 103.884 7.1987 -0.586233 -0.805186 -0.0894789
32.2827 104.406 7.11285 -0.536935 -0.835063 -0.11988
31.3245 105.022 6.94022 -0.502738 -0.857182 -0.111773
30.5022 105.532 6.71436 -0.487325 -0.865794 -0.112569
29.4387 106.147 6.42802 -0.47347 -0.873267 -0.115025
28.2664 106.797 6.13133 -0.453345 -0.885553 -0.10069
27.4426 107.201 5.96316 -0.423328 -0.902126 -0.0834402
26.3587 107.705 5.87804 -0.389876 -0.919389 -0.052153
25.1089 108.217 6.0397 -0.358414 -0.931591 -0.0573008
23.9584 108.616 6.37777 -0.334629 -0.940069 -0.0642809
22.5612 109.033 7.04112 -0.304044 -0.951027 -0.0555733
21.7747 109.249 7.43741 -0.294049 -0.953279 -0.0692433
20.6818 109.54 7.82138 -0.270898 -0.960337 -0.0660867
19.4042 109.848 8.07679 -0.220814 -0.972814 -0.069822
18.2141 110.091 8.29621 -0.199041 -0.97811 -0.060694
17.0023 110.294 8.47816 -0.1514 -0.985185 -0.0805509
15.6582 110.466 8.69811 -0.126909 -0.988785 -0.0782017
14.2402 110.574 8.96186 -0.0622227 -0.992701 -0.103311
13.1061 110.619 9.14176 -0.042641 -0.991715 -0.121172
11.6698 110.63 9.32024 0.006403 -0.992272 -0.123111
10.7431 110.576 9.51559 0.0610409 -0.987817 -0.143148
9.76608 110.476 9.85651 0.0641323 -0.981557 -0.17691
8.78531 110.318 10.1862 0.0922627 -0.974577 -0.203935
7.82084 110.136 10.4776 0.111928 -0.959346 -0.259091
6.72713 109.911 10.7542 0.150531 -0.946083 -0.286823
5.65254 109.648 11.0408 0.185783 -0.920444 -0.343901
4.80251 109.398 11.2828 0.146053 -0.914297 -0.376318
3.90699 109.153 11.4828 0.128674 -0.908026 -0.397618
2.40408 108.801 11.9162 0.113442 -0.890917 -0.436464
1.45528 108.636 12.1236 0.0350666 -0.875052 -0.482757
0.142319 108.671 12.0483 -0.0455677 -0.890959 -0.451268
-0.98976 108.891 11.7852 -0.116558 -0.896703 -0.427005
-1.98414 109.173 11.4632 -0.108706 -0.90197 -0.417722
-3.09448 109.493 11.0559 -0.117897 -0.907967 -0.402114
-4.4228 109.831 10.5186 -0.107987 -0.931492 -0.347364
-5.83808 110.11 10.0339 -0.0858197 -0.958499 -0.269935
-7.02801 110.29 9.6458 -0.0583215 -0.969184 -0.239065
-8.10041 110.425 9.23935 -0.00649868 -0.977433 -0.211144
-9.09904 110.511 8.85812 0.00119464 -0.980111 -0.198445
-9.9753 110.57 8.55825 0.00478717 -0.980121 -0.198343
-11.2901 110.599 8.09997 0.0623887 -0.987453 -0.145066
-12.26 110.579 7.75977 0.0862381 -0.985753 -0.144349
-13.1757 110.552 7.41822 0.0847536 -0.985323 -0.148173
-14.365 110.5 6.88476 0.109809 -0.983624 -0.142872
-15.4177 110.402 6.32038 0.156234 -0.981844 -0.107582
-16.3454 110.307 5.81161 0.159687 -0.981508 -0.105561
-17.2848 110.176 5.40615 0.209743 -0.973078 -0.0943527
-18.1683 110.005 5.10664 0.216543 -0.972906 -0.0810113
-19.0763 109.812 4.73656 0.237498 -0.966404 -0.0982743
-19.9578 109.616 4.34147 0.274527 -0.957453 -0.0885638
-21.0152 109.315 3.85304 0.333736 -0.937654 -0.0970795
-22.3181 108.86 3.42413 0.371031 -0.925526 -0.0757475
-23.6032 108.332 3.12882 0.412498 -0.907054 -0.0842541
-24.5391 107.915 2.97181 0.448323 -0.889175 -0.0907373
-25.8823 107.239 2.80683 0.468898 -0.878461 -0.0903472
-26.9668 106.628 2.71945 0.497052 -0.863566 -0.0848102
-27.752 106.171 2.70046 0.526467 -0.84496 -0.0919936
-28.5179 105.671 2.71999 0.543241 -0.835151 -0.0860901
-29.3138 105.156 2.77915 0.542436 -0.827436 -0.143822
-30.1684 104.519 2.97788 0.574361 -0.810607 -0.114131
-30.9468 103.925 3.18252 0.598366 -0.791483 -0.124172
-31.6725 103.337 3.37218 0.605819 -0.78641 -0.120596
-32.6925 102.477 3.54731 0.645878 -0.754032 -0.119492
-33.4293 101.855 3.51002 0.63144 -0.76105 -0.144387
-34.1746 101.389 2.91702 0.636856 -0.750602 -0.174628
-34.7343 101.183 2.03628 0.617083 -0.737568 -0.27423
-35.2851 101.107 0.983107 0.572278 -0.771712 -0.277413
-35.7974 101.194 -0.122438 0.524954 -0.770699 -0.360858
-36.2022 101.35 -1.03768 0.509477 -0.770344 -0.383411
-36.5807 101.679 -2.11106 0.478668 -0.772782 -0.416755
-36.8025 102.081 -2.97502 0.431964 -0.773092 -0.464133
-36.7921 102.717 -3.98633 0.38885 -0.770987 -0.504355
-36.5737 103.309 -4.79329 0.363076 -0.788701 -0.495101
-36.1164 103.977 -5.52702 0.345727 -0.80693 -0.478131
-35.5873 104.662 -6.37387 0.327036 -0.834849 -0.442381
-35.036 105.313 -7.2473 0.318194 -0.844435 -0.430893
-34.4562 105.892 -7.99263 0.335172 -0.852494 -0.40114
-33.6207 106.547 -8.77111 0.317771 -0.877426 -0.359207
-32.7077 107.186 -9.56558 0.308631 -0.888252 -0.339865
-31.7457 107.753 -10.2561 0.300122 -0.905067 -0.301017
-30.8145 108.241 -10.8396 0.276341 -0.915623 -0.291429
-29.9158 108.622 -11.2036 0.28199 -0.919515 -0.273814
-28.8177 109.052 -11.6209 0.258805 -0.936208 -0.23777
-27.8408 109.418 -12.0454 0.236606 -0.947406 -0.215433
-26.9298 109.749 -12.5233 0.226178 -0.951591 -0.20787
-26.1786 110.02 -12.9968 0.212178 -0.956353 -0.200923
-25.3173 110.325 -13.6395 0.192631 -0.964953 -0.178212
-24.5501 110.591 -14.3066 0.166352 -0.972552 -0.162698
-23.6741 110.88 -15.2506 0.135935 -0.981707 -0.133319
-22.8719 111.139 -16.3845 0.11017 -0.98559 -0.128353
-22.2831 111.351 -17.7142 0.0878975 -0.991233 -0.0986494
-22.0147 111.46 -18.5997 0.0702215 -0.994067 -0.0830403
-21.7098 111.59 -19.8717 0.0577834 -0.995543 -0.0725504
-21.3474 111.71 -21.3172 0.0316879 -0.997409 -0.0629151
-20.8448 111.795 -22.6614 0.0143785 -0.998697 -0.0479361
-20.3034 111.838 -23.6749 0.0089765 -0.999269 -0.0371669
-19.7571 111.862 -24.5158 -0.00198839 -0.999559 -0.0293742
-19.197 111.881 -25.3824 -0.0138468 -0.999663 -0.021968
-18.4429 111.893 -26.4447 -0.0140136 -0.999684 -0.0208768
-17.8373 111.894 -27.1181 -0.0190469 -0.999726 -0.011752
-17.033 111.884 -27.9258 -0.0171357 -0.999835 -0.00609979
-16.3699 111.878 -28.6184 -0.0126021 -0.999912 -0.00393279
-15.597 111.871 -29.3706 -0.0137022 -0.999888 -0.00607775
-14.5764 111.861 -30.352 -0.0147679 -0.999884 -0.00344205
-13.7523 111.855 -31.0779 -0.0103474 -0.999942 -0.00313423
-12.5572 111.838 -31.9749 -0.0159191 -0.999872 -0.00102212
-11.4199 111.82 -32.5581 -0.0178754 -0.999838 -0.00209147
-10.3051 111.804 -33.0255 -0.0149121 -0.999885 -0.0028828
-9.44607 111.792 -33.3885 -0.0163964 -0.99986 -0.00338611
-8.56138 111.778 -33.6866 -0.0151419 -0.99988 -0.00235363
-7.67721 111.767 -33.9741 -0.0143386 -0.999886 -0.00470391
-6.72171 111.754 -34.2397 -0.0155701 -0.999865 -0.00519879
-5.53614 111.738 -34.5576 -0.014492 -0.999879 -0.00565063
-4.32878 111.723 -34.8338 -0.0141604 -0.999856 -0.00937746
-3.32003 111.712 -35.0012 -0.00701657 -0.999914 -0.0108389
-2.33895 111.708 -35.0597 -0.00627617 -0.999941 -0.00878653
-1.24789 111.699 -35.1052 -0.00802784 -0.999937 -0.00786149
0.0334317 111.692 -35.1625 -0.00421249 -0.999977 -0.00526907
0.936395 111.689 -35.1826 -0.0029471 -0.999983 -0.00512274
1.92926 111.686 -35.1864 -0.00427606 -0.999981 -0.0043695
3.09087 111.68 -35.2058 -0.0022789 -0.999989 -0.00340178
4.14788 111.68 -35.1042 0.00020266 -0.999995 -0.00317693
5.57245 111.681 -34.7643 0.00533283 -0.999974 -0.00302614
6.67082 111.689 -34.5767 0.00698109 -0.999959 -0.0057362
7.8542 111.697 -34.4059 0.00846244 -0.999949 -0.00551365
9.04791 111.707 -34.0795 0.012041 -0.999886 -0.00886604
9.91139 111.713 -33.7913 0.0107787 -0.999886 -0.0105578
11.107 111.722 -33.4371 0.00929391 -0.999884 -0.0120686
12.2201 111.726 -33.0576 0.00845647 -0.999936 -0.00751935
13.3151 111.73 -32.7052 0.00576349 -0.999965 -0.00604632
14.3366 111.731 -32.2066 0.00543966 -0.999883 -0.0142448
15.192 111.729 -31.7694 0.00481265 -0.999871 -0.0152694
16.4802 111.723 -31.0746 0.000321846 -0.999854 -0.016744
17.3475 111.71 -30.5044 -0.00255893 -0.999853 -0.0169251
18.3182 111.686 -29.6552 -0.010684 -0.999803 -0.0166782
18.9316 111.664 -28.8711 -0.0158836 -0.999797 -0.0115271
19.8234 111.641 -27.8873 -0.0188318 -0.999777 -0.00958866
20.3862 111.628 -27.1373 -0.0143208 -0.999896 -0.00189883
20.9002 111.621 -26.3225 -0.0116892 -0.999929 0.00248183
21.4942 111.614 -25.4396 -0.00662235 -0.999956 -0.00646325
22.0737 111.604 -24.6948 -0.00973193 -0.999931 -0.00623499
22.9521 111.58 -23.5999 -0.0108279 -0.999648 -0.0242175
23.9507 111.547 -22.4001 -0.00179325 -0.999174 -0.0369513
24.8008 111.487 -21.238 0.00415288 -0.998747 -0.049867
25.3217 111.406 -20.1765 -0.00812981 -0.995433 -0.0951149
25.6617 111.24 -18.8155 0.0187856 -0.988775 -0.14823
25.7252 111.013 -17.3939 -0.0573521 -0.983298 -0.172733
25.7513 110.813 -16.3032 -0.0652453 -0.97756 -0.199579
25.8005 110.598 -15.3316 -0.0769006 -0.974352 -0.211484
25.9647 110.366 -14.2632 -0.0978277 -0.973951 -0.204572
26.2991 110.097 -13.1524 -0.108396 -0.974428 -0.196827
26.7485 109.825 -12.1535 -0.142122 -0.968909 -0.20162
27.4856 109.489 -11.0562 -0.165936 -0.965195 -0.202151
28.35 109.17 -10.1556 -0.175608 -0.969014 -0.173704
29.292 108.869 -9.38831 -0.165995 -0.970179 -0.176632
30.024 108.651 -8.88086 -0.161489 -0.970782 -0.177434
30.8241 108.429 -8.36228 -0.160194 -0.973106 -0.165537
31.9596 108.118 -7.7176 -0.164011 -0.967855 -0.190261
32.9194 107.874 -7.32044 -0.176248 -0.961216 -0.212133
33.7286 107.653 -6.97495 -0.155683 -0.957506 -0.24171
33.9836 107.837 -7.90853 -0.139119 -0.963826 -0.227346
34.8381 107.602 -7.53033 -0.154995 -0.952293 -0.262253
35.6844 107.342 -7.04106 -0.137745 -0.953393 -0.268456
36.5774 107.007 -6.40573 -0.150674 -0.929003 -0.338011
37.4163 106.499 -5.44382 -0.16546 -0.916563 -0.364054
37.9226 106.126 -4.7489 -0.161092 -0.905223 -0.393217
38.4032 105.679 -3.91637 -0.172218 -0.892581 -0.41573
38.8579 105.044 -2.79758 -0.150291 -0.873307 -0.462002
39.1185 104.483 -1.8811 -0.19301 -0.866136 -0.461025
39.1412 103.829 -0.677884 -0.206577 -0.848045 -0.487277
38.9136 103.39 0.147938 -0.221079 -0.834406 -0.504867
38.2942 102.896 1.42812 -0.284793 -0.825538 -0.483317
37.9034 102.619 2.22466 -0.360608 -0.821522 -0.441659
37.2368 102.35 3.41248 -0.416806 -0.830636 -0.368907
36.713 102.246 4.29775 -0.501484 -0.807282 -0.311103
36.1936 102.211 5.21925 -0.502622 -0.812954 -0.293459
35.4816 102.295 6.36614 -0.545891 -0.7992 -0.251558
34.9279 102.48 7.1812 -0.569424 -0.799851 -0.189367
34.3361 102.791 7.86686 -0.602897 -0.785434 -0.140029
33.6526 103.282 8.19712 -0.629896 -0.763702 -0.141388
32.9066 103.835 8.21667 -0.547 -0.826759 -0.131379
31.8739 104.546 8.03308 -0.554762 -0.825581 -0.103225
30.9401 105.156 7.83126 -0.496955 -0.863331 -0.0867384
30.1146 105.646 7.58951 -0.487739 -0.867883 -0.0942833
29.1215 106.222 7.30815 -0.459914 -0.883273 -0.0911539
28.0279 106.812 7.01406 -0.443287 -0.890313 -0.104114
26.828 107.413 6.83101 -0.429234 -0.89953 -0.0812643
25.8104 107.876 6.87748 -0.376448 -0.923667 -0.0709795
24.9563 108.209 7.05188 -0.360289 -0.928613 -0.0867941
23.8714 108.564 7.40034 -0.324086 -0.942977 -0.0757484
22.7665 108.9 7.97842 -0.325661 -0.943314 -0.0640675
21.9549 109.13 8.40213 -0.297701 -0.953183 -0.0530636
20.7302 109.464 8.80229 -0.26235 -0.963389 -0.055272
19.4481 109.776 9.0393 -0.229448 -0.971707 -0.056022
18.4027 109.997 9.2293 -0.195997 -0.978901 -0.0577824
17.4841 110.145 9.37956 -0.152931 -0.984282 -0.0883264
16.0697 110.338 9.57677 -0.134319 -0.98795 -0.0768914
15.026 110.444 9.77498 -0.0737757 -0.992229 -0.0993067
14.1374 110.484 9.95656 -0.0626717 -0.993772 -0.0921368
13.0211 110.508 10.1186 -0.0406644 -0.992756 -0.113057
11.9202 110.5 10.2503 -0.00190072 -0.986732 -0.162346
10.728 110.418 10.522 0.0688362 -0.979065 -0.191554
9.85748 110.283 10.8185 0.101258 -0.972734 -0.208653
8.62777 110.048 11.2325 0.138971 -0.959165 -0.246351
7.76855 109.861 11.4639 0.164267 -0.942353 -0.291131
6.59194 109.585 11.7421 0.187741 -0.926004 -0.323858
5.55527 109.247 12.0109 0.19117 -0.908314 -0.371937
4.31371 108.853 12.3067 0.17677 -0.902848 -0.391099
3.20371 108.536 12.5984 0.125056 -0.866617 -0.483048
2.07383 108.238 12.9292 0.0779885 -0.884011 -0.460914
0.709742 108.144 13.0259 -0.0226109 -0.890789 -0.453854
-0.301558 108.271 12.8369 -0.0843628 -0.884222 -0.456944
-1.52733 108.591 12.5552 -0.122921 -0.89117 -0.436557
-2.60339 108.927 12.193 -0.149116 -0.894928 -0.420557
-3.41326 109.187 11.8589 -0.144056 -0.913991 -0.378457
-4.27565 109.45 11.5193 -0.116395 -0.939521 -0.322107
-5.29023 109.702 11.1683 -0.126047 -0.945827 -0.298215
-6.44039 109.946 10.7987 -0.0958069 -0.95503 -0.280126
-7.33445 110.085 10.5206 -0.0630232 -0.965611 -0.252239
-8.34944 110.231 10.1373 -0.0536174 -0.968977 -0.24088
-9.5811 110.346 9.67347 -0.0045445 -0.978807 -0.204559
-10.596 110.416 9.33856 -0.0105747 -0.983123 -0.182638
-11.4826 110.449 9.02599 0.0478761 -0.983715 -0.17324
-12.6077 110.424 8.63677 0.0877225 -0.986183 -0.140524
-13.4626 110.393 8.32343 0.0911565 -0.987318 -0.129335
-14.4425 110.344 7.88682 0.112801 -0.983006 -0.14483
-15.5102 110.268 7.34877 0.157834 -0.980548 -0.116676
-16.5598 110.155 6.7846 0.178179 -0.977897 -0.109409
-17.663 109.997 6.31127 0.202415 -0.973409 -0.107252
-18.4996 109.837 6.0214 0.251442 -0.96408 -0.0855963
-19.7278 109.56 5.48471 0.26949 -0.956822 -0.10893
-20.5899 109.359 5.06361 0.309278 -0.94638 -0.0876923
-21.988 108.9 4.51601 0.336363 -0.937514 -0.0885932
-22.8406 108.559 4.25816 0.400646 -0.911312 -0.0948364
-23.6755 108.213 4.05524 0.406568 -0.909185 -0.0895382
-24.6437 107.762 3.89244 0.440404 -0.892326 -0.0989928
-25.9432 107.101 3.73554 0.481541 -0.870904 -0.098204
-27.2907 106.34 3.62812 0.50969 -0.854772 -0.0978805
-28.2584 105.744 3.64786 0.549741 -0.82908 -0.100606
-29.1015 105.166 3.70335 0.562494 -0.818432 -0.117068
-29.8599 104.611 3.87884 0.571555 -0.81223 -0.116581
-30.5726 104.062 4.06177 0.590917 -0.796551 -0.127764
-31.6283 103.222 4.34992 0.620811 -0.779704 -0.0815856
-32.5956 102.413 4.50587 0.644562 -0.757701 -0.101502
-33.4993 101.645 4.53022 0.655338 -0.743115 -0.132425
-34.3412 100.987 4.00555 0.658028 -0.735244 -0.162244
-34.9069 100.683 3.15367 0.653981 -0.736867 -0.171275
-35.4377 100.519 2.25325 0.604648 -0.746796 -0.276941
-36.0462 100.465 1.16451 0.588749 -0.7435 -0.317148
-36.527 100.569 0.117817 0.542619 -0.754 -0.369885
-36.9526 100.767 -0.838694 0.496541 -0.753091 -0.431054
-37.335 101.07 -1.85857 0.467905 -0.757879 -0.452139
-37.6721 101.604 -3.00267 0.432384 -0.764365 -0.47832
-37.7424 102.22 -3.97168 0.399466 -0.766294 -0.503211
-37.598 102.894 -4.8456 0.3473 -0.780894 -0.519218
-37.2862 103.486 -5.54673 0.331129 -0.793044 -0.511169
-36.819 104.117 -6.24673 0.291504 -0.835566 -0.465677
-36.3051 104.758 -7.09391 0.300045 -0.846938 -0.438588
-35.8369 105.297 -7.80149 0.308965 -0.852356 -0.421593
-35.1218 105.974 -8.70337 0.294335 -0.870809 -0.393432
-34.176 106.678 -9.58316 0.317768 -0.877425 -0.359212
-33.1513 107.348 -10.4293 0.307717 -0.894128 -0.32534
-32.4952 107.745 -10.937 0.284954 -0.908618 -0.30531
-31.7939 108.123 -11.4061 0.285567 -0.908451 -0.305233
-30.4267 108.71 -12.0242 0.274243 -0.921239 -0.275758
-29.1159 109.194 -12.5046 0.25847 -0.936288 -0.23782
-27.7995 109.67 -13.1034 0.223873 -0.948646 -0.222822
-27.0081 109.949 -13.5551 0.216335 -0.953647 -0.209183
-25.9602 110.328 -14.3289 0.182499 -0.964814 -0.189282
-25.073 110.637 -15.1147 0.165411 -0.971967 -0.167027
-24.3089 110.895 -15.942 0.135601 -0.979703 -0.147631
-23.7266 111.092 -16.758 0.109912 -0.985529 -0.129038
-23.2627 111.272 -17.7348 0.0951889 -0.988521 -0.115518
-22.9095 111.424 -18.8916 0.0775284 -0.99102 -0.108945
-22.6778 111.536 -19.8976 0.0557662 -0.993954 -0.0945853
-22.4228 111.648 -21.0293 0.0371381 -0.996481 -0.0751394
-22.1602 111.733 -22.0164 0.0286048 -0.99736 -0.0654636
-21.6371 111.812 -23.2887 0.0210346 -0.998425 -0.0520025
-20.9752 111.864 -24.4494 0.00117785 -0.999214 -0.0388257
-20.4299 111.888 -25.2642 -0.00529363 -0.999568 -0.0284736
-19.8307 111.907 -26.1981 -0.0123613 -0.999633 -0.0237062
-19.2436 111.915 -27.0037 -0.0130361 -0.99972 -0.0197712
-18.4726 111.91 -27.8709 -0.0226851 -0.99972 -0.00670882
-17.5255 111.898 -28.8073 -0.0175675 -0.999816 -0.00764516
-16.5775 111.889 -29.7488 -0.0176892 -0.999815 -0.00752681
-15.6964 111.878 -30.6575 -0.0145747 -0.999892 -0.00200361
-15.0294 111.87 -31.2746 -0.0128826 -0.999911 -0.00360624
-14.2865 111.863 -31.8965 -0.0140775 -0.999901 -0.000651013
-13.3437 111.85 -32.6397 -0.0128623 -0.999916 -0.00133494
-12.4868 111.839 -33.1518 -0.0153032 -0.99988 -0.00229938
-11.4971 111.824 -33.5695 -0.0165985 -0.99986 -0.00193909
-10.3226 111.807 -34.0538 -0.015604 -0.999851 -0.00744576
-9.26787 111.792 -34.4762 -0.0171605 -0.999851 -0.00186068
-8.09919 111.775 -34.8613 -0.0119849 -0.999902 -0.0062279
-6.60062 111.758 -35.2803 -0.0180801 -0.999808 -0.00760757
-5.56519 111.743 -35.5716 -0.0127159 -0.999898 -0.0061708
-4.18542 111.731 -35.8813 -0.0125349 -0.999885 -0.00836171
-2.94889 111.722 -36.0351 -0.00966675 -0.999825 -0.015966
-1.81919 111.711 -36.0372 -0.00773643 -0.999939 -0.00784542
-0.612741 111.702 -36.0899 -0.00800903 -0.999937 -0.00787717
0.335501 111.697 -36.1094 -0.0064961 -0.999958 -0.00618983
1.23948 111.692 -36.1316 -0.00353042 -0.999985 -0.00414826
2.73345 111.686 -36.1519 -0.00564956 -0.999978 -0.00354853
3.85287 111.681 -36.1016 0.000594081 -0.999998 -0.00140908
5.03577 111.683 -35.8854 0.00181028 -0.999996 -0.00213239
6.11014 111.689 -35.6286 0.00904299 -0.999952 -0.00369404
7.43195 111.699 -35.4607 0.00882761 -0.99992 -0.00865747
8.33443 111.708 -35.3187 0.0172946 -0.999752 -0.0140084
9.50438 111.722 -34.946 0.0115669 -0.999832 -0.0132836
10.3822 111.727 -34.6407 0.010734 -0.999902 -0.0090212
11.5436 111.732 -34.3026 0.00334178 -0.999967 -0.00737589
12.6339 111.734 -33.9023 0.00490984 -0.999967 -0.0064481
13.6514 111.738 -33.6559 0.0113697 -0.999883 -0.00825792
14.4676 111.747 -33.2296 0.00609722 -0.999865 -0.0152721
15.3707 111.746 -32.7851 0.00614387 -0.999868 -0.0150421
16.305 111.743 -32.298 0.00980999 -0.999712 -0.0218837
17.2305 111.734 -31.7549 -0.00237552 -0.999749 -0.0220086
18.386 111.707 -30.9131 -0.0145876 -0.999607 -0.0239215
19.2551 111.677 -30.025 -0.0170142 -0.9997 -0.0176158
19.8145 111.654 -29.2663 -0.0283805 -0.999419 -0.0173381
20.7989 111.623 -28.2747 -0.0235545 -0.999693 -0.00765622
21.4276 111.613 -27.3251 -0.0150442 -0.999885 -0.000224594
22.0785 111.607 -26.3005 -0.0128306 -0.999915 0.00249455
22.6883 111.601 -25.4838 -0.0122035 -0.999917 -0.00142874
23.2961 111.589 -24.6942 -0.0119622 -0.999913 -0.00558189
23.8872 111.578 -23.9588 -0.0113951 -0.99978 -0.0148997
24.5325 111.561 -23.2071 -0.00387723 -0.999811 -0.019051
25.2973 111.541 -22.2624 0.00142593 -0.999227 -0.0367557
25.8217 111.503 -21.4591 0.00643067 -0.998779 -0.0489466
26.2168 111.467 -20.6372 0.0123646 -0.996839 -0.0738552
26.5559 111.351 -19.533 0.00671698 -0.993496 -0.113672
26.6602 111.184 -18.4331 -0.0181381 -0.981494 -0.190632
26.6866 110.942 -17.1611 -0.0341288 -0.979637 -0.19685
26.7146 110.734 -16.2092 -0.0454303 -0.975281 -0.216249
26.7563 110.514 -15.228 -0.0575008 -0.971796 -0.228057
26.8984 110.284 -14.3099 -0.0724488 -0.971617 -0.225192
27.1548 110.065 -13.4496 -0.0988375 -0.96351 -0.246317
27.7521 109.703 -12.2485 -0.145048 -0.961736 -0.231919
28.4514 109.388 -11.3593 -0.162909 -0.965407 -0.203594
29.0879 109.153 -10.7365 -0.159571 -0.96665 -0.200313
29.8355 108.912 -10.1373 -0.161489 -0.970783 -0.177425
30.9074 108.611 -9.44068 -0.156362 -0.971627 -0.177456
31.8072 108.37 -8.88147 -0.14673 -0.972546 -0.180622
33.1081 108.048 -8.26952 -0.144303 -0.970915 -0.190703
33.7701 107.888 -7.9962 -0.139119 -0.963826 -0.227345
34.4168 107.959 -8.76714 -0.143443 -0.96838 -0.204119
33.5451 108.156 -9.10312 -0.134196 -0.971319 -0.196294
32.5331 108.391 -9.57579 -0.135065 -0.973676 -0.183118
31.5465 108.633 -10.14 -0.146356 -0.975472 -0.164421
30.7843 108.835 -10.6004 -0.16359 -0.9718 -0.169834
30.0402 109.057 -11.129 -0.192931 -0.96379 -0.184082
29.2708 109.341 -11.8111 -0.190359 -0.96192 -0.195774
28.6655 109.626 -12.5316 -0.156267 -0.957675 -0.241743
28.0874 109.974 -13.5599 -0.125225 -0.955403 -0.26744
27.7678 110.29 -14.6186 -0.0710066 -0.969966 -0.232519
27.6967 110.593 -15.8212 -0.0506705 -0.967794 -0.245794
27.6671 110.815 -16.7423 0.000332541 -0.974507 -0.224358
27.6349 111.103 -18.0228 0.00375571 -0.978814 -0.204403
27.5719 111.321 -19.2449 -0.00986669 -0.989306 -0.145523
27.3927 111.439 -20.2243 0.0183511 -0.992357 -0.122032
27.073 111.511 -21.1787 0.0338418 -0.997743 -0.058002
26.4963 111.541 -22.2508 0.0198478 -0.999541 -0.0208469
25.8444 111.56 -23.135 -0.000156634 -0.999782 -0.0205835
25.1828 111.572 -23.9103 -0.000957038 -0.999826 -0.0183995
24.4612 111.586 -24.7299 -0.00234712 -0.999929 -0.0116607
23.901 111.594 -25.4795 -0.00077796 -0.999991 0.00417831
23.242 111.593 -26.3693 -0.00547832 -0.999985 0.000980449
22.5967 111.597 -27.2808 -0.0138202 -0.999889 0.00550673
22.0214 111.602 -28.3135 -0.0166705 -0.99986 0.00150805
21.2096 111.618 -29.2772 -0.0254694 -0.999674 -0.00166219
20.3523 111.655 -30.2665 -0.0354732 -0.999182 -0.0194361
19.6775 111.686 -31.0169 -0.024155 -0.999208 -0.0316311
18.9617 111.721 -31.6545 -0.00796733 -0.999562 -0.0285081
18.2329 111.746 -32.2465 -0.00203083 -0.999413 -0.0333289
17.0439 111.767 -33.0342 0.00339269 -0.999694 -0.0235687
15.9395 111.77 -33.6171 0.00885115 -0.999655 -0.0247392
15.1344 111.768 -34.0365 0.0172225 -0.999688 -0.0171737
14.3575 111.756 -34.5086 0.0155992 -0.999868 -0.00445861
13.3182 111.739 -34.8363 0.0124375 -0.999889 8.48822e-05
12.4292 111.734 -35.1242 -0.0012997 -0.999981 -0.000314972
11.3387 111.74 -35.3997 0.00438377 -0.999965 -0.00705129
10.3658 111.736 -35.6641 0.00808171 -0.999932 -0.00786189
9.27245 111.733 -36.0744 0.00783747 -0.999834 -0.0158485
8.37802 111.722 -36.3264 0.0181657 -0.999749 -0.0131479
7.27551 111.707 -36.4655 0.0170899 -0.999846 -0.00401745
5.91457 111.69 -36.645 0.00862896 -0.99996 -0.00235715
4.69148 111.684 -36.9653 0.00174502 -0.999998 -0.000905583
3.68937 111.682 -37.0645 -0.00145106 -0.999992 -0.000409048
2.30533 111.689 -37.0945 -0.00576937 -0.999983 -0.000636114
1.10412 111.697 -37.0638 -0.00502847 -0.999982 -0.0025111
0.177569 111.703 -37.0381 -0.00779478 -0.999959 -0.00459031
-0.863044 111.715 -37.0342 -0.0176829 -0.999759 -0.00748552
-1.76373 111.725 -37.0178 -0.0117753 -0.999797 -0.0163656
-3.02335 111.738 -36.9893 -0.0119806 -0.999758 -0.0183284
-4.07771 111.745 -36.9143 -0.00753059 -0.999852 -0.0154435
-5.1672 111.752 -36.6867 -0.0120296 -0.999806 -0.015537
-6.47469 111.766 -36.3468 -0.0157273 -0.999742 -0.0164125
-7.50616 111.78 -36.0496 -0.014475 -0.999851 -0.00860926
-8.47687 111.789 -35.7605 -0.0162353 -0.999756 -0.0149679
-9.49484 111.801 -35.3825 -0.0188951 -0.999719 -0.0143268
-10.5777 111.818 -34.9562 -0.0139192 -0.999877 -0.00699223
-11.6189 111.828 -34.5519 -0.0144252 -0.999882 -0.00423096
-12.8741 111.847 -34.0663 -0.0149957 -0.999886 -0.000977662
-13.918 111.859 -33.431 -0.0115752 -0.999932 -0.00110701
-14.7408 111.87 -32.7953 -0.0145996 -0.999893 -0.000720616
-15.4618 111.879 -32.2083 -0.0140722 -0.999896 -0.00266316
-16.2569 111.89 -31.4667 -0.0173418 -0.999847 -0.0023935
-16.8995 111.899 -30.7767 -0.017426 -0.999844 -0.00286879
-17.5889 111.909 -30.0683 -0.0175529 -0.99983 -0.00519331
-18.2836 111.919 -29.4079 -0.0261763 -0.999616 -0.00914548
-19.165 111.933 -28.5217 -0.0246893 -0.999623 -0.011985
-19.8091 111.94 -27.8229 -0.0253858 -0.999426 -0.0224223
-20.3775 111.935 -27.1236 -0.017206 -0.999455 -0.0281856
-20.9257 111.921 -26.2728 -0.00763934 -0.999539 -0.0291582
-21.5761 111.894 -25.2937 -0.00431624 -0.999483 -0.0318431
-22.376 111.834 -23.9929 0.0133823 -0.998579 -0.0507947
-22.8935 111.765 -22.9061 0.0218495 -0.998419 -0.0517974
-23.1738 111.698 -22.0484 0.0353165 -0.996513 -0.0755915
-23.3937 111.61 -21.0819 0.0530783 -0.993915 -0.0965223
-23.6439 111.483 -19.9019 0.0625956 -0.992434 -0.10479
-23.8576 111.362 -18.9769 0.0732233 -0.99122 -0.110093
-24.2159 111.183 -17.851 0.105168 -0.984288 -0.141837
-24.8179 110.955 -16.7898 0.133832 -0.978894 -0.154454
-25.5548 110.706 -15.9547 0.154241 -0.972495 -0.174535
-26.266 110.459 -15.2908 0.182503 -0.9648 -0.189348
-26.9535 110.205 -14.7112 0.206565 -0.958931 -0.194379
-27.6813 109.944 -14.2297 0.215357 -0.953849 -0.209266
-28.6386 109.616 -13.7167 0.223873 -0.948646 -0.222823
-29.6845 109.247 -13.2838 0.235737 -0.942734 -0.235969
-30.6042 108.919 -12.961 0.252231 -0.933364 -0.255366
-31.6586 108.514 -12.5684 0.262036 -0.924754 -0.275919
-32.4325 108.185 -12.1823 0.270421 -0.917173 -0.291843
-33.3462 107.681 -11.5183 0.270108 -0.908795 -0.317902
-34.4864 106.986 -10.6254 0.277724 -0.894041 -0.351513
-35.4174 106.337 -9.75384 0.282754 -0.877614 -0.387097
-36.2034 105.689 -8.89087 0.274014 -0.868584 -0.412889
-36.8633 105.048 -8.01263 0.28854 -0.858397 -0.424146
-37.2897 104.537 -7.31383 0.294645 -0.841342 -0.453132
-37.7357 103.983 -6.57992 0.308929 -0.812092 -0.493402
-38.2402 103.309 -5.84095 0.29353 -0.801066 -0.521663
-38.5318 102.617 -5.054 0.331876 -0.773237 -0.539674
-38.6501 101.647 -3.84345 0.409296 -0.718916 -0.561816
-38.477 100.995 -2.78087 0.445884 -0.737045 -0.507344
-38.2325 100.612 -1.96617 0.448768 -0.74772 -0.489357
-37.7941 100.19 -0.823245 0.499584 -0.740686 -0.449221
-37.2599 99.9325 0.303124 0.555671 -0.744945 -0.369166
-36.735 99.8151 1.41791 0.582392 -0.748005 -0.31829
-36.0822 99.8875 2.59842 0.592928 -0.764858 -0.251849
-35.3436 100.135 3.8795 0.642698 -0.747082 -0.169726
-34.6022 100.561 4.9508 0.651572 -0.748783 -0.121567
-33.8484 101.159 5.48288 0.681809 -0.724886 -0.098369
-32.8252 102.09 5.51513 0.658896 -0.744549 -0.10725
-32.0874 102.733 5.39248 0.630987 -0.770043 -0.0942821
-31.0935 103.537 5.19437 0.591533 -0.800463 -0.096687
-30.2988 104.152 4.97315 0.590893 -0.800716 -0.0984563
-29.4138 104.822 4.73885 0.567253 -0.819555 -0.0809543
-28.6338 105.368 4.60961 0.561105 -0.82281 -0.0900833
-27.5416 106.091 4.5501 0.527567 -0.843081 -0.104345
-26.6743 106.605 4.59323 0.501773 -0.860233 -0.0906815
-25.819 107.089 4.6915 0.471561 -0.878324 -0.0778744
-25.0174 107.502 4.78197 0.450364 -0.889185 -0.079116
-23.7095 108.128 5.00672 0.44264 -0.894241 -0.0663552
-22.7716 108.522 5.26591 0.39148 -0.918245 -0.0597482
-21.7654 108.901 5.60588 0.329676 -0.941808 -0.065668
-20.8419 109.194 5.97232 0.309827 -0.946918 -0.0840493
-19.6717 109.482 6.60228 0.258014 -0.962797 -0.0797253
-18.6542 109.713 6.96914 0.249515 -0.964146 -0.0901848
-17.5694 109.909 7.35012 0.20416 -0.974257 -0.0956142
-16.5427 110.037 7.86975 0.175597 -0.978554 -0.107644
-15.51 110.152 8.39182 0.159793 -0.982168 -0.0990606
-14.2942 110.215 9.00625 0.106765 -0.985969 -0.12825
-13.289 110.27 9.39187 0.0911572 -0.987319 -0.129326
-12.4009 110.29 9.68988 0.0525124 -0.984787 -0.16564
-11.3087 110.273 10.0768 0.0436034 -0.984539 -0.169557
-10.0408 110.188 10.5081 -0.0136692 -0.981587 -0.190528
-8.84181 110.062 10.9757 -0.0383983 -0.974222 -0.220192
-7.99932 109.934 11.2686 -0.0655834 -0.96926 -0.237114
-7.06104 109.772 11.5691 -0.0794973 -0.95658 -0.280418
-6.21168 109.616 11.8308 -0.12605 -0.945826 -0.298219
-5.36252 109.404 12.0841 -0.139974 -0.938173 -0.316605
-4.25397 109.092 12.4759 -0.167285 -0.907176 -0.385621
-3.18628 108.7 12.9073 -0.167283 -0.899913 -0.402708
-1.89791 108.252 13.3611 -0.170272 -0.885083 -0.43317
-0.9253 107.982 13.5962 -0.0981652 -0.903693 -0.414163
-0.0302746 107.816 13.8389 -0.0512038 -0.919994 -0.388256
1.36157 107.718 13.9509 -0.0311426 -0.921579 -0.38694
2.2528 107.87 13.811 0.100453 -0.919081 -0.380985
3.56404 108.209 13.4148 0.155331 -0.919225 -0.361798
4.85494 108.612 13.0989 0.182782 -0.898308 -0.399542
5.70661 108.886 12.9038 0.227843 -0.887674 -0.398618
6.70424 109.258 12.6576 0.225653 -0.904732 -0.361304
7.88206 109.598 12.4015 0.178112 -0.941826 -0.285026
9.00685 109.873 12.1081 0.155105 -0.95683 -0.245162
10.1815 110.131 11.7074 0.100228 -0.977782 -0.184109
11.3191 110.29 11.3133 0.0415168 -0.978259 -0.203187
12.2102 110.352 11.1413 -0.00236193 -0.986726 -0.162377
13.2397 110.372 11.0519 0.0109148 -0.989616 -0.143319
14.2607 110.37 10.9051 -0.0319075 -0.991324 -0.127509
15.2671 110.322 10.7197 -0.0848821 -0.990684 -0.106491
16.2774 110.236 10.5192 -0.14543 -0.986006 -0.0806274
17.739 110.023 10.2984 -0.154741 -0.98417 -0.0863518
19.043 109.802 10.0698 -0.18646 -0.978303 -0.0903151
20.2031 109.543 9.87418 -0.237067 -0.969527 -0.0617833
21.1559 109.299 9.67428 -0.269995 -0.96102 -0.0587152
22.4333 108.924 9.227 -0.308881 -0.948566 -0.069391
23.6048 108.562 8.56955 -0.331521 -0.940212 -0.0780734
24.4127 108.299 8.16937 -0.344485 -0.934512 -0.0895423
25.2309 108.022 7.9109 -0.360285 -0.928615 -0.0867959
26.1469 107.644 7.7662 -0.395103 -0.913703 -0.0950855
27.0288 107.232 7.7781 -0.432203 -0.897945 -0.0830346
28.1689 106.656 8.0065 -0.455475 -0.886712 -0.0784449
29.2422 106.067 8.31495 -0.461825 -0.88392 -0.0735062
30.1958 105.494 8.57501 -0.493758 -0.865214 -0.0866418
30.9599 105.029 8.82343 -0.489487 -0.864809 -0.111841
32.0269 104.301 9.04723 -0.557516 -0.821552 -0.119253
32.9233 103.662 9.23044 -0.553298 -0.823391 -0.125722
34.0675 102.757 9.11396 -0.637288 -0.755231 -0.153265
34.917 102.174 8.51944 -0.626538 -0.758558 -0.178994
35.7923 101.808 7.30454 -0.589719 -0.771302 -0.239426
36.4207 101.669 6.32091 -0.555554 -0.772802 -0.306564
36.9257 101.638 5.49042 -0.509238 -0.79013 -0.341132
37.3854 101.681 4.66797 -0.464644 -0.810779 -0.351267
37.8862 101.794 3.89132 -0.424736 -0.819538 -0.384573
38.4145 101.981 2.98981 -0.370762 -0.830741 -0.415217
38.8955 102.22 2.16149 -0.334713 -0.818299 -0.467283
39.4028 102.614 1.17352 -0.320952 -0.791697 -0.519814
39.9457 103.153 0.107385 -0.221451 -0.814615 -0.534257
40.1433 103.588 -0.692148 -0.198654 -0.839359 -0.505977
40.1567 104.074 -1.45523 -0.153605 -0.846734 -0.50936
40.0184 104.598 -2.34003 -0.108985 -0.871282 -0.478528
39.7582 105.055 -3.11596 -0.127743 -0.88779 -0.441809
39.4673 105.507 -3.92745 -0.113515 -0.884747 -0.452036
39.0672 105.939 -4.76636 -0.11122 -0.912136 -0.39451
38.3573 106.492 -5.8139 -0.143293 -0.920594 -0.363281
37.743 106.871 -6.5688 -0.144296 -0.936421 -0.319427
36.9626 107.252 -7.3599 -0.129434 -0.95242 -0.275939
36.0845 107.531 -7.94561 -0.126392 -0.959239 -0.252044
35.2711 107.769 -8.3907 -0.144619 -0.958182 -0.246925
34.4459 107.952 -8.75584 -0.132574 -0.969109 -0.207653
34.4396 107.954 -8.75837 -0.143442 -0.96838 -0.204119
34.7358 108.113 -9.6509 -0.117237 -0.971498 -0.205777
33.6225 108.332 -10.1062 -0.135934 -0.976034 -0.169941
32.5112 108.591 -10.6953 -0.138487 -0.975432 -0.171326
31.4783 108.797 -11.1917 -0.165706 -0.978269 -0.118334
30.362 109.179 -12.0479 -0.204444 -0.956999 -0.205093
29.486 109.556 -12.9426 -0.20257 -0.953745 -0.222119
28.9967 109.926 -13.6885 -0.122494 -0.935141 -0.325162
28.6796 110.344 -14.9868 -0.0491665 -0.960087 -0.273813
28.7086 110.613 -16.0257 -0.0321483 -0.967556 -0.250604
28.6521 110.843 -16.9068 -0.00401428 -0.963821 -0.264632
28.5808 111.135 -18.1183 0.0445242 -0.973431 -0.224609
28.5323 111.305 -19.0353 0.0377108 -0.986578 -0.158878
28.413 111.445 -20.0487 0.0353266 -0.992413 -0.117768
28.1564 111.539 -21.0277 0.0761869 -0.993374 -0.0860501
27.7995 111.575 -21.9568 0.0414211 -0.99899 -0.0166641
27.1824 111.572 -22.9891 0.034157 -0.999314 -0.00991468
26.4433 111.566 -24.009 0.00673286 -0.999977 -0.00105516
25.4757 111.572 -24.9506 -0.013161 -0.999851 0.00511143
24.6917 111.582 -25.955 -0.0192427 -0.99974 0.0122399
24.0391 111.584 -27.006 -0.014091 -0.999842 0.00883775
23.3422 111.583 -27.9413 -0.0122165 -0.99991 0.00547665
22.9227 111.583 -28.7626 -0.0158962 -0.999847 0.00681057
22.2197 111.593 -29.7124 -0.0255359 -0.999673 -0.0016649
21.5217 111.609 -30.4103 -0.0414451 -0.999074 0.00539972
20.9086 111.639 -31.1193 -0.0557515 -0.998143 -0.0157823
19.8087 111.719 -32.1341 -0.023347 -0.999204 -0.0323606
19.0482 111.761 -32.7562 0.00899157 -0.998713 -0.0499174
18.0323 111.79 -33.5955 0.00659467 -0.999239 -0.0384491
17.1341 111.793 -34.1295 0.0192117 -0.999462 -0.0243777
16.0882 111.798 -34.6984 0.0185842 -0.999518 -0.0227119
15.1779 111.783 -35.1939 0.0268663 -0.999297 -0.0256763
14.2435 111.759 -35.6393 0.0254012 -0.999677 0.00069598
13.0925 111.736 -36.0347 0.0124376 -0.999889 9.09375e-05
12.1964 111.739 -36.2349 -0.0163027 -0.999732 -0.0164153
11.2751 111.754 -36.358 0.0117594 -0.999735 -0.0198132
10.3562 111.753 -36.7176 0.00190516 -0.999866 -0.0162069
9.31022 111.761 -37.1244 0.00347032 -0.999621 -0.0273252
7.65883 111.717 -37.4114 0.0283266 -0.999504 -0.00676737
6.67006 111.701 -37.5193 0.00788939 -0.999818 -0.0120995
5.67926 111.691 -37.7594 0.00817901 -0.999966 -0.000614496
4.57074 111.682 -37.9813 0.000814052 -0.999984 0.00558321
3.55567 111.681 -38.0428 -0.000316222 -0.999961 0.00833244
2.06811 111.694 -38.0217 -0.0128812 -0.999891 -0.0016445
1.13326 111.701 -37.9548 -0.00429278 -0.999972 -0.00509549
0.180175 111.702 -37.9544 -0.00346905 -0.999987 -0.00135827
-0.96064 111.716 -38.0214 -0.0235905 -0.999721 0.00139454
-1.96727 111.75 -37.957 -0.0174717 -0.998398 -0.0430176
-3.12697 111.762 -38.0802 -0.00965572 -0.999739 -0.0203955
-4.62961 111.758 -37.8169 -0.00350416 -0.999922 -0.00511013
-5.86704 111.775 -37.5228 -0.0230031 -0.999568 -0.0128998
-7.08663 111.79 -37.2101 -0.0167035 -0.999698 -0.0180145
-8.04132 111.798 -36.872 -0.0146847 -0.999778 -0.0149786
-9.04731 111.81 -36.5487 -0.0155214 -0.99979 -0.0133668
-10.2769 111.823 -36.0404 -0.0163254 -0.999811 -0.0105803
-11.7492 111.836 -35.5398 -0.0121309 -0.999907 -0.00624356
-12.9014 111.848 -35.2436 -0.0127585 -0.999917 2.56207e-05
-13.7552 111.857 -34.7894 -0.0111292 -0.999938 0.00014823
-14.5904 111.867 -34.252 -0.0114676 -0.999934 -0.000196629
-15.2491 111.876 -33.6569 -0.0213483 -0.999743 0.00111829
-16.0424 111.892 -32.9944 -0.0180253 -0.999792 -0.00954638
-16.9298 111.898 -32.1207 -0.00717665 -0.999965 0.00418549
-17.5742 111.921 -31.4379 -0.0295877 -0.999507 -0.0104734
-18.5348 111.928 -30.434 -0.0122575 -0.999792 -0.0162782
-19.2772 111.94 -29.7805 -0.0182939 -0.99983 0.00246647
-19.9835 111.959 -29.0549 -0.0236859 -0.999685 -0.0082882
-20.5969 111.968 -28.3965 -0.0393628 -0.999079 -0.00660834
-21.2072 111.969 -27.6926 -0.0244874 -0.999228 -0.0307178
-21.8171 111.942 -26.6765 -0.0098678 -0.999097 -0.040773
-22.7261 111.888 -25.271 0.00700688 -0.998974 -0.0447329
-23.3254 111.838 -24.3862 0.0197526 -0.998168 -0.0571895
-23.7556 111.777 -23.3894 -0.000786547 -0.997226 -0.0720021
-24.1162 111.691 -22.3464 0.0179277 -0.997126 -0.0736144
-24.3059 111.596 -21.379 0.0368488 -0.994393 -0.0991209
-24.55 111.458 -20.1004 0.0334396 -0.992846 -0.113844
-24.7659 111.334 -19.1676 0.0485163 -0.986332 -0.153355
-25.1283 111.132 -18.1158 0.083559 -0.985327 -0.148825
-25.6535 110.936 -17.2943 0.112038 -0.980639 -0.160608
-26.2264 110.726 -16.6037 0.15978 -0.968058 -0.192863
-26.9647 110.455 -15.9061 0.171688 -0.96569 -0.194849
-28.1847 110 -14.9652 0.204314 -0.954817 -0.215702
-29.4848 109.576 -14.3639 0.219159 -0.946696 -0.235349
-30.7588 109.146 -13.9032 0.234863 -0.936205 -0.260953
-32.1115 108.643 -13.3949 0.246643 -0.927821 -0.279694
-33.3952 108.096 -12.7641 0.258464 -0.91794 -0.300553
-34.1827 107.674 -12.2208 0.277083 -0.905519 -0.321343
-34.8989 107.226 -11.5638 0.250374 -0.90701 -0.338455
-35.6283 106.763 -10.9174 0.255609 -0.897396 -0.359644
-36.2853 106.293 -10.2581 0.263515 -0.881084 -0.392747
-36.9509 105.737 -9.492 0.275273 -0.86927 -0.410603
-37.4475 105.259 -8.8117 0.26321 -0.860513 -0.436162
-38.073 104.581 -7.8747 0.275454 -0.848233 -0.452199
-38.6194 103.922 -6.97363 0.267766 -0.827607 -0.490259
-39.2281 103.153 -6.12385 0.254471 -0.795829 -0.548801
-39.4669 102.04 -4.92172 0.378783 -0.693933 -0.610126
-39.5343 101.426 -4.19009 0.403641 -0.711886 -0.574546
-39.4416 100.708 -3.18417 0.440101 -0.72765 -0.526152
-39.1399 100.108 -2.09023 0.492517 -0.705085 -0.510178
-38.6206 99.6123 -0.822862 0.509276 -0.729506 -0.456453
-38.2387 99.3957 -0.0335368 0.519546 -0.738239 -0.429592
-37.8494 99.2576 0.777517 0.552912 -0.746411 -0.37035
-37.3993 99.162 1.71224 0.586632 -0.740417 -0.328095
-36.9262 99.1857 2.61615 0.622052 -0.741505 -0.251438
-36.2397 99.3834 3.70985 0.651837 -0.718253 -0.240083
-35.8295 99.534 4.5067 0.657847 -0.724082 -0.207224
-35.2339 99.8414 5.44645 0.706562 -0.691584 -0.149937
-34.5536 100.397 6.14855 0.710509 -0.695766 -0.105078
-33.6298 101.243 6.55113 0.681319 -0.728997 -0.0660828
-32.9361 101.886 6.49261 0.668007 -0.741948 -0.0572734
-31.8333 102.847 6.29066 0.634585 -0.769455 -0.0720281
-31.0221 103.508 6.14703 0.591035 -0.804234 -0.0623323
-30.1229 104.181 5.88137 0.587431 -0.80588 -0.0736151
-29.4057 104.727 5.70962 0.580492 -0.809822 -0.0836716
-28.5129 105.354 5.5521 0.559237 -0.825185 -0.0795158
-27.7578 105.861 5.47891 0.532544 -0.844007 -0.0636386
-26.6741 106.53 5.50685 0.512396 -0.856237 -0.0650051
-25.7544 107.044 5.63767 0.46013 -0.884985 -0.0712883
-24.7598 107.572 5.73425 0.45698 -0.888342 -0.0371819
-23.8533 108.003 5.93825 0.427248 -0.902925 -0.044247
-22.8283 108.434 6.25339 0.3913 -0.918356 -0.0592101
-21.8604 108.791 6.58981 0.327795 -0.941222 -0.0815549
-21.0272 109.043 6.96421 0.294473 -0.951937 -0.0840198
-20.1337 109.282 7.41386 0.275737 -0.956805 -0.0893997
-19.1122 109.507 7.84807 0.249142 -0.96373 -0.095667
-18.2281 109.689 8.13325 0.213984 -0.971431 -0.10263
-17.2301 109.838 8.62857 0.173894 -0.97989 -0.0978636
-16.2806 109.955 9.08613 0.162172 -0.981608 -0.100724
-15.2284 110.038 9.58659 0.112251 -0.986949 -0.11546
-14.3352 110.09 9.99115 0.0964126 -0.988882 -0.11321
-13.0556 110.147 10.4248 0.0528246 -0.989143 -0.135655
-11.8936 110.112 10.8653 0.0193293 -0.985432 -0.167759
-10.7306 110.051 11.2811 -0.0187012 -0.98247 -0.185478
-9.81408 109.96 11.5977 -0.0335321 -0.978695 -0.202564
-8.64561 109.786 12.042 -0.0747893 -0.969043 -0.235063
-7.3606 109.576 12.4511 -0.10247 -0.963623 -0.24684
-6.40216 109.384 12.7061 -0.139012 -0.951262 -0.274754
-5.55156 109.17 12.9638 -0.155719 -0.949335 -0.272975
-4.71477 108.89 13.2204 -0.205291 -0.914405 -0.348882
-3.72522 108.51 13.637 -0.221407 -0.890713 -0.393419
-2.9311 108.159 13.9381 -0.161418 -0.879198 -0.448281
-1.99587 107.821 14.2649 -0.156768 -0.88823 -0.431373
-0.993374 107.585 14.521 -0.0593974 -0.904513 -0.422289
0.256281 107.349 14.8672 -0.0367945 -0.908134 -0.416871
1.72493 107.382 14.815 0.0812162 -0.921845 -0.377914
2.63947 107.566 14.6234 0.112409 -0.91272 -0.392626
3.88206 107.909 14.2531 0.137864 -0.902817 -0.407327
5.17418 108.286 13.9259 0.167647 -0.880245 -0.443918
6.05178 108.606 13.7467 0.256997 -0.867001 -0.426921
6.94404 108.959 13.5795 0.2679 -0.902532 -0.337144
7.94375 109.307 13.4424 0.223503 -0.923802 -0.305229
9.32481 109.731 12.951 0.192222 -0.951411 -0.238477
10.4686 109.989 12.6398 0.116641 -0.972842 -0.198715
11.5962 110.149 12.2527 0.0465668 -0.986998 -0.15384
12.4894 110.239 12.0374 0.00659833 -0.993361 -0.114854
13.4215 110.253 11.9651 0.00329245 -0.993027 -0.117757
14.5272 110.252 11.809 -0.0306542 -0.99493 -0.0957807
15.5152 110.22 11.6603 -0.0663302 -0.995899 -0.0615262
16.649 110.12 11.458 -0.137265 -0.988728 -0.0580508
17.6341 109.982 11.29 -0.146972 -0.987996 -0.0475726
18.5224 109.829 11.1206 -0.186032 -0.981049 -0.0541776
19.753 109.588 10.9105 -0.233566 -0.970277 -0.063185
20.9955 109.271 10.7626 -0.274822 -0.959128 -0.0673888
21.8022 109.039 10.583 -0.313031 -0.947797 -0.0607667
22.6147 108.778 10.1929 -0.344182 -0.935304 -0.0819326
23.8023 108.403 9.49768 -0.354565 -0.930622 -0.090684
24.7643 108.084 9.03847 -0.34935 -0.932364 -0.0930157
25.6739 107.753 8.78824 -0.39743 -0.914056 -0.0809338
26.6732 107.337 8.66544 -0.410727 -0.909358 -0.0592516
27.5791 106.892 8.78175 -0.432907 -0.900331 -0.0443951
28.7529 106.279 9.12825 -0.482597 -0.875579 -0.0214882
29.6092 105.745 9.42388 -0.502866 -0.859308 -0.0933595
30.4307 105.232 9.69057 -0.508665 -0.855793 -0.0942239
31.1996 104.701 9.86316 -0.533531 -0.826282 -0.18056
32.0004 104.179 10.0567 -0.516782 -0.844758 -0.128544
33.1736 103.308 10.2844 -0.623013 -0.771097 -0.127673
33.9146 102.685 10.2016 -0.652384 -0.747396 -0.125303
34.6713 102.064 9.83642 -0.662967 -0.72465 -0.188035
35.4976 101.546 9.04267 -0.635286 -0.744217 -0.206283
36.2404 101.218 8.04411 -0.614123 -0.744916 -0.259554
36.8656 100.97 7.22798 -0.583902 -0.761312 -0.277816
37.499 101.052 5.99219 -0.509478 -0.791821 -0.336799
38.113 101.142 4.95883 -0.450272 -0.801747 -0.392837
38.8392 101.329 3.8329 -0.41639 -0.801306 -0.429538
39.5169 101.621 2.71553 -0.366155 -0.799439 -0.476227
40.1289 102.032 1.6357 -0.292203 -0.788103 -0.541377
