-19.3562 112.514 4.25577 0.261397 -0.961367 -0.0862808
-18.58 112.685 4.69246 0.246771 -0.964428 -0.0917286
-17.453 112.896 5.22403 0.219871 -0.97073 -0.0964018
-16.2524 113.099 5.60546 0.172384 -0.980732 -0.0903699
-15.1428 113.24 5.9959 0.144316 -0.984794 -0.0953581
-13.9104 113.372 6.44243 0.150611 -0.981907 -0.114784
-12.6794 113.464 6.86755 0.109279 -0.983462 -0.143569
-11.4564 113.516 7.28625 0.0694203 -0.982629 -0.170158
-10.5927 113.488 7.64917 0.0388157 -0.984233 -0.172566
-9.6329 113.454 8.10858 0.0428017 -0.979232 -0.198171
-8.8323 113.404 8.52215 0.0133127 -0.976275 -0.213852
-7.92689 113.287 8.99773 0.000695826 -0.972054 -0.234754
-7.00497 113.164 9.45735 -0.0147818 -0.970517 -0.24058
-6.09693 113.004 9.96824 -0.0515803 -0.961636 -0.269266
-5.15631 112.778 10.618 -0.042647 -0.961155 -0.272695
-4.25933 112.496 11.2919 -0.0774079 -0.950653 -0.300393
-3.48659 112.19 11.8709 -0.128462 -0.93141 -0.340547
-2.35453 111.688 12.6621 -0.149188 -0.905827 -0.39651
-1.59254 111.348 13.1621 -0.0791458 -0.892495 -0.443902
-0.687571 110.969 13.6858 -0.0784804 -0.863899 -0.497514
0.344994 110.62 14.1949 -0.0329402 -0.866972 -0.497267
1.71488 110.681 14.1285 0.0681779 -0.847578 -0.526274
2.62928 111.014 13.7115 0.0677827 -0.856546 -0.511301
3.42124 111.297 13.392 0.150175 -0.889864 -0.430802
4.27481 111.619 13.027 0.147719 -0.897499 -0.415083
5.2147 111.998 12.4984 0.136531 -0.903219 -0.406772
5.90361 112.327 11.9447 0.143546 -0.919587 -0.365724
6.96556 112.706 11.2261 0.110938 -0.939005 -0.325518
7.7703 112.939 10.7956 0.0867338 -0.956024 -0.279471
8.70252 113.161 10.2268 0.060781 -0.961051 -0.269603
9.8521 113.364 9.62046 0.0496023 -0.976539 -0.208132
10.7496 113.465 9.24773 0.0298222 -0.981983 -0.186379
11.7136 113.51 8.95904 -0.0115575 -0.989221 -0.14597
12.8177 113.513 8.71544 -0.0651335 -0.990275 -0.122581
13.7773 113.47 8.50139 -0.0726788 -0.989109 -0.127993
14.7079 113.41 8.33162 -0.0906075 -0.988569 -0.120506
15.8424 113.305 8.15282 -0.148946 -0.985125 -0.0856981
16.728 113.178 8.02751 -0.168465 -0.984106 -0.0544744
17.8352 112.977 7.88308 -0.186592 -0.980901 -0.0549192
18.7172 112.78 7.83262 -0.244139 -0.967801 -0.0593584
19.9095 112.48 7.68383 -0.249455 -0.965652 -0.0727265
20.9282 112.202 7.34492 -0.309399 -0.949136 -0.0584194
21.7572 111.96 6.91542 -0.319996 -0.945382 -0.060724
22.75 111.636 6.3744 -0.340598 -0.938332 -0.0593713
23.6024 111.352 5.95486 -0.362285 -0.929489 -0.0652445
24.7257 110.918 5.52988 -0.383618 -0.920742 -0.0712136
25.5901 110.551 5.31075 -0.409577 -0.909262 -0.0740947
26.58 110.132 5.22674 -0.400067 -0.909678 -0.109456
27.8883 109.514 5.34844 -0.406262 -0.904653 -0.128241
28.8523 109.025 5.62491 -0.413382 -0.896838 -0.157469
29.795 108.535 5.98371 -0.406692 -0.900871 -0.151765
30.6011 108.114 6.37406 -0.390156 -0.906335 -0.161555
31.4578 107.674 6.85183 -0.364393 -0.91949 -0.145581
32.2759 107.311 7.28379 -0.340642 -0.930494 -0.134698
33.0977 106.936 7.77119 -0.34226 -0.931887 -0.118931
33.9505 106.56 8.25871 -0.357166 -0.927565 -0.109798
34.8261 106.174 8.67175 -0.364638 -0.923579 -0.117675
35.6081 105.81 8.99942 -0.389725 -0.917589 -0.0783919
36.6922 105.306 9.29142 -0.417675 -0.900555 -0.115667
37.6466 104.856 9.41972 -0.407153 -0.901384 -0.147411
38.6384 104.453 9.1338 -0.416771 -0.893399 -0.16631
39.5398 104.243 8.39308 -0.392377 -0.872309 -0.291749
40.1977 104.196 7.74577 -0.34004 -0.869747 -0.357649
40.819 104.256 7.00692 -0.348119 -0.866575 -0.357471
40.8647 104.26 6.95304 -0.322098 -0.855278 -0.401912
41.6078 103.756 7.4292 -0.322098 -0.855278 -0.401912
42.3867 103.974 6.51428 -0.32122 -0.834827 -0.445674
42.8986 104.247 5.76833 -0.271469 -0.814562 -0.512634
43.3299 104.578 5.02493 -0.261471 -0.806589 -0.530139
43.6439 104.968 4.27427 -0.197899 -0.841612 -0.501911
43.7077 105.523 3.41072 -0.150453 -0.826046 -0.543151
43.203 106.058 2.67636 -0.0826514 -0.86363 -0.497305
42.4423 106.624 1.743 -0.0581821 -0.900912 -0.429705
41.791 107.007 0.976532 -0.0277036 -0.916048 -0.399941
40.9912 107.424 0.0215281 -0.0127666 -0.926195 -0.376796
40.0852 107.847 -1.03619 -0.0272868 -0.941467 -0.335868
39.3848 108.223 -2.00226 -0.0374133 -0.947591 -0.316196
38.8618 108.482 -2.74788 -0.051887 -0.952762 -0.299252
38.1495 108.802 -3.656 -0.0876684 -0.960779 -0.263092
37.5035 109.034 -4.33322 -0.0716591 -0.967879 -0.24099
36.5246 109.306 -5.16956 -0.0765129 -0.972847 -0.218437
35.4791 109.563 -5.94428 -0.100712 -0.976879 -0.188587
34.6189 109.749 -6.4634 -0.0947337 -0.978054 -0.185571
33.6741 109.92 -6.98479 -0.0837062 -0.987488 -0.133543
32.8712 110.045 -7.39047 -0.0761115 -0.990431 -0.115124
31.9228 110.181 -7.79777 -0.101055 -0.987457 -0.121314
30.8501 110.375 -8.32154 -0.137762 -0.986777 -0.0833872
29.8511 110.582 -8.85208 -0.192202 -0.972467 -0.131507
28.7366 110.896 -9.62662 -0.1986 -0.963844 -0.17202
28.0794 111.182 -10.2645 -0.207852 -0.955152 -0.210908
27.5189 111.455 -10.9521 -0.211466 -0.951499 -0.222999
27.0124 111.812 -11.7491 -0.210803 -0.933538 -0.289945
26.5479 112.244 -12.7903 -0.179931 -0.925718 -0.332672
26.2545 112.684 -13.8867 -0.130639 -0.94881 -0.286145
26.1617 112.95 -14.7515 -0.106623 -0.950743 -0.291065
26.1154 113.257 -15.6847 -0.0331798 -0.952839 -0.300941
26.034 113.563 -16.7684 0.00584876 -0.964405 -0.264364
25.9255 113.79 -17.7146 0.0432679 -0.966244 -0.25397
25.6997 114.103 -19.0777 0.0609166 -0.977588 -0.201521
25.3335 114.273 -20.2427 0.100971 -0.98501 -0.139855
24.8827 114.336 -21.1222 0.097668 -0.990341 -0.0977123
24.3237 114.376 -22.0696 0.0921153 -0.992381 -0.0818207
23.8079 114.396 -22.8958 0.09115 -0.99256 -0.0807129
23.1124 114.404 -23.828 0.0737805 -0.995221 -0.0639683
22.5011 114.406 -24.6491 0.0632141 -0.996271 -0.0587128
21.7652 114.423 -25.7797 0.0641807 -0.996566 -0.0523093
21.1597 114.433 -26.652 0.0611761 -0.996648 -0.0543181
20.3729 114.436 -27.564 0.0555412 -0.997072 -0.0525613
19.7417 114.44 -28.2073 0.0517883 -0.996889 -0.0594216
18.819 114.445 -29.0398 0.0507662 -0.996383 -0.0680149
18.0262 114.45 -29.7011 0.0516348 -0.996144 -0.0709159
17.0978 114.46 -30.4965 0.0485815 -0.996063 -0.0740743
16.0663 114.467 -31.3095 0.0550707 -0.995563 -0.0762931
15.1999 114.474 -31.8988 0.042003 -0.996166 -0.0767364
13.9328 114.474 -32.5718 0.0417447 -0.996117 -0.0775177
12.7898 114.454 -32.9779 0.0414959 -0.996401 -0.0739126
11.84 114.437 -33.3001 0.0446023 -0.99622 -0.0745289
10.7651 114.418 -33.6166 0.0315229 -0.996145 -0.0818631
9.85091 114.408 -33.8473 0.0349431 -0.996101 -0.0809417
8.47922 114.394 -34.2237 0.0271507 -0.997236 -0.0689889
7.34739 114.385 -34.6324 0.0284998 -0.99744 -0.0655027
6.26354 114.38 -34.8855 0.0191179 -0.997385 -0.06969
4.90066 114.376 -35.1058 0.0122852 -0.997715 -0.0664337
3.97723 114.372 -35.2071 0.011093 -0.996889 -0.0780331
3.05584 114.362 -35.2439 0.0140895 -0.996682 -0.0801645
2.00653 114.359 -35.2493 -0.00653263 -0.996982 -0.0773622
0.856052 114.365 -35.2978 0.00515352 -0.997181 -0.0748615
-0.380206 114.382 -35.3692 -0.0165559 -0.997171 -0.0733207
-1.59169 114.393 -35.3767 -0.0133155 -0.996599 -0.0813105
-2.66687 114.404 -35.3205 -0.0161058 -0.997112 -0.0738781
-3.86836 114.419 -35.1474 -0.0246728 -0.996705 -0.0772635
-4.78096 114.428 -34.9875 -0.0225738 -0.996687 -0.07814
-6.11377 114.446 -34.709 -0.0358077 -0.996131 -0.0802581
-6.99521 114.455 -34.4295 -0.0393307 -0.996152 -0.0782448
-8.19341 114.467 -33.9558 -0.0422778 -0.995798 -0.0812362
-9.54283 114.484 -33.4338 -0.0520446 -0.995548 -0.0781813
-10.8201 114.524 -32.9593 -0.055007 -0.995874 -0.0720802
-11.7241 114.541 -32.521 -0.0528543 -0.996219 -0.068947
-12.7188 114.554 -31.8894 -0.0614579 -0.99582 -0.0674379
-13.8365 114.559 -30.9842 -0.0576117 -0.996187 -0.0649102
-14.821 114.563 -30.1258 -0.0512864 -0.996854 -0.0604295
-15.7685 114.562 -29.1889 -0.0616223 -0.996374 -0.0574431
-16.5509 114.563 -28.3348 -0.0509711 -0.99726 -0.0536099
-17.2518 114.564 -27.5432 -0.0669406 -0.996557 -0.0485523
-17.8933 114.573 -26.7895 -0.0552446 -0.997084 -0.0526431
-18.513 114.567 -26.0212 -0.0548396 -0.997238 -0.0500237
-19.3857 114.556 -24.9168 -0.0562879 -0.996742 -0.0576811
-19.9863 114.527 -23.874 -0.0502529 -0.996799 -0.0619415
-20.4386 114.494 -23.0324 -0.0570556 -0.996252 -0.0650078
-20.9579 114.44 -21.9459 -0.0506329 -0.995076 -0.0852091
-21.4214 114.348 -20.7252 -0.038364 -0.994502 -0.0974392
-21.754 114.235 -19.6201 -0.0139005 -0.991463 -0.129643
-22.0225 114.111 -18.674 0.0370992 -0.987019 -0.156257
-22.3753 113.925 -17.6147 0.0376137 -0.985984 -0.162546
-22.8461 113.687 -16.5902 0.124014 -0.972417 -0.194368
-23.4138 113.45 -15.677 0.148996 -0.973392 -0.173701
-23.9974 113.201 -14.8814 0.194536 -0.962263 -0.19007
-24.7418 112.857 -13.9542 0.209169 -0.956974 -0.200682
-25.4555 112.546 -13.2557 0.221152 -0.954984 -0.197732
-26.3291 112.197 -12.5957 0.236252 -0.952561 -0.191867
-27.106 111.905 -12.1075 0.240901 -0.951191 -0.192881
-27.9496 111.586 -11.5925 0.230332 -0.952342 -0.199585
-28.9865 111.256 -11.2119 0.226706 -0.951587 -0.207574
-30.2431 110.847 -10.8105 0.233047 -0.947638 -0.218015
-31.2437 110.5 -10.4547 0.241678 -0.939335 -0.243397
-32.3187 110.078 -9.9673 0.244474 -0.934429 -0.258695
-33.1804 109.692 -9.42521 0.239796 -0.928183 -0.284559
-34.0678 109.222 -8.65785 0.237938 -0.923083 -0.302164
-34.782 108.785 -7.91633 0.243371 -0.915178 -0.321279
-35.5418 108.284 -7.10345 0.240587 -0.903029 -0.355888
-36.183 107.879 -6.51481 0.245328 -0.896242 -0.369363
-36.8344 107.467 -5.96938 0.238195 -0.894613 -0.377972
-37.486 107.071 -5.4386 0.243594 -0.87248 -0.423604
-38.4427 106.447 -4.67048 0.222874 -0.869027 -0.441034
-39.1318 106.005 -4.18888 0.224257 -0.85814 -0.46184
-39.9966 105.46 -3.61949 0.224657 -0.841771 -0.490867
-40.7407 104.74 -2.75721 0.233113 -0.824619 -0.515305
-40.8277 104.256 -2.00983 0.253295 -0.804299 -0.537535
-40.4961 103.547 -0.687831 0.310987 -0.821077 -0.478467
-40.1989 103.189 0.0989003 0.314974 -0.813347 -0.489139
-39.8326 102.73 1.19182 0.321324 -0.843195 -0.431014
-39.4991 102.457 2.01997 0.377683 -0.819129 -0.431721
-38.987 102.283 2.9862 0.441409 -0.842246 -0.309483
-38.4271 102.244 3.91156 0.478103 -0.824928 -0.301515
-37.699 102.398 4.8072 0.505569 -0.845215 -0.171673
-36.9783 102.769 5.2249 0.538715 -0.824473 -0.17161
-35.9858 103.437 5.24255 0.548449 -0.814967 -0.187173
-35.2255 103.96 5.08039 0.531512 -0.830549 -0.166383
-34.428 104.505 4.86196 0.513493 -0.844578 -0.1517
-33.5619 105.084 4.58007 0.51204 -0.847461 -0.14009
-32.5502 105.739 4.13738 0.477105 -0.866905 -0.14438
-31.4403 106.448 3.64733 0.49921 -0.855038 -0.140358
-30.4838 107.056 3.33978 0.490067 -0.859173 -0.147162
-29.7299 107.564 3.17361 0.531543 -0.824982 -0.19201
-28.952 108.098 3.03347 0.528864 -0.828156 -0.185474
-27.9234 108.748 2.8618 0.512173 -0.847424 -0.139826
-27.0714 109.258 2.78135 0.50103 -0.856521 -0.123071
-25.8651 109.975 2.76196 0.501057 -0.858247 -0.111146
-24.9085 110.497 2.78223 0.440383 -0.893354 -0.0893401
-24.0932 110.889 2.88237 0.427528 -0.900257 -0.0796026
-22.8322 111.42 3.32322 0.406188 -0.910133 -0.0814871
-21.6266 111.823 3.98172 0.350412 -0.932684 -0.0853156
-20.6408 112.103 4.55943 0.308496 -0.947405 -0.0851738
-19.8636 112.297 5.02395 0.263999 -0.959337 -0.0998885
-18.8884 112.511 5.59522 0.26983 -0.958437 -0.0926794
-17.9995 112.692 6.00666 0.216018 -0.971044 -0.102033
-17.0948 112.857 6.31582 0.208185 -0.973778 -0.0917382
-16.1633 113.014 6.6248 0.188487 -0.976404 -0.105395
-15.0679 113.143 7.01223 0.130871 -0.985477 -0.108118
-14.1814 113.218 7.32504 0.115405 -0.984648 -0.130883
-13.1622 113.294 7.67928 0.101657 -0.983984 -0.144827
-12.2232 113.322 8.02014 0.0940253 -0.982255 -0.162278
-11.2943 113.325 8.38419 0.0448087 -0.983002 -0.178045
-10.3465 113.287 8.77269 0.0379138 -0.978724 -0.201644
-9.14675 113.206 9.40575 0.0133123 -0.976275 -0.213852
-8.01609 113.054 9.97832 -0.020313 -0.972442 -0.232226
-6.87772 112.894 10.5442 -0.037601 -0.966515 -0.252411
-5.80146 112.62 11.2675 -0.0681171 -0.950372 -0.3032
-4.93686 112.339 11.9187 -0.0680635 -0.946736 -0.314737
-4.06707 112.007 12.5906 -0.113395 -0.932459 -0.34268
-3.05021 111.518 13.3121 -0.155658 -0.904418 -0.397183
-2.08174 111.024 13.9078 -0.167015 -0.858335 -0.485146
-1.24807 110.651 14.3724 -0.10767 -0.84548 -0.520292
-0.256419 110.196 14.8791 -0.0627376 -0.834658 -0.547184
0.595111 109.966 15.178 -0.00651189 -0.82896 -0.559168
1.56155 110.043 15.0905 0.0958968 -0.816268 -0.569659
2.38831 110.307 14.8518 0.131983 -0.831205 -0.537711
3.21683 110.715 14.4365 0.176744 -0.854867 -0.487816
4.35703 111.163 13.9953 0.152626 -0.87901 -0.451121
5.35089 111.597 13.4579 0.147722 -0.897496 -0.415089
6.1811 111.983 12.8785 0.143733 -0.90543 -0.399421
7.22614 112.424 12.1296 0.129315 -0.941164 -0.31136
8.2164 112.748 11.5909 0.117643 -0.95005 -0.287259
9.18104 112.987 11.0036 0.0757725 -0.966436 -0.245478
10.0353 113.17 10.5333 0.0708115 -0.96994 -0.232507
10.9442 113.295 10.1341 0.032929 -0.980491 -0.193788
12.2835 113.375 9.76117 -0.0314559 -0.985165 -0.167569
13.3605 113.353 9.52229 -0.0729839 -0.984777 -0.157756
14.3216 113.327 9.31647 -0.0620019 -0.99002 -0.124833
15.7164 113.237 9.1074 -0.0844534 -0.9891 -0.120564
16.9937 113.047 8.92703 -0.163398 -0.981198 -0.102716
17.8835 112.898 8.81394 -0.178677 -0.978956 -0.0985777
19.0548 112.631 8.72858 -0.254671 -0.965614 -0.052277
20.2137 112.321 8.57981 -0.270941 -0.96068 -0.0607112
21.0838 112.09 8.33525 -0.314781 -0.946484 -0.0690316
22.2376 111.735 7.71599 -0.328442 -0.94179 -0.0718137
23.2102 111.419 7.15039 -0.36456 -0.927988 -0.0719091
24.0143 111.119 6.73744 -0.385727 -0.918685 -0.0850469
25.4384 110.538 6.27359 -0.415969 -0.905018 -0.0889518
26.6558 109.975 6.13804 -0.426047 -0.898142 -0.107377
27.5044 109.575 6.21476 -0.427917 -0.894547 -0.127907
28.5411 109.015 6.50291 -0.440739 -0.888115 -0.130236
29.5912 108.498 6.91689 -0.410073 -0.907544 -0.0905724
30.386 108.085 7.32059 -0.423529 -0.900096 -0.102228
31.3627 107.602 7.84293 -0.383417 -0.918197 -0.0995282
32.4523 107.103 8.46919 -0.377063 -0.923883 -0.0652968
33.1992 106.77 8.92639 -0.356224 -0.929669 -0.0922256
34.2613 106.323 9.45185 -0.355278 -0.931775 -0.0746496
35.3144 105.859 9.88945 -0.382228 -0.920334 -0.0824984
36.1988 105.45 10.1479 -0.398274 -0.912998 -0.0883779
37.3871 104.857 10.3744 -0.437502 -0.892738 -0.107754
38.3763 104.358 10.3673 -0.451584 -0.885564 -0.108851
39.3009 103.963 9.83046 -0.472687 -0.859614 -0.193987
40.1626 103.772 8.99224 -0.390612 -0.878911 -0.273747
41.1377 103.726 7.9717 -0.3562 -0.863403 -0.35729
41.4853 103.747 7.57388 -0.356198 -0.863403 -0.357294
42.029 103.254 8.20376 -0.39933 -0.831529 -0.383495
42.682 103.342 7.4479 -0.365771 -0.808051 -0.461152
43.2155 103.514 6.7034 -0.319029 -0.808556 -0.49081
43.8915 103.925 5.73791 -0.295036 -0.789498 -0.538041
44.3568 104.354 4.89138 -0.230169 -0.80917 -0.540616
44.7668 104.948 3.87856 -0.219989 -0.78169 -0.58358
44.7744 105.567 3.09405 -0.0819214 -0.778485 -0.617703
44.2615 106.022 2.47867 -0.0918 -0.824772 -0.554262
43.4535 106.641 1.53657 -0.0738325 -0.896222 -0.437418
42.5455 107.187 0.498286 -0.0200434 -0.908286 -0.41787
41.8063 107.574 -0.383202 -0.0232818 -0.933777 -0.357097
41.1833 107.856 -1.11896 -0.00427034 -0.942125 -0.335235
40.5274 108.147 -1.9082 -0.0374221 -0.947591 -0.316195
39.8108 108.51 -3.00019 -0.0459466 -0.954272 -0.295298
39.0254 108.856 -4.04594 -0.0578468 -0.959623 -0.275259
38.2306 109.133 -4.94205 -0.0645808 -0.968533 -0.240266
37.2759 109.38 -5.76172 -0.0690235 -0.973731 -0.216853
36.5571 109.55 -6.32129 -0.0695562 -0.9778 -0.197657
35.7598 109.727 -6.90302 -0.0791752 -0.982658 -0.167674
34.956 109.864 -7.3768 -0.0668346 -0.984866 -0.159911
34.0323 110.013 -7.88424 -0.0777565 -0.989528 -0.121604
33.1366 110.131 -8.2922 -0.0716753 -0.990317 -0.118893
32.2151 110.249 -8.68478 -0.0931095 -0.99251 -0.0790904
31.2997 110.375 -9.12139 -0.102584 -0.991205 -0.0836062
30.3865 110.575 -9.61827 -0.200595 -0.970798 -0.131575
29.3366 110.921 -10.3399 -0.213387 -0.953551 -0.212618
28.5627 111.262 -11.1026 -0.209128 -0.935193 -0.277266
28.0206 111.658 -11.8249 -0.18029 -0.926138 -0.32945
27.4796 112.122 -12.8827 -0.146415 -0.925016 -0.350583
27.2386 112.458 -13.6892 -0.117694 -0.917881 -0.376928
27.0982 112.884 -14.7052 -0.0651673 -0.940704 -0.332909
27.0541 113.227 -15.6932 -0.0331795 -0.952839 -0.300941
26.9432 113.637 -16.9914 0.042868 -0.946817 -0.318905
26.8168 113.928 -18.048 0.0834674 -0.963937 -0.252703
26.6243 114.188 -19.1671 0.0858422 -0.972116 -0.218097
26.2887 114.387 -20.3428 0.104661 -0.984777 -0.138782
25.728 114.465 -21.4914 0.106946 -0.989792 -0.0942041
25.1011 114.495 -22.6612 0.110378 -0.991046 -0.0751343
24.5409 114.508 -23.5488 0.0958633 -0.993497 -0.0614283
23.9023 114.498 -24.3833 0.0848203 -0.994359 -0.0627036
23.0584 114.495 -25.4993 0.0814458 -0.99515 -0.0551022
22.462 114.505 -26.4417 0.0719447 -0.995635 -0.0594357
21.7625 114.511 -27.406 0.0612771 -0.996678 -0.053655
21.0133 114.513 -28.2218 0.0653537 -0.995725 -0.0652643
20.0798 114.519 -29.1563 0.0528786 -0.996261 -0.0682181
19.2712 114.529 -29.8741 0.0518845 -0.996079 -0.0716463
18.5346 114.533 -30.4844 0.0533008 -0.996061 -0.0708584
17.5454 114.545 -31.3139 0.0471956 -0.9959 -0.0771745
16.5281 114.555 -32.1199 0.0575946 -0.995049 -0.080844
15.3647 114.561 -32.8936 0.0490912 -0.994351 -0.0941062
14.5653 114.561 -33.3288 0.0538583 -0.994672 -0.0878971
13.4576 114.538 -33.7251 0.0432187 -0.996341 -0.0737127
12.4331 114.522 -34.0458 0.0433334 -0.995956 -0.0785822
11.5683 114.504 -34.3391 0.0460155 -0.996003 -0.0765293
10.2614 114.493 -34.7174 0.0341582 -0.995615 -0.087043
9.33876 114.478 -34.9475 0.0379985 -0.995554 -0.0861855
8.3897 114.467 -35.2588 0.0412094 -0.995535 -0.084926
7.16771 114.463 -35.687 0.030624 -0.996196 -0.0815815
6.26577 114.456 -35.8632 0.0185249 -0.996272 -0.0842522
5.12296 114.45 -36.0357 0.0160451 -0.996312 -0.0842961
4.16558 114.449 -36.1578 0.0110967 -0.996888 -0.0780424
2.94782 114.438 -36.2008 0.0128849 -0.996787 -0.0790383
1.53768 114.436 -36.1914 -0.00164126 -0.996821 -0.0796419
0.573105 114.441 -36.2628 0.00189063 -0.996381 -0.0849765
-0.427778 114.455 -36.3064 -0.00976252 -0.996714 -0.0802561
-1.34733 114.466 -36.3136 -0.013725 -0.997129 -0.0744656
-2.56145 114.485 -36.2697 -0.0238883 -0.99577 -0.0887186
-3.74286 114.5 -36.1271 -0.0223564 -0.995745 -0.0893998
-4.98355 114.511 -35.9055 -0.0249093 -0.995167 -0.0949826
-6.1904 114.525 -35.6494 -0.0399975 -0.995312 -0.0877346
-7.12982 114.539 -35.3769 -0.0375699 -0.99445 -0.0982737
-8.24754 114.546 -34.9268 -0.0444388 -0.995976 -0.0778252
-9.12071 114.559 -34.5885 -0.0460272 -0.99598 -0.076847
-10.1201 114.575 -34.2102 -0.0520497 -0.995547 -0.0781896
-11.0966 114.603 -33.8679 -0.0515938 -0.996162 -0.0707026
-11.9373 114.62 -33.4867 -0.0608193 -0.995402 -0.0734775
-12.7523 114.641 -33.0305 -0.0678281 -0.994631 -0.0781485
-13.6509 114.649 -32.379 -0.0661069 -0.995047 -0.0740756
-14.4439 114.65 -31.7105 -0.0659866 -0.994791 -0.0776902
-15.4301 114.652 -30.8485 -0.0709247 -0.994751 -0.0737574
-16.2929 114.652 -30.001 -0.0678554 -0.995236 -0.0699019
-17.1255 114.645 -29.0862 -0.0694087 -0.994936 -0.0726955
-18.0445 114.646 -28.0594 -0.0677292 -0.996216 -0.0544737
-18.6387 114.649 -27.3729 -0.0671795 -0.995886 -0.0606415
-19.2642 114.649 -26.6349 -0.0668409 -0.996186 -0.0560888
-19.9969 114.634 -25.6805 -0.0593917 -0.996485 -0.0589585
-20.5373 114.615 -24.7969 -0.0706588 -0.995499 -0.0631625
-21.1327 114.584 -23.7509 -0.0667438 -0.994967 -0.0747424
-21.5934 114.546 -22.804 -0.0538424 -0.995664 -0.0751066
-22.0801 114.478 -21.6815 -0.050672 -0.993955 -0.0964036
-22.4268 114.379 -20.63 -0.0422886 -0.990786 -0.127071
-22.6908 114.264 -19.7171 -0.0224114 -0.991354 -0.129287
-23.0386 114.056 -18.5367 0.0131952 -0.98188 -0.188542
-23.36 113.863 -17.6872 0.0914361 -0.978878 -0.182857
-23.8509 113.606 -16.7136 0.105611 -0.968787 -0.224273
-24.4648 113.282 -15.7538 0.157751 -0.961219 -0.226212
-25.3782 112.843 -14.5822 0.221881 -0.953752 -0.202797
-26.033 112.556 -13.9474 0.230013 -0.952446 -0.199628
-27.1275 112.124 -13.1998 0.22591 -0.951904 -0.206878
-28.1318 111.758 -12.5776 0.219757 -0.953493 -0.206294
-29.291 111.381 -12.1151 0.226796 -0.951509 -0.207834
-30.1732 111.105 -11.8338 0.222642 -0.948911 -0.223605
-31.2811 110.746 -11.4585 0.241618 -0.940828 -0.237618
-32.4639 110.323 -10.9632 0.234782 -0.938554 -0.252972
-33.3621 109.946 -10.436 0.23329 -0.933105 -0.273545
-34.0973 109.601 -9.88448 0.231447 -0.929994 -0.285556
-35.0465 109.08 -8.99449 0.237438 -0.923249 -0.302049
-35.8621 108.564 -8.09505 0.237638 -0.917156 -0.319926
-36.6088 108.095 -7.34813 0.238416 -0.90069 -0.363114
-37.363 107.651 -6.71998 0.211773 -0.902178 -0.375333
-38.278 107.099 -5.96786 0.203936 -0.898177 -0.389222
-38.9636 106.666 -5.39423 0.203957 -0.876445 -0.436172
-39.9611 106.075 -4.69936 0.198433 -0.854939 -0.479275
-40.9448 105.502 -4.09871 0.20732 -0.850371 -0.483619
-41.6742 104.832 -3.28815 0.179699 -0.825404 -0.535179
-41.8069 104.256 -2.45751 0.216913 -0.8033 -0.554665
-41.6532 103.671 -1.51067 0.234898 -0.811134 -0.535616
-41.2897 103.072 -0.393624 0.291829 -0.823052 -0.487258
-40.964 102.715 0.404635 0.294309 -0.818154 -0.493894
-40.6244 102.277 1.4157 0.360528 -0.813889 -0.455635
-40.15 101.923 2.47203 0.34211 -0.845478 -0.407859
-39.7251 101.78 3.31364 0.407575 -0.863029 -0.298435
-39.1669 101.746 4.23886 0.410906 -0.87828 -0.244499
-38.5522 101.849 5.13503 0.456818 -0.872522 -0.173273
-37.5339 102.273 6.10906 0.524939 -0.842064 -0.123963
-36.3495 103.029 6.25697 0.566677 -0.818528 -0.0937023
-35.2581 103.785 6.04106 0.542898 -0.834642 -0.0928053
-34.3235 104.417 5.77108 0.537902 -0.838068 -0.0910975
-33.1489 105.203 5.41223 0.522044 -0.847592 -0.0940217
-32.4126 105.668 5.10911 0.504061 -0.858935 -0.0902929
-31.4882 106.263 4.66024 0.510346 -0.852356 -0.114176
-30.6829 106.788 4.36809 0.514769 -0.850563 -0.107157
-29.7551 107.381 4.12491 0.528109 -0.843703 -0.0962602
-28.9766 107.918 3.99622 0.533431 -0.834125 -0.140307
-27.8721 108.637 3.77453 0.511611 -0.849757 -0.12715
-27.0127 109.172 3.68895 0.510513 -0.852318 -0.113708
-26.1842 109.673 3.68451 0.515317 -0.851253 -0.0982921
-25.3953 110.138 3.67699 0.505706 -0.856813 -0.100527
-24.5267 110.596 3.71521 0.445835 -0.891337 -0.0821606
-23.6179 111.013 3.94727 0.406187 -0.910133 -0.081486
-22.6421 111.399 4.42784 0.378406 -0.921496 -0.0832244
-21.7772 111.674 4.94601 0.347175 -0.933461 -0.0901102
-21.0315 111.897 5.40121 0.294884 -0.949328 -0.10857
-20.0878 112.124 5.96799 0.302684 -0.947035 -0.106815
-19.1542 112.348 6.51958 0.269736 -0.95852 -0.0920934
-18.1899 112.558 6.92599 0.214784 -0.972003 -0.0952713
-17.2379 112.738 7.23931 0.204882 -0.972005 -0.114183
-16.2271 112.889 7.58833 0.186506 -0.975101 -0.119971
-15.0915 113.028 7.99373 0.121183 -0.985177 -0.120716
-13.7882 113.118 8.4302 0.11195 -0.984646 -0.133853
-12.9214 113.148 8.73359 0.0816328 -0.985683 -0.147531
-11.9372 113.161 9.11483 0.0353015 -0.981942 -0.185298
-10.5392 113.09 9.69542 0.0379092 -0.978724 -0.201645
-9.40851 112.998 10.2845 0.0159851 -0.971444 -0.236078
-8.39214 112.86 10.8211 -0.0203174 -0.972444 -0.232218
-7.28508 112.674 11.3564 -0.0377036 -0.953618 -0.298541
-6.51101 112.478 11.8627 -0.0507446 -0.953211 -0.297947
-5.51158 112.151 12.6218 -0.106907 -0.934183 -0.337713
-4.66163 111.785 13.2726 -0.0872047 -0.918941 -0.384632
-3.95364 111.45 13.7856 -0.153805 -0.874946 -0.459144
-3.2786 111.084 14.2558 -0.171181 -0.870311 -0.461441
-2.15394 110.469 14.8747 -0.188625 -0.829531 -0.525491
-1.19613 109.969 15.3476 -0.144468 -0.825553 -0.544049
-0.263068 109.539 15.8375 -0.0583477 -0.803004 -0.59311
1.08728 109.371 16.0301 0.0503759 -0.828696 -0.554226
1.94425 109.592 15.8738 0.171731 -0.824404 -0.539321
2.7999 109.929 15.6209 0.17171 -0.844766 -0.506824
3.93072 110.512 15.0596 0.201997 -0.852944 -0.48132
5.14477 111.024 14.6285 0.185288 -0.885717 -0.424601
6.18059 111.516 14.0222 0.202886 -0.894616 -0.398119
6.8649 111.849 13.5274 0.178116 -0.914944 -0.36215
7.71076 112.244 12.9158 0.152141 -0.932048 -0.328847
8.54948 112.53 12.4499 0.117638 -0.950051 -0.287258
9.61552 112.805 11.8365 0.0980014 -0.958046 -0.269008
10.5898 113.021 11.2971 0.076491 -0.967512 -0.240978
11.4695 113.149 10.9169 0.0313174 -0.975964 -0.215669
12.6048 113.212 10.6107 -0.045315 -0.98569 -0.162366
13.6592 113.204 10.3892 -0.0354561 -0.986294 -0.16114
14.6129 113.198 10.1927 -0.0620018 -0.99002 -0.124833
15.5912 113.131 10.045 -0.0871718 -0.988583 -0.122903
16.5631 113.019 9.89958 -0.164602 -0.98132 -0.0995874
17.9641 112.794 9.733 -0.178455 -0.981243 -0.0729105
18.8717 112.622 9.67667 -0.254166 -0.962955 -0.0889694
19.7596 112.383 9.59971 -0.266833 -0.961001 -0.0720309
20.9298 112.052 9.38174 -0.300548 -0.950501 -0.0788573
22.1723 111.679 8.82703 -0.329014 -0.942467 -0.0592139
23.1117 111.365 8.23099 -0.390233 -0.91628 -0.0898835
24.1359 110.983 7.64954 -0.386993 -0.918294 -0.0834722
25.1503 110.57 7.26539 -0.412549 -0.906097 -0.0937577
26.4368 109.984 7.06444 -0.436809 -0.894795 -0.0923538
27.5158 109.434 7.14334 -0.462883 -0.881149 -0.0965119
28.4179 108.974 7.40837 -0.402776 -0.910385 -0.0947173
29.3001 108.542 7.79338 -0.416801 -0.90382 -0.0964027
30.139 108.119 8.24945 -0.425222 -0.90419 -0.0403322
30.9159 107.732 8.66676 -0.427893 -0.902858 -0.0418823
31.9785 107.239 9.28222 -0.377354 -0.923679 -0.0664825
32.7666 106.882 9.76004 -0.377649 -0.923473 -0.0676633
33.6801 106.489 10.2181 -0.364657 -0.929156 -0.06067
34.4818 106.134 10.5749 -0.374702 -0.923421 -0.0830156
35.2663 105.786 10.845 -0.391774 -0.915432 -0.0921833
36.5803 105.158 11.1806 -0.435931 -0.8961 -0.083487
37.5185 104.672 11.363 -0.451681 -0.886871 -0.096872
38.5323 104.13 11.3669 -0.496115 -0.860967 -0.112274
39.5609 103.643 10.7715 -0.51615 -0.834351 -0.193515
40.2442 103.38 10.0969 -0.469949 -0.845547 -0.246689
40.956 103.262 9.36049 -0.438388 -0.852322 -0.285244
41.5738 103.23 8.69941 -0.361529 -0.854049 -0.374028
41.788 103.236 8.478 -0.361524 -0.854051 -0.374027
42.3272 102.691 9.0307 -0.430838 -0.826513 -0.360339
42.9284 102.718 8.36024 -0.392434 -0.816406 -0.423648
43.5717 102.849 7.5635 -0.354392 -0.799739 -0.483972
44.0931 103.105 6.81632 -0.306279 -0.784856 -0.538697
44.6191 103.398 6.09149 -0.306313 -0.784366 -0.539391
45.1408 103.843 5.18357 -0.263392 -0.762419 -0.590147
45.5899 104.485 4.27692 -0.116223 -0.755462 -0.642612
45.8803 104.986 3.56547 -0.0583121 -0.76744 -0.634816
45.832 105.62 2.86317 -0.00482208 -0.740814 -0.671693
45.1497 106.236 2.12239 -0.034499 -0.820331 -0.570847
44.3864 106.789 1.25947 0.00420403 -0.869639 -0.493671
43.7065 107.183 0.509948 0.0184701 -0.91234 -0.409017
43.0299 107.536 -0.284921 -0.00702878 -0.921375 -0.386937
42.4368 107.809 -1.0105 0.00970904 -0.932701 -0.360469
41.8032 108.081 -1.78318 -0.0142708 -0.948532 -0.316359
41.1699 108.367 -2.65776 0.000269865 -0.956062 -0.293165
40.6575 108.606 -3.41736 -0.0267147 -0.96141 -0.273821
40.0422 108.864 -4.23519 -0.0419913 -0.963755 -0.26273
39.1978 109.167 -5.28032 -0.0471905 -0.971234 -0.232965
38.5397 109.349 -5.95056 -0.0504881 -0.974075 -0.220461
37.6044 109.553 -6.67707 -0.0473077 -0.979322 -0.196698
36.4888 109.792 -7.58397 -0.0518273 -0.983428 -0.173735
35.4357 109.962 -8.21104 -0.063557 -0.988166 -0.139604
34.3908 110.098 -8.72692 -0.0547576 -0.989148 -0.136336
33.4908 110.201 -9.13423 -0.0679962 -0.992101 -0.105411
32.5831 110.299 -9.53983 -0.0557819 -0.993342 -0.100796
31.6276 110.451 -9.97807 -0.118401 -0.978893 -0.166583
30.8068 110.65 -10.4454 -0.172817 -0.964759 -0.197476
29.68 111.058 -11.2593 -0.203636 -0.953707 -0.221304
28.8301 111.632 -12.2411 -0.202762 -0.915343 -0.3479
28.3003 112.175 -13.3084 -0.10159 -0.923357 -0.370258
28.0941 112.617 -14.2457 -0.103626 -0.905955 -0.410438
28.0151 113.017 -15.2043 0.00640193 -0.922292 -0.386441
27.9454 113.412 -16.2121 0.0131372 -0.941474 -0.33683
27.8425 113.747 -17.1967 0.0429818 -0.946697 -0.319245
27.6728 114.121 -18.519 0.0776332 -0.966741 -0.243689
27.4829 114.37 -19.6147 0.0799274 -0.977859 -0.19103
27.1828 114.521 -20.6355 0.0666317 -0.984099 -0.164652
26.7643 114.595 -21.5645 0.123109 -0.988162 -0.0915444
26.1864 114.611 -22.6307 0.104657 -0.991958 -0.0711809
25.6066 114.62 -23.7016 0.0995665 -0.993515 -0.0548958
24.6925 114.602 -24.9397 0.090676 -0.994347 -0.0552468
23.9102 114.589 -25.9397 0.0814459 -0.99515 -0.0551022
23.3889 114.591 -26.7603 0.0750723 -0.995201 -0.0626469
22.8367 114.599 -27.5259 0.0741794 -0.995451 -0.0597121
22.1942 114.598 -28.2882 0.0753608 -0.995091 -0.0641413
21.4423 114.599 -29.0986 0.0660355 -0.995336 -0.0701906
20.8038 114.603 -29.7395 0.0653095 -0.994963 -0.0760034
19.816 114.614 -30.6249 0.0543421 -0.995721 -0.0747279
18.782 114.619 -31.4616 0.0527083 -0.995644 -0.0768104
17.9577 114.634 -32.1731 0.0482615 -0.995362 -0.0831488
17.1246 114.652 -32.8324 0.0536219 -0.994856 -0.0856836
16.1864 114.658 -33.4695 0.0549018 -0.994014 -0.094457
15.1571 114.658 -34.0665 0.0539774 -0.994665 -0.0879091
14.1565 114.642 -34.4944 0.0533999 -0.994667 -0.0882405
12.9212 114.612 -34.8545 0.0439903 -0.995236 -0.0870011
11.7555 114.594 -35.2462 0.0430365 -0.99481 -0.0921956
10.8471 114.584 -35.5284 0.0341579 -0.995615 -0.0870426
9.97602 114.572 -35.7595 0.0363746 -0.995678 -0.0854493
8.76961 114.557 -36.1282 0.0400994 -0.99535 -0.0875371
7.59455 114.551 -36.5524 0.0337572 -0.995416 -0.0894863
6.6118 114.543 -36.7681 0.0257526 -0.995031 -0.0961763
5.67244 114.533 -36.9011 0.0172826 -0.996292 -0.0842722
4.57915 114.531 -37.0701 0.014999 -0.996 -0.0880828
3.63607 114.525 -37.1356 0.0103222 -0.99608 -0.0878455
2.30209 114.513 -37.141 0.00838994 -0.996132 -0.0874721
1.26394 114.511 -37.1188 -0.00298553 -0.996803 -0.0798487
0.309632 114.519 -37.1878 -0.000541957 -0.996592 -0.0824118
-0.686694 114.529 -37.2402 -0.00588174 -0.997114 -0.0756837
-1.62444 114.544 -37.236 -0.0229431 -0.99628 -0.0830631
-2.79486 114.569 -37.1967 -0.0258785 -0.996214 -0.0829937
-3.81173 114.587 -37.0733 -0.0299412 -0.996121 -0.0827401
-4.83567 114.603 -36.9068 -0.02616 -0.995181 -0.0944878
-6.11436 114.613 -36.6255 -0.0306883 -0.994476 -0.100381
-7.16302 114.634 -36.337 -0.0471844 -0.99441 -0.0944213
-8.26769 114.637 -35.923 -0.0401827 -0.994323 -0.0985196
-9.23418 114.639 -35.5384 -0.0474503 -0.99468 -0.0907203
-10.4556 114.671 -35.0982 -0.0582414 -0.994379 -0.0884254
-11.6453 114.709 -34.7038 -0.0621277 -0.993562 -0.0946816
-12.5183 114.725 -34.2531 -0.0710084 -0.993611 -0.087718
-13.398 114.741 -33.7471 -0.0620752 -0.994735 -0.0814882
-14.3706 114.746 -33.0102 -0.0649878 -0.994934 -0.0766929
-15.2904 114.747 -32.2377 -0.0659487 -0.994854 -0.0769142
-16.1416 114.749 -31.4738 -0.0732135 -0.99455 -0.0742332
-17.0805 114.745 -30.4985 -0.0726275 -0.994546 -0.0748587
-17.867 114.737 -29.6395 -0.0651413 -0.995286 -0.0718429
-18.6299 114.735 -28.8047 -0.0772618 -0.995104 -0.0616273
-19.3324 114.736 -27.9894 -0.067518 -0.995586 -0.0651942
-19.9339 114.73 -27.2712 -0.0671881 -0.995885 -0.0606398
-20.6614 114.722 -26.2992 -0.075194 -0.995119 -0.0639064
-21.2938 114.704 -25.355 -0.0712702 -0.995292 -0.0656334
-21.8909 114.676 -24.3116 -0.0718278 -0.995061 -0.0683198
-22.2976 114.647 -23.5086 -0.071886 -0.994693 -0.0736048
-22.7215 114.608 -22.6703 -0.0665985 -0.994088 -0.0856445
-23.0864 114.53 -21.6886 -0.0509034 -0.99307 -0.10593
-23.3882 114.41 -20.6307 -0.0321832 -0.988988 -0.144456
-23.6538 114.261 -19.6629 -0.0026964 -0.976049 -0.214511
-23.9476 114.061 -18.6861 0.0313624 -0.976682 -0.211493
-24.4024 113.752 -17.6087 0.123108 -0.957268 -0.261486
-24.8537 113.47 -16.8253 0.141976 -0.958043 -0.247424
-25.4667 113.137 -15.9103 0.211546 -0.94853 -0.235667
-26.3175 112.706 -14.8985 0.222063 -0.949871 -0.21961
-27.0375 112.395 -14.34 0.233785 -0.948042 -0.215636
-27.7903 112.111 -13.8488 0.219647 -0.953677 -0.205562
-28.622 111.815 -13.3579 0.214879 -0.952913 -0.213905
-29.4967 111.538 -13.0212 0.21605 -0.951536 -0.218862
-30.3845 111.278 -12.754 0.221526 -0.947085 -0.232285
-31.5054 110.926 -12.3816 0.22095 -0.945759 -0.238086
-32.4486 110.607 -12.0156 0.22529 -0.943399 -0.243391
-33.2249 110.32 -11.6409 0.221781 -0.939991 -0.259288
-34.2146 109.888 -10.9465 0.228166 -0.936165 -0.267461
-35.1525 109.434 -10.1833 0.224977 -0.931517 -0.285766
-35.8454 109.045 -9.49346 0.224796 -0.924608 -0.307423
-36.7721 108.479 -8.48479 0.221379 -0.917743 -0.329746
-37.5838 107.99 -7.70762 0.219095 -0.905378 -0.363438
-38.3621 107.571 -7.09186 0.211781 -0.902177 -0.375332
-39.2223 107.066 -6.35581 0.190742 -0.90213 -0.387012
-40.1069 106.535 -5.66062 0.199065 -0.878342 -0.434614
-41.022 106.088 -5.15711 0.154611 -0.869635 -0.46879
-41.8273 105.621 -4.6032 0.153154 -0.85012 -0.503825
-42.6636 104.901 -3.72798 0.180677 -0.828578 -0.529883
-42.819 104.371 -3.01797 0.217197 -0.801953 -0.556503
-42.7049 103.757 -2.08332 0.21663 -0.804646 -0.552825
-42.4065 103.085 -0.965776 0.237388 -0.804148 -0.54497
-42.0935 102.61 -0.0948465 0.294315 -0.818154 -0.493891
-41.721 102.202 0.789647 0.303858 -0.818803 -0.486788
-41.3905 101.792 1.76341 0.286489 -0.86514 -0.411145
-40.9395 101.496 2.78542 0.320762 -0.873254 -0.366421
-40.4175 101.3 3.7567 0.365701 -0.870806 -0.324737
-39.8619 101.298 4.66576 0.431627 -0.864097 -0.257925
-39.2792 101.349 5.54024 0.478451 -0.843386 -0.244512
-38.5503 101.557 6.59693 0.5293 -0.83851 -0.129393
-37.7295 101.996 7.11001 0.535442 -0.83789 -0.102388
-36.8856 102.544 7.24021 0.573833 -0.816736 -0.0604696
-36.0306 103.15 7.18205 0.569978 -0.819071 -0.06484
-35.2828 103.659 6.99866 0.546062 -0.832309 -0.0952795
-34.1925 104.4 6.68898 0.536074 -0.839157 -0.0918712
-33.3397 104.971 6.44367 0.522044 -0.847592 -0.0940217
-32.3184 105.62 6.09357 0.50689 -0.856843 -0.0941013
-31.4975 106.134 5.69622 0.493239 -0.865041 -0.0917616
-30.632 106.685 5.36851 0.522064 -0.845714 -0.110417
-29.8591 107.199 5.10576 0.525733 -0.843881 -0.107094
-29.0765 107.718 4.96271 0.544768 -0.833908 -0.0878182
-28.2861 108.24 4.79937 0.542351 -0.836448 -0.0783788
-26.9956 109.062 4.59094 0.516587 -0.84829 -0.116115
-25.9468 109.709 4.61112 0.515317 -0.851253 -0.098292
-25.0381 110.242 4.59998 0.476219 -0.873252 -0.0987827
-23.8858 110.815 4.78719 0.431271 -0.897598 -0.0857649
-23.1192 111.116 5.17556 0.395813 -0.912975 -0.0990419
-22.0684 111.472 5.81911 0.347499 -0.931422 -0.107844
-21.1292 111.745 6.41484 0.319941 -0.940142 -0.114582
-20.3469 111.939 6.91494 0.309372 -0.945706 -0.0996432
-19.4199 112.181 7.46069 0.264627 -0.959615 -0.0953552
-18.3495 112.419 7.8604 0.240054 -0.964462 -0.110392
-17.4425 112.583 8.13966 0.194353 -0.973172 -0.123138
-16.2632 112.76 8.54556 0.175834 -0.977429 -0.117114
-15.1251 112.889 8.94653 0.14148 -0.978819 -0.147977
-14.1837 112.951 9.25779 0.100091 -0.983332 -0.151787
-12.9852 113 9.68622 0.0656454 -0.983471 -0.166854
-11.8658 112.973 10.1234 0.0353015 -0.981942 -0.185298
-10.9801 112.917 10.5013 0.0126425 -0.979898 -0.199097
-10.1447 112.837 10.8954 -0.00691563 -0.979682 -0.200438
-9.17388 112.709 11.4193 -0.00498429 -0.963583 -0.267362
-8.16958 112.531 11.9239 -0.0530546 -0.957571 -0.283273
-7.0744 112.298 12.513 -0.0460016 -0.951577 -0.30395
-6.28799 112.045 13.1617 -0.106909 -0.934183 -0.337715
-5.05854 111.516 14.1176 -0.21066 -0.914657 -0.336771
-4.06956 110.954 14.8374 -0.202349 -0.894113 -0.39952
-3.27638 110.472 15.3068 -0.220204 -0.829705 -0.512932
-2.5163 110.052 15.6628 -0.188625 -0.829531 -0.525491
-1.68635 109.564 16.0731 -0.183301 -0.792191 -0.582095
-0.667644 109.026 16.5828 -0.134555 -0.788131 -0.599074
0.259214 108.778 16.8401 -0.0287258 -0.786293 -0.617186
1.42528 108.87 16.8289 0.0959075 -0.785253 -0.611702
2.46577 109.215 16.6184 0.173585 -0.803686 -0.568007
3.33394 109.612 16.3148 0.216055 -0.8117 -0.542645
4.39332 110.191 15.822 0.201994 -0.852941 -0.481327
5.61351 110.748 15.3794 0.241377 -0.856636 -0.455973
6.49584 111.191 14.9012 0.198061 -0.890438 -0.409746
7.55582 111.716 14.2268 0.196773 -0.916131 -0.34897
8.39231 112.105 13.6255 0.163971 -0.931852 -0.323413
9.40608 112.462 13.0126 0.112495 -0.950844 -0.288516
10.196 112.677 12.519 0.0799614 -0.963993 -0.253622
10.9805 112.852 12.1013 0.0782255 -0.965753 -0.247297
12.1528 112.991 11.6599 0.00106713 -0.974565 -0.224103
13.1516 113.051 11.4347 0.00590846 -0.985322 -0.168471
14.2155 113.06 11.1941 -0.0277977 -0.988343 -0.149685
15.2357 113.03 11.0169 -0.0759687 -0.985771 -0.14917
16.4849 112.939 10.8255 -0.0977426 -0.984785 -0.143681
17.4169 112.806 10.7219 -0.163353 -0.982679 -0.0875053
18.3655 112.653 10.639 -0.210415 -0.973303 -0.0847513
19.3192 112.42 10.5969 -0.24904 -0.965166 -0.0793148
20.2431 112.177 10.4921 -0.28736 -0.954266 -0.0783399
21.185 111.883 10.2938 -0.307598 -0.947608 -0.0857942
22.2029 111.557 9.8654 -0.362495 -0.926774 -0.0984261
23.0841 111.261 9.31362 -0.392115 -0.914679 -0.0980188
24.2275 110.849 8.58165 -0.400601 -0.910854 -0.0988814
25.6512 110.26 8.06317 -0.422103 -0.901465 -0.0952567
26.7291 109.751 7.97126 -0.433806 -0.896179 -0.0930405
27.7915 109.198 8.13574 -0.4526 -0.888808 -0.0719295
28.9495 108.653 8.63468 -0.391789 -0.91933 -0.036513
29.9449 108.169 9.17418 -0.422359 -0.905428 -0.0424263
30.8664 107.701 9.695 -0.425454 -0.902747 -0.0635307
31.609 107.345 10.1581 -0.402229 -0.914817 -0.0363617
32.396 106.98 10.6226 -0.398391 -0.916805 -0.0242645
33.1481 106.65 10.9994 -0.363799 -0.929729 -0.0570503
34.0207 106.272 11.3856 -0.39177 -0.918181 -0.0581386
35.0929 105.785 11.7562 -0.417133 -0.907251 -0.0538175
36.0251 105.346 12.0178 -0.431182 -0.898013 -0.0874944
36.8267 104.942 12.2077 -0.446412 -0.890452 -0.0874883
37.6545 104.493 12.3578 -0.459455 -0.881839 -0.106115
38.5032 103.987 12.3664 -0.516659 -0.845886 -0.131721
39.5305 103.419 11.9061 -0.538882 -0.830062 -0.143537
40.4503 103.019 11.1303 -0.497656 -0.84495 -0.195954
41.4339 102.771 10.06 -0.443349 -0.845542 -0.297488
42.1379 102.705 9.23977 -0.424536 -0.844019 -0.32772
42.2401 102.697 9.12938 -0.424536 -0.844019 -0.32772
42.6607 102.212 9.83978 -0.424467 -0.828203 -0.363158
41.8694 102.22 10.8932 -0.459958 -0.82383 -0.331274
41.1738 102.407 11.589 -0.519125 -0.811471 -0.266046
40.3933 102.751 12.2442 -0.567611 -0.796762 -0.205568
39.3418 103.305 13.0624 -0.554249 -0.812024 -0.182824
38.1987 104.036 13.3729 -0.52207 -0.84542 -0.112729
37.4373 104.515 13.3138 -0.501111 -0.864161 -0.0451108
36.5372 105.046 13.243 -0.465644 -0.882874 -0.0404426
35.4638 105.557 12.8161 -0.41333 -0.909658 -0.0406696
34.4795 106.027 12.5424 -0.420019 -0.907009 -0.0275859
33.0481 106.679 11.9503 -0.401646 -0.915628 -0.0168013
32.192 107.055 11.6167 -0.39455 -0.918794 -0.0121684
31.4107 107.38 11.1513 -0.367306 -0.927908 -0.0576846
30.5545 107.784 10.6095 -0.453369 -0.886548 -0.0417528
29.7638 108.227 10.1742 -0.473258 -0.880109 -0.0378856
29.0234 108.588 9.71386 -0.427428 -0.904009 -0.00393509
28.0362 109.049 9.15387 -0.422527 -0.906054 0.0231715
27.1191 109.491 8.93005 -0.461777 -0.885431 -0.0526654
26.209 109.927 8.90775 -0.417252 -0.907191 -0.0539065
25.2284 110.354 9.08598 -0.398324 -0.91493 -0.0651241
24.1491 110.768 9.648 -0.388777 -0.915951 -0.0993438
23.3866 111.04 10.1517 -0.393179 -0.914271 -0.0975514
22.6419 111.303 10.6714 -0.360847 -0.927824 -0.0945136
21.4634 111.714 11.2048 -0.340752 -0.936023 -0.082652
20.011 112.171 11.4449 -0.28131 -0.956478 -0.0702973
19.0118 112.42 11.5786 -0.24072 -0.968278 -0.0669263
18.0552 112.628 11.6294 -0.160072 -0.98416 -0.0762024
16.8459 112.799 11.6716 -0.110772 -0.987602 -0.109243
15.333 112.903 11.8892 -0.0642576 -0.991327 -0.113883
13.9048 112.904 12.2037 -0.00628369 -0.987578 -0.155879
12.5734 112.845 12.5215 0.0327837 -0.984981 -0.169523
11.6304 112.764 12.7102 0.077687 -0.972543 -0.217729
10.5883 112.504 13.3612 0.0984344 -0.968982 -0.226683
9.86387 112.259 13.8602 0.112494 -0.950844 -0.288516
8.97997 111.968 14.3532 0.1758 -0.931657 -0.317978
8.05734 111.488 15.1532 0.22093 -0.903717 -0.364774
7.03492 110.985 15.6643 0.249569 -0.903402 -0.344789
6.30365 110.585 16.0745 0.283215 -0.865831 -0.411106
5.32192 110.123 16.4307 0.253746 -0.868025 -0.426785
4.40998 109.584 16.7643 0.254949 -0.800506 -0.539778
3.65623 109.094 17.1894 0.210346 -0.798932 -0.563398
2.55264 108.638 17.4115 0.213199 -0.749012 -0.623061
1.54318 108.271 17.607 0.116915 -0.728523 -0.67497
0.550298 108.145 17.6379 0.0314642 -0.7365 -0.675706
-0.444424 108.27 17.535 -0.0660066 -0.765975 -0.637967
-1.28829 108.562 17.2703 -0.131456 -0.762478 -0.63352
-2.07074 109.104 16.818 -0.224076 -0.757391 -0.613018
-2.82095 109.533 16.5352 -0.225745 -0.799632 -0.556443
-3.57681 109.993 16.1757 -0.259815 -0.797546 -0.543006
-4.28596 110.475 15.7918 -0.261831 -0.820621 -0.507962
-5.31359 111.158 15.0909 -0.251901 -0.884912 -0.391762
-6.43465 111.726 14.2394 -0.169423 -0.944406 -0.281768
-7.08923 111.947 13.6012 -0.0364654 -0.953526 -0.298861
-8.03598 112.206 12.9627 -0.0625834 -0.950413 -0.304272
-9.31138 112.47 12.3499 -0.0497864 -0.961504 -0.2687
-10.3318 112.629 11.8226 -0.0116999 -0.971545 -0.236565
-11.1746 112.733 11.3935 0.0132382 -0.979691 -0.200077
-12.2412 112.808 10.9496 0.0281921 -0.9824 -0.183456
-13.1877 112.834 10.5658 0.051598 -0.984302 -0.168324
-14.4803 112.798 10.1078 0.0957421 -0.986015 -0.136411
-15.4287 112.733 9.77163 0.134577 -0.984 -0.116761
-16.7103 112.585 9.3796 0.167494 -0.978937 -0.116679
-17.766 112.432 9.00021 0.195539 -0.976277 -0.0929917
-18.6463 112.259 8.71558 0.238681 -0.967068 -0.088376
-19.6245 112.02 8.48003 0.271899 -0.957974 -0.0911845
-20.4882 111.802 8.00966 0.308011 -0.948354 -0.0758544
-21.2163 111.609 7.41872 0.331657 -0.940203 -0.0766549
-22.3857 111.259 6.64839 0.336802 -0.936122 -0.101193
-23.1567 110.997 6.20534 0.386207 -0.918184 -0.087584
-23.9567 110.696 5.75889 0.430918 -0.899216 -0.0552843
-24.9287 110.213 5.52041 0.479183 -0.874542 -0.0680523
-25.916 109.634 5.54697 0.497946 -0.862996 -0.0853698
-27.0501 108.952 5.47826 0.517133 -0.853249 -0.0673825
-27.8505 108.445 5.7278 0.534279 -0.842314 -0.069066
-28.9156 107.729 5.89272 0.553754 -0.829466 -0.0728207
-29.6793 107.203 6.02178 0.543545 -0.837412 -0.0574203
-30.6687 106.553 6.42677 0.523792 -0.848517 -0.0752427
-31.4978 106.021 6.74712 0.492496 -0.865265 -0.0936143
-32.2581 105.572 7.06388 0.500366 -0.862611 -0.0708728
-33.5655 104.737 7.44795 0.533912 -0.842614 -0.0696719
-34.9331 103.828 7.83928 0.541844 -0.838272 -0.060598
-35.7373 103.273 8.12366 0.565516 -0.82187 -0.0687085
-36.5381 102.721 8.22391 0.566975 -0.822386 -0.0457209
-37.3499 102.15 8.19866 0.573403 -0.818326 -0.0391504
-38.2774 101.533 7.93947 0.568525 -0.813875 -0.119949
-38.9362 101.148 7.45479 0.557798 -0.817227 -0.142988
-39.5324 100.895 6.71759 0.522169 -0.834179 -0.17419
-40.0283 100.825 5.93566 0.459003 -0.853535 -0.246563
-40.6077 100.799 5.01321 0.444117 -0.853279 -0.273268
-41.1496 100.888 4.04494 0.360797 -0.869534 -0.335291
-41.8856 101.178 2.71486 0.322183 -0.858196 -0.399348
-42.3153 101.469 1.79265 0.301864 -0.851177 -0.429384
-42.65 101.879 0.821142 0.242572 -0.826415 -0.508069
-43.1225 102.505 -0.420881 0.234025 -0.815371 -0.529166
-43.5108 103.298 -1.76267 0.240881 -0.799365 -0.550372
-43.6961 103.778 -2.52788 0.225413 -0.787376 -0.57326
-43.8652 104.415 -3.43261 0.207421 -0.781819 -0.587993
-43.7004 104.99 -4.15905 0.172662 -0.796631 -0.579282
-43.111 105.502 -4.76206 0.119372 -0.832909 -0.540383
-42.3006 105.996 -5.42238 0.137025 -0.866185 -0.479926
-41.2311 106.53 -6.05296 0.148368 -0.872906 -0.464781
-40.3578 106.918 -6.50786 0.133578 -0.892154 -0.430217
-39.2921 107.534 -7.46313 0.183784 -0.899358 -0.396709
-38.2899 108.071 -8.33098 0.21344 -0.910862 -0.353234
-37.5507 108.504 -9.04521 0.202375 -0.917677 -0.341925
-36.6433 109.021 -9.96839 0.210101 -0.92552 -0.315073
-35.9363 109.411 -10.7093 0.221888 -0.930721 -0.290731
-35.1004 109.822 -11.4327 0.214534 -0.937931 -0.272507
-34.1532 110.238 -12.1535 0.209818 -0.944106 -0.253756
-33.3627 110.587 -12.767 0.222254 -0.943351 -0.24634
-32.1776 110.961 -13.1428 0.220119 -0.944614 -0.243414
-31.2414 111.259 -13.4643 0.212765 -0.943831 -0.252811
-30.3332 111.52 -13.7411 0.208326 -0.952866 -0.22056
-29.501 111.766 -14.0349 0.205782 -0.955369 -0.211784
-28.4412 112.115 -14.5394 0.215149 -0.953816 -0.209634
-27.6158 112.423 -15.0094 0.21917 -0.945491 -0.240851
-26.7344 112.831 -15.8006 0.212474 -0.945289 -0.247371
-26.1566 113.135 -16.4995 0.200765 -0.93974 -0.274692
-25.4772 113.59 -17.5674 0.145729 -0.952691 -0.266725
-25.0388 113.902 -18.4093 0.0725018 -0.954801 -0.288269
-24.6381 114.266 -19.5482 0.019134 -0.965211 -0.255013
-24.3034 114.5 -20.7772 -0.0808893 -0.986272 -0.143963
-24.0421 114.6 -21.7361 -0.0749162 -0.990786 -0.112833
-23.5419 114.702 -23.1023 -0.0708108 -0.993777 -0.085921
-23.0483 114.75 -24.1524 -0.0737419 -0.994397 -0.075741
-22.5806 114.776 -24.9798 -0.0768398 -0.994601 -0.0697406
-22.0411 114.794 -25.8557 -0.0755057 -0.994809 -0.0682155
-21.4169 114.821 -26.9126 -0.076156 -0.994707 -0.0689584
-20.4874 114.83 -28.118 -0.0781028 -0.994687 -0.0670619
-19.5039 114.831 -29.1871 -0.079341 -0.994513 -0.0679639
-18.6407 114.829 -30.1674 -0.0745698 -0.993937 -0.0805267
-17.973 114.841 -30.902 -0.0732878 -0.994479 -0.0750975
-17.1674 114.846 -31.7502 -0.0734839 -0.994477 -0.0749419
-16.4805 114.844 -32.4051 -0.0731534 -0.994374 -0.076584
-15.3866 114.846 -33.4147 -0.0692105 -0.994453 -0.0792049
-14.4359 114.844 -34.1797 -0.0689047 -0.994118 -0.0835537
-13.6166 114.839 -34.7181 -0.064594 -0.993205 -0.0968109
-12.7336 114.827 -35.2133 -0.0664118 -0.993611 -0.0912288
-11.4972 114.797 -35.7685 -0.0650754 -0.993774 -0.0904346
-10.4477 114.761 -36.1121 -0.0611385 -0.994091 -0.0896317
-9.51619 114.744 -36.5446 -0.0474501 -0.994681 -0.090711
-8.47539 114.741 -36.8467 -0.033911 -0.993934 -0.104498
-7.62905 114.74 -37.1945 -0.0492731 -0.994157 -0.096044
-6.50466 114.708 -37.4414 -0.0515724 -0.993917 -0.0972688
-5.36735 114.693 -37.8119 -0.0343361 -0.996357 -0.078065
-4.39837 114.676 -37.964 -0.0275949 -0.996435 -0.0797254
-3.47567 114.655 -38.0679 -0.0470674 -0.995223 -0.0811925
-2.51527 114.629 -38.1339 -0.0310394 -0.997731 -0.0597392
-1.37613 114.611 -38.1913 -0.0254221 -0.996819 -0.0755305
-0.434307 114.598 -38.1815 -0.0031071 -0.997069 -0.0763656
0.578558 114.588 -38.0565 -0.000279622 -0.996917 -0.0784582
1.73298 114.59 -38.0716 0.00896662 -0.996171 -0.0869605
2.98496 114.602 -38.1099 0.00834036 -0.996473 -0.0834316
4.15436 114.611 -38.0485 0.0109057 -0.996535 -0.0824483
5.181 114.625 -37.9934 0.0192697 -0.995362 -0.0942484
6.13804 114.634 -37.8657 0.0275792 -0.995407 -0.091673
7.13004 114.642 -37.6377 0.029126 -0.994774 -0.0978552
8.26538 114.645 -37.3334 0.0337541 -0.995078 -0.092931
9.2656 114.646 -36.9083 0.0341079 -0.995628 -0.0868654
10.1557 114.667 -36.6973 0.0409169 -0.994305 -0.0984089
11.7103 114.686 -36.2221 0.0446286 -0.994181 -0.0980414
12.8718 114.702 -35.8481 0.0452319 -0.994228 -0.0972827
14.0452 114.732 -35.4958 0.0577266 -0.993309 -0.10002
14.9995 114.753 -35.1574 0.0584477 -0.993519 -0.0974834
16.3983 114.757 -34.4066 0.052584 -0.994133 -0.0944939
17.1811 114.752 -33.8953 0.0516957 -0.994351 -0.0926761
17.9461 114.74 -33.3519 0.0505766 -0.994664 -0.0899165
18.8966 114.72 -32.5695 0.0548135 -0.994624 -0.0878595
19.9764 114.706 -31.6712 0.0620495 -0.994537 -0.0839407
20.7496 114.699 -31.0304 0.0615091 -0.995288 -0.0749593
21.5308 114.697 -30.3636 0.0610703 -0.995443 -0.0732146
22.128 114.685 -29.6836 0.0634412 -0.99546 -0.0709276
23.1948 114.681 -28.5101 0.0681469 -0.996003 -0.0577372
23.8006 114.689 -27.7669 0.0786431 -0.995152 -0.0588171
24.3399 114.688 -27.0528 0.0851857 -0.994769 -0.056379
25.0731 114.691 -25.9834 0.0858445 -0.995027 -0.0505201
25.637 114.708 -25.2725 0.0945473 -0.994287 -0.0495303
26.3254 114.725 -24.3059 0.0931391 -0.994434 -0.0492387
26.9768 114.744 -23.3824 0.112228 -0.991927 -0.0590351
27.4956 114.729 -22.2532 0.112038 -0.991353 -0.0683208
28.0387 114.714 -20.9663 0.176319 -0.972471 -0.13458
28.3589 114.574 -19.9152 0.214951 -0.95742 -0.192724
28.5204 114.307 -18.9476 0.0935595 -0.965197 -0.244218
28.7301 113.859 -17.3602 0.059961 -0.947016 -0.315497
28.8685 113.488 -16.3027 0.0575503 -0.930203 -0.362506
