40.4101 109.97 1.04096 0.00158533 -0.962133 -0.272576
39.787 110.153 0.363809 0.007671 -0.965252 -0.261209
39.1861 110.337 -0.346209 -0.00237221 -0.974433 -0.224266
38.5649 110.497 -1.05954 -0.00518429 -0.978528 -0.205922
37.6465 110.759 -2.22076 -0.0328304 -0.977904 -0.206463
36.5776 111.033 -3.46617 -0.0597287 -0.981517 -0.181817
35.6391 111.205 -4.29092 -0.0580482 -0.989113 -0.135227
34.7974 111.343 -4.90441 -0.0590791 -0.991815 -0.113197
33.8972 111.451 -5.38151 -0.0765875 -0.991383 -0.104451
33.057 111.532 -5.78052 -0.0579624 -0.996464 -0.0608288
31.6218 111.669 -6.44744 -0.0825736 -0.996009 -0.033891
30.4358 111.804 -7.10663 -0.114198 -0.992953 -0.0308271
29.3893 111.939 -7.80659 -0.138728 -0.989627 -0.0251605
28.2991 112.156 -8.56866 -0.202144 -0.978284 -0.0330757
27.2709 112.614 -9.44067 -0.270175 -0.918084 -0.285905
26.479 113.214 -10.3632 -0.298046 -0.908549 -0.29025
25.8593 113.84 -11.5256 -0.244324 -0.897926 -0.366015
25.4618 114.378 -12.6713 -0.173091 -0.924647 -0.33899
25.2971 114.732 -13.5204 -0.10738 -0.913555 -0.392284
25.1474 115.136 -14.6696 -0.0544362 -0.960364 -0.273383
24.9848 115.49 -15.7919 0.0534273 -0.962968 -0.264271
24.7752 115.775 -16.8773 0.0740797 -0.968025 -0.237261
24.5207 116.002 -18.0219 0.0730701 -0.979093 -0.188009
24.1698 116.181 -19.1976 0.134681 -0.976865 -0.163313
23.6481 116.295 -20.432 0.109411 -0.98379 -0.14208
23.1431 116.335 -21.5474 0.136982 -0.986115 -0.0938476
22.5056 116.362 -22.5902 0.124555 -0.987294 -0.0985947
21.7055 116.36 -23.6572 0.105521 -0.990575 -0.0871202
20.9676 116.372 -24.6226 0.100116 -0.991125 -0.0874485
20.3044 116.365 -25.4465 0.111761 -0.990413 -0.0811785
19.6003 116.361 -26.2071 0.0942011 -0.991412 -0.0907099
18.6165 116.352 -27.1982 0.0975947 -0.991749 -0.0831258
17.8579 116.342 -27.928 0.0873508 -0.992318 -0.0875264
17.0738 116.339 -28.6702 0.0870294 -0.9913 -0.0983896
16.3836 116.345 -29.2713 0.0838559 -0.990782 -0.106389
15.2277 116.342 -30.1518 0.0805653 -0.991213 -0.104909
14.1216 116.34 -30.9012 0.0635658 -0.993076 -0.098788
13.2095 116.328 -31.3525 0.0598145 -0.993166 -0.100218
12.3551 116.316 -31.7498 0.0720289 -0.992085 -0.101994
11.3556 116.292 -32.1295 0.0601677 -0.993548 -0.0961388
10.4118 116.284 -32.4574 0.0417796 -0.99351 -0.105793
9.54058 116.273 -32.7677 0.0554672 -0.993823 -0.0961184
8.6829 116.261 -33.0968 0.0481909 -0.992873 -0.108726
7.30602 116.264 -33.6416 0.0392723 -0.993448 -0.107324
6.27472 116.268 -33.9354 0.0246323 -0.994225 -0.104452
5.0111 116.255 -34.1818 0.0347817 -0.993603 -0.107444
3.79879 116.247 -34.3093 0.0139648 -0.992146 -0.124306
2.76458 116.237 -34.3333 0.00329063 -0.994812 -0.101646
1.29 116.23 -34.32 0.00436535 -0.995431 -0.095389
-0.0990636 116.233 -34.2939 -0.00147317 -0.995038 -0.0993171
-1.36198 116.236 -34.2539 -0.00609175 -0.994192 -0.107448
-2.68919 116.259 -34.1839 -0.0277899 -0.994151 -0.104358
-3.90738 116.275 -34.0639 -0.020448 -0.993901 -0.108363
-4.85692 116.282 -33.8508 -0.0484271 -0.993114 -0.106674
-6.08807 116.296 -33.4557 -0.0321344 -0.994763 -0.0968039
-7.07171 116.303 -33.1686 -0.0425984 -0.993792 -0.10257
-8.08197 116.313 -32.8287 -0.0433472 -0.993107 -0.1089
-9.2143 116.334 -32.4011 -0.0686201 -0.993889 -0.0864612
-10.1977 116.363 -31.9626 -0.0645776 -0.994118 -0.0869324
-11.1257 116.378 -31.4667 -0.0632329 -0.99414 -0.0876758
-11.9165 116.383 -31.0007 -0.0558779 -0.993834 -0.0955912
-12.6628 116.376 -30.4675 -0.0704481 -0.993311 -0.090671
-13.6027 116.378 -29.5824 -0.0742298 -0.994661 -0.0703231
-14.4359 116.381 -28.7395 -0.0877094 -0.992716 -0.0825993
-15.1011 116.389 -28.0608 -0.0676993 -0.994873 -0.0751251
-15.7117 116.378 -27.3678 -0.0703373 -0.995512 -0.0618393
-16.3927 116.382 -26.5947 -0.060109 -0.996676 -0.0549928
-17.11 116.385 -25.8459 -0.0608383 -0.996708 -0.0535949
-17.9585 116.386 -24.778 -0.0780623 -0.995472 -0.0534693
-18.3474 116.381 -24.1066 -0.0703764 -0.996159 -0.0519858
-19.1174 116.48 -24.6764 -0.0797116 -0.99463 -0.0654215
-19.7374 116.452 -23.6641 -0.0734915 -0.994836 -0.0699542
-20.3579 116.397 -22.2336 -0.0708102 -0.994901 -0.0717773
-20.7996 116.332 -21.1272 -0.0854494 -0.992151 -0.0912932
-21.1763 116.251 -20.0987 -0.0605998 -0.992435 -0.106422
-21.5367 116.15 -19.0665 -0.0161246 -0.986098 -0.165382
-21.8845 116.013 -18.2166 -0.0248606 -0.98607 -0.164226
-22.2479 115.843 -17.3399 0.0552845 -0.984749 -0.164965
-22.9287 115.515 -16.0588 0.102166 -0.963369 -0.247956
-23.731 115.108 -14.8727 0.197356 -0.955681 -0.21846
-24.5339 114.671 -13.8302 0.228019 -0.94114 -0.249526
-25.4012 114.216 -12.9586 0.328311 -0.927049 -0.181085
-26.055 113.885 -12.3891 0.301885 -0.939666 -0.160915
-26.8234 113.537 -11.798 0.266156 -0.94503 -0.184928
-27.5699 113.272 -11.3064 0.256021 -0.958904 -0.122294
-28.7617 112.881 -10.67 0.225114 -0.963394 -0.145587
-29.6323 112.611 -10.2863 0.221806 -0.959412 -0.172132
-30.5102 112.371 -9.97444 0.205841 -0.960188 -0.188603
-31.6065 112.054 -9.58555 0.209102 -0.955403 -0.208104
-32.47 111.768 -9.19969 0.210801 -0.953017 -0.21739
-33.4079 111.43 -8.65934 0.215724 -0.947876 -0.234444
-34.4096 111.02 -7.92686 0.208267 -0.94682 -0.245271
-35.4313 110.551 -7.04986 0.20899 -0.93879 -0.273855
-36.3408 110.1 -6.24661 0.208797 -0.932187 -0.295496
-37.0237 109.758 -5.6249 0.203889 -0.926044 -0.31673
-37.6797 109.414 -5.09432 0.19806 -0.921258 -0.334749
-38.7969 108.894 -4.3234 0.196919 -0.914294 -0.353401
-39.8626 108.422 -3.67363 0.159575 -0.906069 -0.391887
-40.9372 107.966 -3.05222 0.157845 -0.899352 -0.407355
-41.8104 107.304 -1.9647 0.154309 -0.888264 -0.432458
-42.0739 106.654 -0.753956 0.144703 -0.881777 -0.44883
-42.3427 106.018 0.387564 0.153954 -0.873597 -0.461526
-42.5811 105.465 1.32931 0.136213 -0.872724 -0.46835
-42.6146 104.942 2.38258 0.149151 -0.891293 -0.428196
-42.5571 104.47 3.31802 0.193732 -0.879312 -0.431955
-42.2089 103.95 4.68297 0.264547 -0.887345 -0.37565
-41.459 103.719 5.98649 0.302478 -0.900992 -0.310999
-40.6079 103.851 6.85988 0.39263 -0.886647 -0.244321
-39.6946 104.239 7.01997 0.414135 -0.896104 -0.158613
-38.8835 104.637 6.86771 0.42945 -0.89616 -0.111671
-37.9357 105.14 6.51157 0.427515 -0.891891 -0.147518
-37.2083 105.541 6.16209 0.414159 -0.899261 -0.140717
-36.3293 106.004 5.78604 0.428737 -0.894434 -0.125298
-35.2077 106.656 5.27021 0.43695 -0.882529 -0.173829
-34.2429 107.172 4.83669 0.406791 -0.894651 -0.183632
-33.303 107.691 4.41666 0.411133 -0.892781 -0.184151
-32.4792 108.205 4.0371 0.477165 -0.858065 -0.189355
-31.6633 108.727 3.64995 0.455768 -0.874157 -0.167708
-30.7504 109.29 3.23123 0.496321 -0.854408 -0.153153
-30.0216 109.771 3.00202 0.506781 -0.846229 -0.164527
-29.1468 110.337 2.75839 0.498692 -0.852847 -0.154448
-28.3722 110.809 2.59094 0.489231 -0.85991 -0.14563
-27.5193 111.311 2.47801 0.473381 -0.872017 -0.124422
-26.3065 111.988 2.36677 0.473576 -0.874648 -0.103332
-25.2493 112.536 2.42602 0.459741 -0.882659 -0.0977287
-24.4192 112.94 2.56042 0.435848 -0.894398 -0.100439
-23.2831 113.426 2.8727 0.397799 -0.909108 -0.123605
-22.1463 113.815 3.3992 0.342818 -0.932271 -0.115531
-21.2229 114.086 4.04369 0.357654 -0.928496 -0.0998961
-20.5159 114.237 4.71314 0.284284 -0.953696 -0.0982181
-19.5078 114.421 5.80986 0.265929 -0.958653 -0.101118
-18.541 114.611 6.3676 0.240932 -0.963604 -0.115842
-17.1932 114.893 6.55093 0.204987 -0.973648 -0.0994364
-16.2961 115.066 6.61407 0.173561 -0.978546 -0.110424
-15.1333 115.271 6.7382 0.158903 -0.9785 -0.128217
-14.0466 115.388 6.9091 0.125263 -0.982713 -0.136324
-12.9988 115.491 7.20198 0.130832 -0.981142 -0.141987
-12.0727 115.522 7.57013 0.0844169 -0.981089 -0.174176
-11.006 115.514 8.08958 0.0669708 -0.981445 -0.179557
-10.0571 115.46 8.62267 0.029674 -0.981159 -0.19091
-8.87052 115.322 9.43704 0.0263586 -0.97725 -0.210448
-8.07608 115.206 10.0399 -0.00219065 -0.9631 -0.26772
-7.33393 115.018 10.6371 -0.00607018 -0.955786 -0.294002
-6.38223 114.703 11.6144 -0.00667433 -0.946748 -0.321906
-5.77468 114.425 12.3392 -0.0538805 -0.931132 -0.360416
-5.13303 114.079 13.1136 -0.0542454 -0.923341 -0.380129
-4.53047 113.764 13.7865 -0.0633733 -0.912523 -0.403719
-3.68879 113.233 14.7734 -0.138127 -0.896209 -0.420005
-3.12312 112.732 15.501 -0.151627 -0.854092 -0.49753
-2.49059 112.081 16.3561 -0.16309 -0.839193 -0.518592
-1.6477 111.348 17.0313 -0.213809 -0.733455 -0.644239
-0.531263 110.687 17.4679 -0.165857 -0.720411 -0.673363
0.361181 110.477 17.6451 -0.0232636 -0.741188 -0.670895
1.36981 110.58 17.5666 0.0538088 -0.740353 -0.670062
2.42873 111.06 17.1754 0.159223 -0.750584 -0.641305
3.29815 111.653 16.6889 0.202489 -0.77807 -0.594648
4.10278 112.276 16.1368 0.186276 -0.813097 -0.548965
4.73755 112.715 15.6305 0.17139 -0.846326 -0.50425
5.75633 113.329 14.8658 0.146285 -0.880791 -0.450216
6.49403 113.734 14.2926 0.131609 -0.891046 -0.434072
7.38203 114.21 13.522 0.114241 -0.901086 -0.418321
8.39149 114.652 12.6158 0.09522 -0.947325 -0.303378
9.4102 114.988 11.7461 0.0740197 -0.960923 -0.266372
10.2968 115.206 11.0944 0.0533848 -0.968972 -0.241335
11.4035 115.399 10.3831 0.000651034 -0.980145 -0.198281
12.2568 115.474 9.96341 -0.0357762 -0.982365 -0.183521
13.2398 115.507 9.59467 -0.0501129 -0.982776 -0.177187
14.4196 115.496 9.27125 -0.0512168 -0.985641 -0.160897
15.4027 115.403 9.06668 -0.126911 -0.984986 -0.116869
16.3797 115.277 8.9449 -0.146574 -0.983066 -0.109993
17.3546 115.137 8.89112 -0.154084 -0.983228 -0.097579
18.2692 114.962 8.93615 -0.218308 -0.969943 -0.107479
19.1828 114.744 9.06644 -0.233215 -0.967941 -0.090806
20.3773 114.417 9.08029 -0.262228 -0.961093 -0.0868153
21.3014 114.181 8.64053 -0.291652 -0.950055 -0.111059
22.2542 113.888 7.99803 -0.356341 -0.930751 -0.0819992
23.0203 113.638 7.45772 -0.413656 -0.903714 -0.108528
23.8227 113.301 6.9924 -0.428004 -0.90035 -0.0786224
24.5997 112.966 6.58808 -0.432648 -0.898453 -0.074532
25.8679 112.366 6.06389 -0.464396 -0.881334 -0.0870997
26.8763 111.876 5.86856 -0.456256 -0.883502 -0.105422
27.9271 111.355 5.8503 -0.435309 -0.889829 -0.136786
28.9283 110.82 6.02863 -0.428495 -0.888296 -0.165293
29.6897 110.392 6.35663 -0.393916 -0.907816 -0.134904
30.7339 109.857 7.08729 -0.422873 -0.901307 -0.0939365
31.3807 109.539 7.65698 -0.322829 -0.940958 -0.0697721
32.0501 109.304 8.25141 -0.269681 -0.957676 -0.100639
32.8374 109.015 8.90687 -0.241315 -0.967198 -0.0691527
33.7841 108.775 9.57099 -0.230579 -0.972652 -0.0174824
34.8867 108.54 10.217 -0.215094 -0.975998 0.0340894
35.7731 108.359 10.638 -0.22093 -0.974974 0.0166015
36.7715 108.133 11.2563 -0.224337 -0.974495 0.00560528
37.6525 107.936 11.8187 -0.220268 -0.975408 0.00779907
38.62 107.729 12.4913 -0.235063 -0.970679 0.0502723
39.5163 107.545 13.2209 -0.246869 -0.96391 0.0896235
40.2255 107.466 13.8498 -0.310402 -0.928498 0.179268
41.0255 107.114 14.3302 -0.516916 -0.855023 0.0416273
42.0391 106.572 13.8789 -0.531298 -0.832693 -0.0709729
43.0252 106.203 13.1982 -0.354837 -0.917407 -0.164173
43.7748 106.087 12.4837 -0.354157 -0.890015 -0.280776
44.6214 106.175 11.5805 -0.275562 -0.887754 -0.368726
45.196 106.4 10.7369 -0.126107 -0.893683 -0.425109
45.7398 106.74 9.7252 -0.10511 -0.924146 -0.367296
45.9761 107.147 8.79788 -0.0252685 -0.914781 -0.403159
45.9398 107.515 7.91971 0.0170528 -0.932364 -0.361004
45.6474 107.869 6.96825 0.00357205 -0.933252 -0.358945
45.2618 108.374 5.70248 0.00791547 -0.926499 -0.376214
44.9907 108.796 4.64324 0.0162678 -0.92534 -0.378672
44.5472 109.231 3.51817 0.0179367 -0.930928 -0.364761
43.8385 109.468 2.80192 0.0292026 -0.940002 -0.339871
43.1106 109.651 2.21761 0.0284141 -0.944953 -0.325971
42.4071 109.813 1.6493 0.0285095 -0.952313 -0.303285
41.705 109.992 1.03167 0.027847 -0.960974 -0.275235
41.0135 110.164 0.362214 0.029792 -0.966849 -0.253248
40.2715 110.369 -0.469197 -0.0011452 -0.970708 -0.240259
39.6631 110.525 -1.23011 0.00281566 -0.977222 -0.211926
39.062 110.68 -1.96644 -0.00237691 -0.979915 -0.199401
38.181 110.893 -3.06021 -0.0244053 -0.984941 -0.171162
37.5115 111.047 -3.871 -0.0252286 -0.987139 -0.157842
36.5772 111.213 -4.7389 -0.0251734 -0.989414 -0.141912
35.7711 111.344 -5.38332 -0.0511484 -0.991791 -0.116149
35.0008 111.435 -5.89372 -0.062453 -0.992895 -0.101288
33.9552 111.537 -6.42364 -0.0459472 -0.995837 -0.0787237
32.5521 111.637 -7.03929 -0.0338179 -0.997869 -0.0558087
31.7305 111.713 -7.44857 -0.0646714 -0.996157 -0.0590656
30.7357 111.815 -8.02591 -0.109492 -0.992509 -0.0542007
29.8675 111.959 -8.60285 -0.176491 -0.970373 -0.165005
28.9859 112.181 -9.18713 -0.115679 -0.96816 -0.214592
28.1823 112.48 -9.83578 -0.194842 -0.9457 -0.255068
27.6089 112.864 -10.4186 -0.273748 -0.887005 -0.371867
26.9795 113.433 -11.3056 -0.275413 -0.884474 -0.376635
26.5826 113.895 -12.1547 -0.203805 -0.891668 -0.400112
26.2863 114.47 -13.233 -0.156781 -0.903657 -0.398527
26.1261 114.984 -14.3361 -0.132078 -0.908603 -0.395412
26.0357 115.306 -15.1999 0.0756471 -0.932037 -0.354379
25.7475 115.795 -16.7553 0.0527311 -0.963318 -0.263129
25.5597 116.014 -17.6225 0.0970642 -0.971774 -0.214981
25.2304 116.28 -18.9518 0.117106 -0.971278 -0.205927
24.8987 116.376 -19.9008 0.133851 -0.98199 -0.133342
24.4823 116.44 -20.7935 0.121631 -0.98289 -0.137707
24.0495 116.484 -21.7753 0.137802 -0.98579 -0.0960693
23.5755 116.499 -22.6151 0.130932 -0.98638 -0.0992626
22.9221 116.513 -23.6133 0.128363 -0.987358 -0.0929089
22.3211 116.503 -24.3907 0.126718 -0.987688 -0.0915587
21.6216 116.504 -25.3034 0.122 -0.988209 -0.0924705
20.9953 116.497 -26.0907 0.123212 -0.988432 -0.0884312
20.3483 116.486 -26.7993 0.0946974 -0.991671 -0.0872282
19.3739 116.472 -27.7352 0.0963929 -0.991839 -0.0834449
18.5939 116.462 -28.4881 0.0963212 -0.991327 -0.0893999
17.7148 116.465 -29.3383 0.0844016 -0.990748 -0.106279
16.9851 116.471 -29.9677 0.0842561 -0.990882 -0.105124
16.2368 116.469 -30.5609 0.0846395 -0.990985 -0.103848
15.4437 116.467 -31.152 0.0765856 -0.990559 -0.113701
14.5927 116.464 -31.704 0.0783543 -0.990454 -0.11341
13.5906 116.453 -32.2207 0.0651509 -0.990162 -0.123715
12.7678 116.443 -32.6009 0.0838906 -0.990623 -0.107839
11.7134 116.401 -33.0283 0.0720294 -0.992086 -0.101984
10.749 116.397 -33.3422 0.0412657 -0.992269 -0.117048
9.82366 116.387 -33.655 0.0532863 -0.992303 -0.111772
8.96666 116.377 -33.9812 0.0552414 -0.992186 -0.11187
8.06988 116.379 -34.3475 0.0473798 -0.990552 -0.12869
6.99619 116.377 -34.726 0.0394979 -0.991017 -0.127537
5.73989 116.373 -35.0108 0.0328447 -0.991629 -0.124862
4.76307 116.371 -35.1617 0.0157824 -0.992797 -0.118761
3.72432 116.365 -35.2552 0.0175634 -0.99258 -0.120195
2.60418 116.345 -35.2901 0.0211583 -0.993015 -0.116073
1.35928 116.326 -35.2687 0.00490362 -0.992385 -0.122498
0.413598 116.332 -35.2429 -0.0152872 -0.993532 -0.112519
-0.740693 116.341 -35.2136 -0.0035111 -0.9934 -0.114644
-1.77751 116.346 -35.1717 -0.0215431 -0.990565 -0.135264
-2.76092 116.37 -35.1225 -0.0346083 -0.992269 -0.11918
-3.87172 116.384 -35.0209 -0.0159356 -0.992991 -0.117109
-5.13717 116.39 -34.74 -0.0454312 -0.9936 -0.103414
-6.33784 116.401 -34.3783 -0.035208 -0.993941 -0.104125
-7.55967 116.413 -34.0025 -0.0490574 -0.993452 -0.103181
-8.85452 116.425 -33.5251 -0.0483489 -0.992685 -0.110627
-10.1719 116.453 -33.0228 -0.0658823 -0.994126 -0.0858637
-11.2637 116.477 -32.4831 -0.0701329 -0.993376 -0.0907176
-12.1075 116.497 -31.9991 -0.0769885 -0.992644 -0.093437
-13.1028 116.486 -31.2943 -0.072777 -0.991342 -0.10872
-14.0023 116.485 -30.4823 -0.0805896 -0.993269 -0.0832018
-14.6842 116.489 -29.8166 -0.0857125 -0.993235 -0.0783485
-15.3186 116.494 -29.1701 -0.0878266 -0.992839 -0.0809429
-16.2594 116.489 -28.1832 -0.085606 -0.992379 -0.088637
-17.171 116.483 -27.1176 -0.0936716 -0.99228 -0.0812836
-18.0209 116.494 -26.2515 -0.0871678 -0.993285 -0.0757076
-18.6771 116.489 -25.482 -0.085407 -0.994633 -0.0584074
-19.0398 116.482 -24.8304 -0.0851465 -0.994652 -0.0584636
-19.8488 116.597 -25.3234 -0.11454 -0.989301 -0.0897554
-19.2566 116.615 -26.3472 -0.0984597 -0.991644 -0.0833009
-18.4772 116.61 -27.1416 -0.0983497 -0.991179 -0.0888105
-17.7263 116.6 -27.8953 -0.10027 -0.991117 -0.0873669
-16.8519 116.61 -28.9534 -0.0950112 -0.9913 -0.0910502
-15.8873 116.607 -29.9408 -0.0878219 -0.992839 -0.0809467
-14.8948 116.608 -30.9214 -0.0970838 -0.989369 -0.108267
-13.8982 116.615 -31.8393 -0.0859459 -0.990242 -0.109632
-13.1433 116.619 -32.434 -0.0839672 -0.989837 -0.114738
-12.1843 116.613 -33.0564 -0.084583 -0.988867 -0.122429
-11.0744 116.59 -33.6255 -0.0821164 -0.9887 -0.125419
-10.22 116.572 -34.0112 -0.0734162 -0.989617 -0.12356
-9.19375 116.544 -34.3869 -0.0613942 -0.990724 -0.120651
-7.97408 116.52 -34.8429 -0.0557944 -0.99304 -0.10345
-6.99458 116.525 -35.1665 -0.0437097 -0.991152 -0.125059
-5.78256 116.513 -35.5286 -0.0438878 -0.988093 -0.147466
-4.50471 116.513 -35.8711 -0.0297725 -0.990501 -0.134191
-3.13737 116.503 -36.0556 -0.0258934 -0.990138 -0.137677
-1.77132 116.474 -36.1088 -0.0215491 -0.990564 -0.135274
-0.473618 116.458 -36.1624 -0.0143554 -0.990936 -0.133511
0.815463 116.449 -36.1837 -0.00514714 -0.991385 -0.130852
2.13875 116.455 -36.2318 0.00877248 -0.989003 -0.147469
3.64553 116.49 -36.2128 0.0280308 -0.990273 -0.136283
4.7611 116.483 -36.1026 0.0110232 -0.992121 -0.124572
5.73627 116.49 -35.953 0.0337231 -0.991731 -0.123821
6.66368 116.499 -35.7682 0.0328512 -0.991628 -0.124868
7.54197 116.511 -35.5525 0.0470164 -0.990509 -0.129159
8.42096 116.507 -35.2035 0.049083 -0.990481 -0.128587
9.37491 116.507 -34.8105 0.0565015 -0.989377 -0.133942
10.3777 116.509 -34.4428 0.0482524 -0.989204 -0.13837
11.5286 116.528 -34.0707 0.0718657 -0.988416 -0.133675
12.5707 116.557 -33.6795 0.0829002 -0.988274 -0.12823
13.5827 116.584 -33.2424 0.0762926 -0.988624 -0.129562
14.9039 116.597 -32.6075 0.0767589 -0.988132 -0.133026
15.8428 116.603 -32.0289 0.0846579 -0.988637 -0.12422
16.6834 116.594 -31.3582 0.09116 -0.988412 -0.120777
17.5092 116.6 -30.7255 0.0911079 -0.989873 -0.108857
18.3511 116.588 -30.0162 0.094806 -0.990222 -0.101369
19.0106 116.597 -29.3845 0.108729 -0.989008 -0.100206
20.2011 116.603 -28.2129 0.10541 -0.989086 -0.102946
20.9816 116.62 -27.4781 0.123321 -0.988283 -0.0899362
21.6679 116.639 -26.746 0.123262 -0.988358 -0.089185
22.3219 116.646 -25.9231 0.121467 -0.988552 -0.0895039
22.8726 116.646 -25.1741 0.133534 -0.986387 -0.0950197
23.4368 116.66 -24.4196 0.145299 -0.985496 -0.0876721
24.1277 116.672 -23.438 0.164436 -0.981496 -0.098111
24.7926 116.67 -22.3624 0.177348 -0.978276 -0.106201
25.2452 116.659 -21.4171 0.183013 -0.975687 -0.11915
25.6708 116.607 -20.4946 0.177375 -0.973502 -0.143993
26.0176 116.512 -19.5735 0.133243 -0.972198 -0.192555
26.2641 116.367 -18.6721 0.141978 -0.96717 -0.209819
26.5273 116.101 -17.4986 0.119476 -0.958741 -0.257955
26.7685 115.775 -16.3342 0.0650655 -0.942001 -0.329242
26.9565 115.453 -15.3918 0.0311488 -0.920913 -0.384618
27.0716 115.064 -14.5416 -0.0133501 -0.909789 -0.414857
27.1494 114.606 -13.7277 -0.0104648 -0.85781 -0.51386
27.3908 113.934 -12.5523 -0.196959 -0.872665 -0.446837
27.8628 113.323 -11.5943 -0.199822 -0.861812 -0.46621
28.4258 112.816 -10.871 -0.242225 -0.892726 -0.379957
29.2542 112.387 -10.1035 -0.148725 -0.955547 -0.254579
29.9979 112.07 -9.59252 -0.214941 -0.970322 -0.110794
31.0017 111.844 -8.97707 -0.109889 -0.990424 -0.0835744
32.0273 111.727 -8.35774 -0.0373755 -0.997669 -0.0502162
33.2327 111.657 -7.74746 -0.0260059 -0.997287 -0.0688623
34.1848 111.604 -7.35142 -0.0340037 -0.996123 -0.0800901
35.2588 111.516 -6.8708 -0.0367547 -0.995191 -0.0907158
36.0417 111.434 -6.35691 -0.0426866 -0.993864 -0.102043
37.177 111.289 -5.45646 -0.0227866 -0.991855 -0.125316
38.3526 111.103 -4.34573 -0.0228965 -0.987306 -0.15717
39.2304 110.906 -3.22832 -0.00675726 -0.986207 -0.165377
39.8655 110.763 -2.446 0.00519522 -0.98265 -0.184608
40.4791 110.636 -1.70364 0.0109381 -0.978273 -0.207033
41.1 110.477 -0.903395 0.0292841 -0.977136 -0.210508
41.8665 110.304 -0.071974 0.0297921 -0.966849 -0.253248
42.6909 110.117 0.698057 0.0347931 -0.963373 -0.265896
43.5137 109.952 1.38216 0.0371775 -0.948202 -0.315163
44.3866 109.749 2.05339 0.0325439 -0.944639 -0.326494
45.2246 109.512 2.81528 0.0480597 -0.942252 -0.330979
45.7365 109.221 3.62937 0.0335189 -0.931965 -0.360996
45.9792 108.856 4.55677 0.0223492 -0.922495 -0.38536
46.1427 108.494 5.45424 0.0416779 -0.932612 -0.358034
46.3827 108.173 6.28394 0.0488144 -0.92656 -0.372966
46.7857 107.734 7.47068 0.0718689 -0.9289 -0.363123
47.0102 107.266 8.57157 0.0847332 -0.889103 -0.449795
46.7857 106.711 9.66681 -0.121062 -0.881952 -0.455526
46.2126 106.151 10.8716 -0.147103 -0.863221 -0.482918
45.6729 105.857 11.6503 -0.229549 -0.897504 -0.376555
45.0421 105.678 12.4618 -0.252556 -0.892629 -0.372641
44.0681 105.692 13.3673 -0.354157 -0.890015 -0.280776
43.1878 105.883 14.1235 -0.430363 -0.867505 -0.248305
42.2917 106.232 14.7779 -0.485685 -0.855765 -0.178256
41.5386 106.677 15.2094 -0.65073 -0.753978 -0.0898258
40.5346 107.458 15.3472 -0.581002 -0.811303 -0.0649889
39.6739 107.721 14.5687 -0.218975 -0.955994 0.195255
38.8556 107.794 13.8188 -0.209757 -0.969456 0.127112
37.8303 107.951 13.0176 -0.227409 -0.971991 0.0580135
36.7973 108.139 12.3688 -0.202388 -0.977698 0.0535385
35.6809 108.381 11.6586 -0.218296 -0.97588 0.00212784
34.8739 108.568 11.2624 -0.226771 -0.973948 -0.00087941
33.7842 108.802 10.6647 -0.224099 -0.973966 0.0342128
32.8138 109.017 10.0232 -0.241943 -0.970287 0.00214161
32.053 109.206 9.46961 -0.2659 -0.96264 -0.0309933
31.1529 109.587 8.68028 -0.418027 -0.907439 -0.0386577
30.2397 110.017 7.86453 -0.390941 -0.919751 -0.0303759
29.1045 110.533 7.11343 -0.393916 -0.907816 -0.134904
28.3476 110.975 6.83586 -0.458753 -0.875833 -0.149873
27.2703 111.557 6.74071 -0.465163 -0.878827 -0.10608
26.4274 111.992 6.83785 -0.47286 -0.876102 -0.0934876
25.4612 112.473 7.16848 -0.463958 -0.88221 -0.0803057
24.6579 112.835 7.56329 -0.43672 -0.893265 -0.106423
23.9105 113.142 8.02029 -0.432114 -0.895647 -0.10533
23.1244 113.459 8.54907 -0.413654 -0.903716 -0.108521
22.0127 113.853 9.26589 -0.394477 -0.911157 -0.11886
21.1479 114.114 9.7977 -0.342963 -0.929791 -0.13366
20.1519 114.382 10.0917 -0.286397 -0.948882 -0.131731
18.9693 114.709 9.98663 -0.233211 -0.967941 -0.0908168
17.7187 114.982 9.79785 -0.164835 -0.979132 -0.117378
16.3579 115.18 9.84521 -0.133658 -0.982704 -0.126847
15.0075 115.332 10.0448 -0.100864 -0.980125 -0.166554
13.7671 115.34 10.3744 -0.0496137 -0.98309 -0.176272
12.536 115.301 10.8353 -0.0364509 -0.982257 -0.183959
11.6784 115.202 11.2759 0.0104312 -0.972446 -0.232895
10.7437 115.036 11.8763 0.0567968 -0.965673 -0.253157
9.5451 114.708 12.7919 0.0740197 -0.960923 -0.266372
8.61307 114.315 13.6116 0.102388 -0.935052 -0.339404
7.97997 114.007 14.1885 0.153043 -0.913998 -0.375746
7.0671 113.498 14.999 0.156686 -0.899739 -0.407331
6.01785 112.91 15.7848 0.204182 -0.868878 -0.450285
5.25042 112.402 16.363 0.230755 -0.826533 -0.509263
4.58201 111.835 16.8866 0.230286 -0.793282 -0.563624
3.62308 111.094 17.4822 0.208104 -0.740602 -0.638907
2.64784 110.429 17.9464 0.182952 -0.712954 -0.676923
1.59556 109.929 18.2985 0.0693082 -0.698821 -0.709651
0.594278 109.726 18.3949 -0.016759 -0.673524 -0.737478
-0.547216 109.941 18.2571 -0.0941875 -0.725729 -0.677188
-1.5318 110.46 17.9568 -0.165854 -0.720413 -0.673361
-2.50154 111.159 17.5308 -0.213815 -0.733459 -0.644233
-3.09308 111.727 17.081 -0.210295 -0.780955 -0.584496
-3.6129 112.279 16.4205 -0.172688 -0.82718 -0.534366
-4.25081 112.936 15.5048 -0.164324 -0.853012 -0.495346
-4.90773 113.367 14.726 -0.074957 -0.90612 -0.416322
-5.55266 113.726 14.0091 -0.0510793 -0.918104 -0.393035
-6.14929 114.053 13.3197 -0.053552 -0.926757 -0.371823
-6.79422 114.391 12.567 -0.0539641 -0.927212 -0.370628
-7.59364 114.704 11.6462 -0.023037 -0.950648 -0.309274
-8.30992 114.909 11.0342 -0.0198792 -0.958105 -0.285727
-9.04273 115.08 10.4684 0.0281324 -0.969042 -0.245289
-9.89156 115.213 9.81663 0.0282888 -0.977437 -0.209311
-10.9162 115.313 9.14767 0.0644933 -0.975049 -0.211966
-11.8293 115.341 8.67672 0.0607256 -0.977981 -0.198953
-12.925 115.351 8.17642 0.100122 -0.981579 -0.160177
-14.1257 115.253 7.81133 0.112266 -0.983604 -0.140739
-15.1608 115.141 7.60969 0.133589 -0.98075 -0.142421
-16.2638 114.972 7.53062 0.162902 -0.980842 -0.106826
-17.3031 114.782 7.48971 0.218142 -0.97076 -0.0993102
-18.6376 114.469 7.37433 0.243358 -0.964018 -0.106989
-19.9334 114.181 6.74336 0.303212 -0.944624 -0.125489
-20.5365 114.075 6.08206 0.30639 -0.944135 -0.121381
-21.3425 113.922 5.11586 0.356444 -0.926905 -0.116991
-22.1495 113.685 4.43922 0.364332 -0.925032 -0.10757
-22.9399 113.433 3.98279 0.363926 -0.922804 -0.126453
-23.8392 113.088 3.6352 0.409966 -0.905001 -0.112772
-24.6447 112.724 3.43125 0.444975 -0.889484 -0.104
-25.9019 112.094 3.28899 0.468213 -0.877388 -0.104721
-27.0304 111.468 3.3303 0.490258 -0.862887 -0.122772
-28.0705 110.854 3.46017 0.500514 -0.856148 -0.128174
-28.8288 110.383 3.6006 0.512871 -0.84803 -0.133448
-29.7823 109.749 3.87645 0.524318 -0.838195 -0.150065
-30.685 109.16 4.21602 0.486317 -0.861438 -0.146354
-31.3977 108.703 4.54445 0.499154 -0.851197 -0.160247
-32.0964 108.218 4.89605 0.494148 -0.850434 -0.180502
-32.8558 107.726 5.24226 0.403905 -0.902092 -0.146834
-33.7178 107.305 5.62696 0.396675 -0.911403 -0.109521
-34.7677 106.712 6.09927 0.443901 -0.888592 -0.114928
-35.6869 106.225 6.5387 0.425624 -0.899072 -0.102537
-36.5054 105.781 6.88621 0.443329 -0.889598 -0.109886
-37.5863 105.195 7.3835 0.439975 -0.893328 -0.0915747
-38.4012 104.764 7.70087 0.427191 -0.897234 -0.111682
-39.2171 104.311 7.9247 0.454343 -0.878139 -0.149814
-40.453 103.655 8.01614 0.45969 -0.865925 -0.197124
-41.3675 103.345 7.46668 0.392678 -0.885952 -0.246766
-42.0208 103.279 6.67662 0.370835 -0.865792 -0.335967
-42.7395 103.415 5.54463 0.319058 -0.86895 -0.373217
-43.2072 103.702 4.6276 0.267212 -0.872269 -0.409566
-43.5097 104.248 3.41444 0.176107 -0.863388 -0.472271
-43.551 104.721 2.51772 0.152428 -0.881069 -0.447221
-43.5573 105.186 1.61046 0.116348 -0.876127 -0.46783
-43.3741 105.724 0.64824 0.103376 -0.873671 -0.475408
-43.1235 106.253 -0.302859 0.0989084 -0.887815 -0.449447
-42.922 106.781 -1.28144 0.135765 -0.884017 -0.447209
-42.7858 107.241 -2.13848 0.129076 -0.881992 -0.453244
-42.4662 107.747 -3.07473 0.127985 -0.889955 -0.437706
-41.5626 108.195 -3.78869 0.124918 -0.909956 -0.395444
-40.4724 108.618 -4.375 0.135795 -0.913377 -0.383311
-39.3281 109.077 -5.0635 0.161067 -0.923416 -0.348367
-38.6094 109.393 -5.54485 0.170223 -0.920359 -0.352084
-37.8418 109.744 -6.12343 0.178543 -0.935202 -0.305385
-37.0292 110.16 -6.88928 0.194132 -0.933463 -0.301595
-36.3126 110.491 -7.51562 0.182746 -0.942902 -0.278459
-35.503 110.861 -8.21224 0.197035 -0.948533 -0.247916
-34.742 111.186 -8.85189 0.202649 -0.947675 -0.246599
-33.6578 111.606 -9.60737 0.208579 -0.950084 -0.232008
-32.4011 112.027 -10.2664 0.210801 -0.953017 -0.21739
-31.5451 112.286 -10.6245 0.198582 -0.955615 -0.217635
-30.644 112.537 -10.9296 0.191907 -0.958857 -0.209171
-29.4145 112.878 -11.3949 0.179897 -0.963516 -0.198176
-28.6312 113.115 -11.7787 0.202962 -0.96215 -0.181865
-27.777 113.399 -12.282 0.235592 -0.952016 -0.194429
-27.0228 113.706 -12.789 0.237071 -0.94854 -0.209812
-26.1384 114.112 -13.5197 0.269433 -0.927969 -0.256024
-25.1992 114.651 -14.4456 0.280928 -0.929864 -0.237555
-24.4369 115.117 -15.4448 0.171936 -0.945871 -0.275256
-23.8979 115.434 -16.2511 0.152571 -0.95723 -0.24583
-23.3683 115.742 -17.1199 0.127365 -0.9603 -0.246893
-22.9563 115.964 -17.9858 0.0122896 -0.970016 -0.242729
-22.5299 116.165 -19.0009 -0.0335937 -0.986043 -0.163067
-22.2394 116.299 -19.845 -0.0933431 -0.986349 -0.134372
-21.7699 116.42 -21.2367 -0.0858264 -0.989044 -0.118087
-21.2717 116.518 -22.574 -0.0934357 -0.990123 -0.104529
-20.9625 116.563 -23.4618 -0.104628 -0.99089 -0.0847819
-20.439 116.576 -24.358 -0.104277 -0.991651 -0.0758382
-20.0894 116.584 -24.927 -0.104869 -0.990621 -0.0870043
-20.9315 116.723 -25.3772 -0.121773 -0.98768 -0.0982866
-21.4043 116.708 -24.6059 -0.124789 -0.98845 -0.0856125
-21.882 116.681 -23.6549 -0.108447 -0.98967 -0.0937687
-22.2926 116.62 -22.5476 -0.116667 -0.988046 -0.100764
-22.7471 116.545 -21.3969 -0.105544 -0.987662 -0.115693
-23.0816 116.44 -20.3311 -0.0794061 -0.985985 -0.146725
-23.3976 116.278 -19.2393 -0.0472954 -0.974144 -0.218047
-23.9352 115.986 -18.0281 0.0360419 -0.957031 -0.280755
-24.3608 115.68 -17.2212 0.0895248 -0.946414 -0.310294
-25.0657 115.183 -16.0958 0.174737 -0.923922 -0.340345
-25.7055 114.767 -15.2596 0.246803 -0.915951 -0.31642
-26.308 114.357 -14.5707 0.291933 -0.907769 -0.301198
-27.1886 113.888 -13.8304 0.304516 -0.93025 -0.204707
-28.0666 113.509 -13.1838 0.219452 -0.955511 -0.192199
-29.2093 113.156 -12.5208 0.181217 -0.960695 -0.21028
-30.4195 112.821 -12.0007 0.179896 -0.958805 -0.219631
-31.2955 112.58 -11.7107 0.188211 -0.957659 -0.217753
-32.2267 112.32 -11.3922 0.195449 -0.955868 -0.219355
-33.2671 111.995 -10.9169 0.200071 -0.954405 -0.221545
-34.0371 111.732 -10.4686 0.188201 -0.957025 -0.220645
-34.9696 111.394 -9.843 0.189078 -0.951512 -0.242533
-35.7064 111.107 -9.26504 0.185552 -0.949856 -0.251424
-36.5016 110.758 -8.56452 0.180854 -0.947767 -0.262735
-37.176 110.462 -7.99185 0.186486 -0.944112 -0.271801
-37.9265 110.133 -7.34971 0.167028 -0.9401 -0.296878
-38.6001 109.801 -6.69768 0.168634 -0.93439 -0.313717
-39.4852 109.419 -6.06501 0.163933 -0.931747 -0.323782
-40.2878 109.102 -5.53234 0.132228 -0.921905 -0.364151
-41.0562 108.812 -5.08015 0.135132 -0.920957 -0.365483
-41.869 108.527 -4.66109 0.116981 -0.919179 -0.37549
-42.9023 108.134 -4.05189 0.113875 -0.909144 -0.400611
-43.5269 107.655 -3.20384 0.132318 -0.89321 -0.429729
-43.719 107.19 -2.29672 0.119523 -0.887728 -0.444496
-43.862 106.671 -1.31248 0.113258 -0.88566 -0.45031
-44.0834 106.138 -0.28563 0.104274 -0.889744 -0.444324
-44.3188 105.67 0.554586 0.0856015 -0.879928 -0.467331
-44.5108 105.135 1.51926 0.0951182 -0.872132 -0.479783
-44.4997 104.486 2.63509 0.130526 -0.845369 -0.517765
-44.3529 103.746 3.96692 0.198046 -0.862996 -0.464515
-43.9503 103.262 5.07873 0.233398 -0.871165 -0.43015
-43.4942 103.007 5.9235 0.267485 -0.873267 -0.407254
-42.8282 102.825 6.96014 0.371039 -0.866952 -0.332751
-42.0414 102.831 8.00097 0.452946 -0.847042 -0.278005
-41.1992 103.072 8.74311 0.523806 -0.822099 -0.221424
-40.1482 103.641 9.02901 0.479287 -0.866589 -0.138017
-39.358 104.105 8.9563 0.477742 -0.869943 -0.120493
-38.1599 104.79 8.59763 0.475234 -0.874027 -0.101147
-36.9871 105.41 8.16184 0.439391 -0.894026 -0.087375
-36.1844 105.845 7.77799 0.43883 -0.893701 -0.0934189
-35.1446 106.394 7.34551 0.430076 -0.897991 -0.0928463
-34.244 106.88 6.89684 0.441941 -0.891085 -0.103229
-33.4532 107.316 6.531 0.436893 -0.895441 -0.0822628
-32.7035 107.697 6.19673 0.420831 -0.902835 -0.088258
-31.8353 108.176 5.81014 0.475022 -0.867789 -0.136827
-30.8768 108.858 5.30569 0.51167 -0.840311 -0.179084
-30.1424 109.343 4.95915 0.506198 -0.851383 -0.135573
-29.0589 110.082 4.58184 0.527926 -0.838615 -0.134235
-28.0041 110.762 4.36459 0.511338 -0.852032 -0.112137
-27.1785 111.259 4.25674 0.495091 -0.861196 -0.114967
-26.2152 111.815 4.18265 0.48558 -0.866432 -0.116225
-25.3537 112.272 4.21929 0.453237 -0.884753 -0.10857
-24.073 112.866 4.48543 0.420264 -0.899486 -0.119599
-22.9483 113.306 4.97686 0.377188 -0.918694 -0.116233
-22.0737 113.581 5.58959 0.356447 -0.926904 -0.116985
-21.1773 113.776 6.75082 0.332389 -0.937784 -0.100062
-20.6134 113.89 7.44632 0.294153 -0.950257 -0.102398
-19.9198 114.037 8.05378 0.290057 -0.950917 -0.107813
-18.9461 114.288 8.35054 0.239052 -0.965683 -0.101539
-17.9885 114.518 8.4233 0.228716 -0.969305 -0.0883348
-17.0839 114.724 8.45094 0.22551 -0.967764 -0.112149
-15.9187 114.924 8.47566 0.154326 -0.981362 -0.113963
-14.762 115.075 8.60357 0.120428 -0.984405 -0.126202
-13.6246 115.156 8.91248 0.107032 -0.981115 -0.159417
-12.4912 115.18 9.33688 0.0594025 -0.98117 -0.182952
-11.5113 115.129 9.82587 0.0455775 -0.979655 -0.195428
-10.4508 115.029 10.5047 0.0534202 -0.972691 -0.225872
-9.63443 114.883 11.1815 0.0268796 -0.965705 -0.257834
-8.76481 114.663 11.8695 -0.0189989 -0.955619 -0.293992
-8.01713 114.419 12.569 -0.0323752 -0.950711 -0.308382
-7.2968 114.101 13.3632 -0.0585753 -0.926785 -0.37095
-6.67896 113.781 14.071 -0.0599872 -0.922946 -0.380084
-5.83125 113.306 15.0363 -0.0639394 -0.915365 -0.397517
-5.15247 112.891 15.8068 -0.0787654 -0.898168 -0.432017
-4.68385 112.45 16.4902 -0.166157 -0.854278 -0.492546
-4.22342 111.896 17.2608 -0.203794 -0.827674 -0.521921
-3.62417 111.248 17.8286 -0.305233 -0.686392 -0.660074
-2.8997 110.582 18.2389 -0.226091 -0.687852 -0.689437
-1.96536 109.886 18.5948 -0.226696 -0.644408 -0.730306
-0.555033 109.149 18.9907 -0.138411 -0.6514 -0.746003
0.570337 108.985 19.0786 0.00782205 -0.671598 -0.740546
1.6221 109.156 19.0002 0.110665 -0.67925 -0.725515
2.79313 109.722 18.725 0.189364 -0.688977 -0.698975
3.92198 110.522 18.2661 0.256578 -0.686869 -0.679984
4.74589 111.138 17.8572 0.234963 -0.753556 -0.613959
5.4071 111.713 17.3957 0.232263 -0.792487 -0.563927
6.30453 112.497 16.6792 0.237237 -0.812708 -0.530637
7.09176 112.953 16.1395 0.185243 -0.877239 -0.442873
7.8123 113.384 15.5385 0.156847 -0.899773 -0.407195
8.74816 113.919 14.6706 0.123695 -0.916221 -0.38047
9.60829 114.311 13.9112 0.0937664 -0.933338 -0.346538
10.4689 114.636 13.2072 0.0690875 -0.941423 -0.330074
11.242 114.852 12.6272 0.0322714 -0.962934 -0.267798
12.422 115.068 11.9038 0.00602026 -0.974568 -0.223742
13.2903 115.147 11.5006 -0.0371128 -0.981959 -0.185415
14.2414 115.176 11.1583 -0.0522534 -0.983343 -0.172727
15.5546 115.141 10.8368 -0.100859 -0.980127 -0.166546
16.7688 115.008 10.6971 -0.120585 -0.982811 -0.139791
17.9535 114.819 10.7619 -0.184192 -0.975041 -0.123926
19.0151 114.582 10.9319 -0.239216 -0.961812 -0.133015
19.929 114.329 11.0692 -0.27677 -0.953587 -0.116911
20.9887 114.012 10.9791 -0.328285 -0.938175 -0.101867
21.8112 113.749 10.5219 -0.360316 -0.921803 -0.143006
22.7168 113.457 9.93272 -0.393688 -0.91055 -0.126132
23.4986 113.18 9.42966 -0.420429 -0.900891 -0.106833
24.3579 112.837 8.82185 -0.433569 -0.896127 -0.0941365
25.1225 112.518 8.29287 -0.439801 -0.892541 -0.0997319
25.9148 112.164 7.94426 -0.472043 -0.877556 -0.083502
27.0344 111.574 7.68647 -0.472856 -0.876105 -0.0934797
27.8946 111.147 7.69569 -0.460238 -0.884266 -0.0748946
29.0299 110.515 8.11499 -0.460772 -0.88652 -0.0420903
29.7154 110.201 8.6396 -0.375342 -0.926255 -0.0342024
30.529 109.846 9.3316 -0.390939 -0.919752 -0.0303688
31.3636 109.426 10.0884 -0.392416 -0.915251 0.0486143
32.2539 109.203 10.726 -0.28011 -0.957829 0.0622481
33.3875 108.934 11.4874 -0.236688 -0.970758 0.0383227
34.1673 108.752 11.9441 -0.250289 -0.967821 0.0260223
35.2017 108.498 12.4396 -0.243495 -0.969376 0.0311713
36.2165 108.282 13.0661 -0.203737 -0.97826 0.0339255
37.0658 108.142 13.5776 -0.186081 -0.982011 0.0185324
37.9657 108.061 14.2265 -0.231143 -0.957383 0.173177
38.9948 107.971 15.1085 -0.23169 -0.957432 0.172172
39.8351 107.824 16.0099 -0.287775 -0.955597 -0.0634
40.6333 107.202 16.4879 -0.631226 -0.724143 -0.257938
41.6117 106.35 16.0961 -0.686967 -0.660349 -0.303342
42.5188 105.78 15.578 -0.588635 -0.739294 -0.325829
43.6453 105.333 14.7146 -0.550196 -0.754643 -0.35749
44.6363 105.148 13.8966 -0.442664 -0.79031 -0.423626
45.6671 105.177 12.9352 -0.333752 -0.827472 -0.451551
46.3298 105.366 12.2046 -0.300505 -0.811786 -0.500674
46.8792 105.663 11.4932 -0.214814 -0.82039 -0.52651
47.3409 106.062 10.6282 -0.144619 -0.830654 -0.53768
47.6973 106.48 9.87112 -0.0481652 -0.852388 -0.511643
47.9381 106.985 9.15043 0.022694 -0.848483 -0.526493
47.9523 107.551 8.18523 0.0913408 -0.875195 -0.469846
47.6844 107.914 7.25455 0.121812 -0.920962 -0.370122
47.3511 108.223 6.32703 0.0879024 -0.930065 -0.356725
47.0935 108.543 5.41431 0.0345433 -0.938661 -0.343107
46.9632 108.918 4.4517 0.0121817 -0.923908 -0.382365
46.7297 109.337 3.40654 0.012812 -0.930454 -0.366185
46.2681 109.681 2.4827 0.0330967 -0.933978 -0.355795
45.4853 109.899 1.77572 0.0651482 -0.940383 -0.333821
44.6779 110.061 1.13794 0.0257112 -0.955775 -0.292972
43.8684 110.219 0.493813 0.0471271 -0.962447 -0.267347
43.059 110.37 -0.18005 0.0305192 -0.967334 -0.251662
42.3581 110.515 -0.906891 0.0565007 -0.97472 -0.216167
41.6125 110.679 -1.78215 0.0324524 -0.978073 -0.205717
41.0185 110.804 -2.53215 0.0295358 -0.983123 -0.180371
40.2392 110.954 -3.4574 0.0247953 -0.984309 -0.174701
39.4192 111.125 -4.49762 0.0108361 -0.986379 -0.164129
38.7025 111.263 -5.35483 -0.00410634 -0.990786 -0.135372
37.7848 111.384 -6.19119 -0.0092662 -0.99174 -0.127505
37.0695 111.454 -6.73305 -0.00567544 -0.993206 -0.116207
36.3215 111.527 -7.34591 -0.00385497 -0.993652 -0.1124
35.3854 111.601 -7.85387 -0.0367555 -0.995192 -0.0907062
34.4711 111.657 -8.23286 -0.0274078 -0.99724 -0.0689947
33.3644 111.721 -8.70912 -0.0278718 -0.997013 -0.0720247
32.4435 111.779 -9.19502 -0.0263341 -0.995835 -0.0856664
31.5103 111.878 -9.73999 -0.0711716 -0.991139 -0.112153
30.2032 112.253 -10.5485 -0.28742 -0.928853 -0.233713
29.5084 112.593 -11.043 -0.314286 -0.868531 -0.356865
28.9411 113.061 -11.6135 -0.222766 -0.852599 -0.472706
28.4859 113.559 -12.2746 -0.177217 -0.811526 -0.550483
28.1543 114.198 -13.2078 -0.0985643 -0.837032 -0.538204
28.0701 114.715 -14.0123 -0.046724 -0.814261 -0.574099
28.0086 115.239 -14.8199 0.0526207 -0.881933 -0.467322
27.7697 115.767 -16.0211 0.0745228 -0.926306 -0.369329
27.4747 116.22 -17.3889 0.11179 -0.938757 -0.325942
27.1545 116.59 -18.9098 0.170151 -0.950861 -0.258674
26.9203 116.729 -19.7857 0.217004 -0.953966 -0.207024
26.5653 116.818 -20.7761 0.207304 -0.96864 -0.136976
26.1278 116.865 -21.7743 0.190403 -0.972082 -0.136031
25.5032 116.874 -22.9983 0.187847 -0.977344 -0.0975283
25.0032 116.848 -23.7698 0.175718 -0.980012 -0.0919048
24.3428 116.831 -24.7102 0.159899 -0.98254 -0.0951205
23.7889 116.818 -25.4773 0.1544 -0.983454 -0.0947519
23.0534 116.807 -26.4881 0.144259 -0.984982 -0.0946713
22.3529 116.792 -27.3716 0.134067 -0.985658 -0.102494
21.5572 116.771 -28.2246 0.137687 -0.985173 -0.102352
20.4192 116.744 -29.2939 0.115767 -0.986991 -0.111569
19.5832 116.744 -30.1267 0.117364 -0.985913 -0.119163
18.7256 116.739 -30.8965 0.110202 -0.985391 -0.129848
18.0137 116.739 -31.5076 0.104522 -0.985909 -0.13043
17.1529 116.748 -32.1838 0.0952585 -0.987168 -0.128008
16.2709 116.746 -32.8774 0.0919775 -0.98801 -0.12378
15.3251 116.744 -33.4456 0.0793603 -0.987927 -0.133051
14.1499 116.731 -34.0409 0.0784423 -0.988908 -0.126128
12.9064 116.697 -34.561 0.080326 -0.988777 -0.12597
11.6516 116.668 -34.983 0.0709423 -0.9867 -0.146237
10.5201 116.645 -35.3628 0.0588889 -0.987895 -0.143036
9.55729 116.644 -35.7332 0.0555767 -0.988708 -0.13917
8.33161 116.653 -36.279 0.0542557 -0.988661 -0.140022
7.22536 116.644 -36.5902 0.0405057 -0.987798 -0.150379
5.77018 116.627 -36.8771 0.0420732 -0.987566 -0.151467
4.8752 116.612 -37.0193 0.0121148 -0.989509 -0.143961
3.59999 116.614 -37.1381 0.00837164 -0.988225 -0.152487
2.56315 116.608 -37.2018 0.0152013 -0.988552 -0.150114
1.22543 116.584 -37.128 -3.75767e-05 -0.989143 -0.146923
0.299801 116.58 -37.0888 -0.00645035 -0.989174 -0.146605
-0.756004 116.591 -37.1054 -0.0181605 -0.988959 -0.146914
-1.66629 116.608 -37.075 -0.02389 -0.989563 -0.142104
-3.02936 116.634 -37.0171 -0.0261895 -0.989802 -0.139997
-4.39612 116.651 -36.8437 -0.0314303 -0.988323 -0.149095
-5.59475 116.659 -36.5623 -0.0430366 -0.988007 -0.148288
-6.73161 116.66 -36.2328 -0.0413784 -0.988754 -0.143714
-7.72725 116.666 -35.917 -0.0574372 -0.988159 -0.142276
-8.65769 116.67 -35.5541 -0.0685653 -0.987253 -0.143629
-9.57448 116.684 -35.2149 -0.0717262 -0.987509 -0.140211
-10.9498 116.717 -34.7169 -0.0758291 -0.988746 -0.128703
-12.1996 116.744 -34.1025 -0.0818968 -0.989025 -0.122971
-13.1118 116.757 -33.6014 -0.081272 -0.989255 -0.12153
-14.0005 116.756 -32.9703 -0.0897479 -0.9889 -0.118296
-14.7849 116.747 -32.2695 -0.097594 -0.9884 -0.116367
-15.5043 116.743 -31.6147 -0.097086 -0.989368 -0.108277
-16.4279 116.737 -30.7182 -0.0978474 -0.989381 -0.10748
-17.1895 116.737 -29.9615 -0.097484 -0.990958 -0.0921214
-17.8052 116.729 -29.2603 -0.0950211 -0.991299 -0.0910526
-18.4806 116.726 -28.4532 -0.100407 -0.991144 -0.0869036
-19.2502 116.738 -27.7242 -0.107981 -0.989797 -0.0922158
-19.9578 116.754 -26.985 -0.12511 -0.988046 -0.0900745
-20.5358 116.743 -26.0563 -0.11454 -0.989301 -0.0897554
-20.8183 116.728 -25.5754 -0.121776 -0.987679 -0.0982922
-21.7422 116.877 -25.9193 -0.126649 -0.986844 -0.100425
-22.22 116.852 -24.9936 -0.133413 -0.98653 -0.0946569
-22.6617 116.83 -24.1898 -0.126815 -0.987498 -0.0936294
-23.0621 116.796 -23.339 -0.119087 -0.987284 -0.105303
-23.3808 116.732 -22.3608 -0.124376 -0.985856 -0.112158
-23.7142 116.673 -21.5188 -0.127709 -0.984978 -0.116184
-24.0721 116.532 -20.1662 -0.14276 -0.976077 -0.163989
-24.421 116.328 -19.1449 -0.119175 -0.952326 -0.280842
-24.9915 115.879 -17.9195 0.0284603 -0.938597 -0.343841
-25.4995 115.467 -17.0137 0.115358 -0.920809 -0.372563
-26.3659 114.769 -15.8772 0.275775 -0.88724 -0.363297
-27.1498 114.258 -15.0899 0.294204 -0.906402 -0.303117
-27.8065 113.89 -14.4886 0.196032 -0.937173 -0.287375
-28.881 113.494 -13.7271 0.152821 -0.957631 -0.244106
-29.8886 113.195 -13.1965 0.162285 -0.951313 -0.262045
-30.9516 112.903 -12.7946 0.168137 -0.951638 -0.257013
-32.1475 112.593 -12.4945 0.192123 -0.956058 -0.221453
-32.949 112.344 -12.1292 0.196376 -0.954701 -0.223564
-33.8961 112.032 -11.6382 0.19805 -0.954201 -0.224226
-34.6638 111.77 -11.1573 0.184554 -0.95659 -0.225555
-35.8507 111.347 -10.3029 0.176413 -0.955677 -0.235399
-36.9147 110.914 -9.42764 0.185565 -0.949074 -0.254605
-37.6814 110.588 -8.73825 0.164421 -0.946144 -0.278887
-38.3937 110.294 -8.15457 0.154196 -0.945076 -0.288086
-39.1155 109.961 -7.4678 0.15074 -0.943722 -0.294372
-40.1444 109.59 -6.85351 0.144699 -0.934275 -0.325721
-41.0036 109.23 -6.17133 0.114423 -0.935828 -0.332514
-41.9564 108.932 -5.64643 0.0988341 -0.917404 -0.385489
-42.8917 108.631 -5.19032 0.114418 -0.91175 -0.394488
-43.6246 108.316 -4.66309 0.108434 -0.907013 -0.406713
-44.3169 107.899 -3.95615 0.11652 -0.900801 -0.418306
-44.6048 107.474 -3.14002 0.121353 -0.896273 -0.426576
-44.7269 107.005 -2.21202 0.125784 -0.889796 -0.438681
-44.8198 106.575 -1.34914 0.0963237 -0.894896 -0.435744
-44.974 106.089 -0.390263 0.0941772 -0.894079 -0.437897
-45.4286 105.5 0.756671 0.052221 -0.866153 -0.496426
-45.4783 104.878 1.78515 0.0474831 -0.859014 -0.50938
-45.4971 104.391 2.54254 0.16465 -0.832195 -0.529474
-45.4166 103.88 3.36054 0.202245 -0.824261 -0.528858
-45.1179 103.261 4.472 0.227364 -0.841392 -0.489019
-44.4284 102.667 5.90611 0.293627 -0.840119 -0.453969
-43.6511 102.356 7.14714 0.377312 -0.8432 -0.379949
-42.7994 102.289 8.33103 0.452847 -0.830834 -0.321116
-41.9843 102.462 9.2031 0.506075 -0.818989 -0.270102
-40.9234 102.964 9.84391 0.555362 -0.802267 -0.218627
-40.0134 103.578 10.0272 0.564194 -0.804905 -0.15534
-38.9432 104.24 9.86299 0.512405 -0.854372 -0.0770337
-38.0892 104.731 9.57618 0.489193 -0.870192 -0.0576607
-37.201 105.212 9.27061 0.445029 -0.89464 -0.0396067
-36.2186 105.725 8.84523 0.433914 -0.897786 -0.0754863
-35.0515 106.329 8.4644 0.434068 -0.896291 -0.0906111
-34.0247 106.899 7.81104 0.454645 -0.88881 -0.0543176
-33.0135 107.44 7.5206 0.436899 -0.895438 -0.0822597
-32.1973 107.86 7.02136 0.439049 -0.894253 -0.0842299
-31.045 108.561 6.39178 0.522044 -0.846754 -0.0999894
-30.3105 109.081 6.0149 0.527995 -0.840889 -0.118745
-29.6119 109.564 5.68247 0.526164 -0.840676 -0.128122
-28.5811 110.254 5.39896 0.529048 -0.839663 -0.122685
-27.7463 110.794 5.28967 0.527971 -0.840987 -0.118269
-26.4163 111.593 5.07649 0.49358 -0.863524 -0.103348
-25.4729 112.108 5.10024 0.452234 -0.885909 -0.103196
-24.4365 112.604 5.25872 0.431149 -0.895387 -0.110695
-23.2478 113.06 5.84312 0.387501 -0.913299 -0.125412
-22.478 113.331 6.39286 0.365982 -0.924891 -0.103123
-21.9418 113.453 7.209 0.365335 -0.925493 -0.0999098
-21.1788 113.614 8.21111 0.321408 -0.941871 -0.0978581
-20.4459 113.8 8.90972 0.296347 -0.951445 -0.0799297
-19.4117 114.062 9.35021 0.270975 -0.959271 -0.0795828
-18.4413 114.314 9.37155 0.246314 -0.964962 -0.0904342
-17.5571 114.524 9.41556 0.211112 -0.973651 -0.0862346
-16.667 114.689 9.42782 0.168052 -0.979243 -0.113263
-15.7289 114.836 9.44686 0.143582 -0.982755 -0.116518
-14.5198 114.96 9.57604 0.102516 -0.984238 -0.144101
-13.2005 115.014 9.95689 0.0868123 -0.982704 -0.163574
-12.3883 114.98 10.3576 0.0459946 -0.979151 -0.197859
-11.579 114.91 10.8554 0.0244065 -0.977357 -0.210182
-10.8052 114.824 11.3232 0.00159 -0.971717 -0.235122
-10.085 114.649 11.9647 -0.0182887 -0.965435 -0.259464
-9.19107 114.431 12.6639 -0.037517 -0.952335 -0.300923
-8.5622 114.156 13.3772 -0.024148 -0.944046 -0.32893
-7.90379 113.872 14.0436 -0.0640041 -0.927273 -0.368873
-7.29392 113.564 14.668 -0.0589519 -0.914108 -0.40116
-6.70443 113.208 15.3943 -0.0525863 -0.905114 -0.421255
-6.1005 112.837 16.0643 -0.0693366 -0.889851 -0.450953
-5.5973 112.448 16.7389 -0.135902 -0.870078 -0.473061
-5.20545 111.937 17.6098 -0.145257 -0.88084 -0.450579
-4.71068 111.427 18.1339 -0.290653 -0.698672 -0.647475
-4.15471 110.747 18.5223 -0.279584 -0.641234 -0.714599
-3.31753 109.998 18.8997 -0.231952 -0.623249 -0.746443
-2.54785 109.413 19.1813 -0.213262 -0.605984 -0.765441
-1.70812 108.838 19.4253 -0.0938406 -0.588908 -0.802734
-0.906237 108.452 19.6144 -0.0998227 -0.577218 -0.810323
0.188449 108.235 19.6952 -0.000661432 -0.550729 -0.834684
1.29264 108.281 19.7063 0.0883172 -0.581118 -0.808781
2.48157 108.684 19.5617 0.168048 -0.612497 -0.772308
3.35292 109.235 19.2971 0.208428 -0.624514 -0.750852
4.19789 109.891 19.0176 0.26862 -0.692432 -0.669612
5.2658 110.797 18.5624 0.307872 -0.717528 -0.620306
5.98998 111.351 18.1823 0.274052 -0.781399 -0.560634
6.55182 111.947 17.6273 0.274528 -0.789982 -0.548024
7.45659 112.585 17.0073 0.232733 -0.855301 -0.45914
8.29586 113.116 16.2772 0.181205 -0.888322 -0.421958
9.13277 113.626 15.485 0.161901 -0.915735 -0.36772
10.0773 114.092 14.6685 0.119033 -0.93286 -0.339813
11.1342 114.504 13.8001 0.0974457 -0.952293 -0.28921
11.8793 114.706 13.2601 0.0428606 -0.966691 -0.252331
12.9095 114.897 12.6554 0.00711253 -0.972599 -0.231577
14.116 114.988 12.192 -0.0268127 -0.979712 -0.197938
15.218 114.994 11.8326 -0.0712479 -0.984179 -0.16222
16.1171 114.982 11.6369 -0.0782147 -0.988584 -0.119407
17.0797 114.873 11.579 -0.129149 -0.98657 -0.0990189
18.2489 114.653 11.7351 -0.20708 -0.974816 -0.0827727
19.1446 114.433 11.9147 -0.233831 -0.968266 -0.0882246
20.4825 114.05 12.0044 -0.289898 -0.950882 -0.108545
21.5798 113.696 11.7793 -0.366684 -0.925463 -0.0951907
22.4881 113.393 11.1515 -0.396424 -0.912144 -0.103372
23.3904 113.074 10.5871 -0.405453 -0.906122 -0.119839
24.1202 112.799 10.117 -0.417509 -0.900428 -0.122133
25.1073 112.413 9.30453 -0.445607 -0.888731 -0.107016
25.8861 112.073 8.9374 -0.434343 -0.895551 -0.096615
27.0918 111.485 8.67254 -0.464843 -0.884087 -0.0464229
28.104 110.959 8.76214 -0.454049 -0.889258 -0.0553169
28.9521 110.517 9.13231 -0.423806 -0.904652 0.0439604
29.5885 110.26 9.71885 -0.393128 -0.918778 0.0360215
30.3353 109.948 10.3667 -0.455829 -0.890061 0.00334333
31.058 109.601 10.9642 -0.382288 -0.920348 0.0396878
32.1345 109.286 11.7042 -0.28451 -0.957574 0.0458904
32.9598 109.07 12.2539 -0.252803 -0.966479 0.0448281
34.0692 108.804 12.9315 -0.252554 -0.967225 0.0256574
34.8719 108.608 13.3527 -0.247178 -0.968827 0.00687092
36.1332 108.312 14.0892 -0.207664 -0.977861 -0.000231541
37.1112 108.199 14.7446 -0.0354828 -0.991424 0.125772
37.9606 108.25 15.3358 -0.119908 -0.979171 0.140139
38.8623 108.176 16.2612 -0.312884 -0.940076 0.0887265
39.5904 107.776 17.2177 -0.571191 -0.802052 -0.171935
40.3781 106.969 17.4543 -0.713282 -0.578577 -0.394434
41.3873 106.071 17.0457 -0.665422 -0.602269 -0.438861
42.2504 105.513 16.5962 -0.652197 -0.597773 -0.466132
42.9281 105.112 16.1526 -0.626153 -0.628202 -0.459829
43.9415 104.723 15.3752 -0.602555 -0.661814 -0.446016
