20.3363 117.639 -24.4448 0.137396 -0.986541 -0.0886488
20.9754 117.634 -23.6255 0.123293 -0.988361 -0.088804
21.5447 117.635 -22.7878 0.131216 -0.987627 -0.0858843
22.0765 117.644 -21.982 0.161307 -0.982169 -0.0956215
22.7548 117.634 -20.8728 0.145899 -0.983659 -0.105176
23.2833 117.595 -19.8089 0.155306 -0.979821 -0.124685
23.7633 117.5 -18.6123 0.160628 -0.974046 -0.158345
24.1102 117.345 -17.4407 0.157944 -0.970968 -0.179551
24.3802 117.164 -16.4506 0.133369 -0.965721 -0.222702
24.673 116.885 -15.2145 0.0849616 -0.95642 -0.279095
24.8887 116.614 -14.1809 0.0451734 -0.949332 -0.306573
25.1269 116.19 -12.915 -0.00804281 -0.953969 -0.299796
25.3109 115.771 -12.1261 -0.155349 -0.893948 -0.41724
25.5748 115.328 -11.3463 -0.245162 -0.842371 -0.479903
25.8975 114.818 -10.546 -0.340686 -0.87721 -0.338282
26.3007 114.383 -9.84458 -0.364289 -0.860244 -0.356036
27.136 113.662 -8.81869 -0.359772 -0.898834 -0.250323
27.8964 113.326 -8.12596 -0.119234 -0.975492 -0.184931
29.0765 113.084 -7.36899 -0.0970999 -0.992586 -0.073109
30.2816 112.98 -6.63373 -0.0186385 -0.999824 0.00204949
31.3151 112.954 -6.0388 -0.0320368 -0.999439 -0.00875158
32.2047 112.905 -5.58353 -0.0647903 -0.997407 -0.0313223
33.2528 112.825 -5.08702 -0.0863179 -0.996086 -0.019011
34.0861 112.743 -4.62888 -0.0913788 -0.995001 -0.0402858
35.1173 112.623 -3.94463 -0.051415 -0.996819 -0.05696
35.8238 112.541 -3.2971 -0.03949 -0.995095 -0.0906972
36.4981 112.443 -2.62558 -0.053861 -0.991354 -0.117939
37.1568 112.32 -1.9652 -0.0317788 -0.991957 -0.122524
37.7524 112.217 -1.27932 -0.031488 -0.987919 -0.149301
38.4704 112.069 -0.392544 0.0457202 -0.985483 -0.1635
39.0087 111.975 0.342631 0.0483444 -0.985998 -0.159598
39.6786 111.833 1.23514 0.0231702 -0.978142 -0.206643
40.6537 111.665 2.16041 0.0608428 -0.972181 -0.226192
41.8716 111.527 3.02111 0.0600453 -0.966441 -0.249773
42.6778 111.41 3.66608 0.0599277 -0.966813 -0.248357
43.3713 111.28 4.33694 0.0590432 -0.966859 -0.248392
43.8925 111.104 5.14436 0.0493556 -0.966282 -0.252711
44.4108 110.815 6.32207 0.0535942 -0.960334 -0.273646
44.7917 110.565 7.26492 0.0539654 -0.95777 -0.282317
45.1623 110.306 8.17879 0.0520347 -0.954529 -0.293542
45.5701 110.043 9.06757 0.0252725 -0.947373 -0.319133
46.0964 109.742 9.97287 0.048669 -0.939784 -0.338287
46.6799 109.417 10.7799 -0.0102367 -0.90883 -0.41704
47.4609 108.996 11.5853 -0.100661 -0.88628 -0.45208
48.0628 108.506 12.3546 -0.0926684 -0.834215 -0.543597
48.0123 107.882 13.2622 -0.19543 -0.744673 -0.638176
47.5976 107.32 14.1738 -0.245208 -0.799172 -0.548815
46.7757 106.984 15.216 -0.347546 -0.803591 -0.48317
45.9995 106.938 15.8801 -0.447293 -0.775666 -0.445083
44.9474 107.098 16.6321 -0.490174 -0.756233 -0.42981
43.9594 107.449 17.2632 -0.56263 -0.714598 -0.412715
42.9139 108.105 17.4869 -0.50528 -0.803995 -0.313504
42.1466 108.765 16.9886 -0.517087 -0.827139 -0.220141
41.7684 109.234 16.1042 -0.395753 -0.905163 -0.122363
41.2727 109.484 14.8848 -0.220726 -0.972772 -0.0175794
41.0076 109.509 14.2497 -0.193107 -0.980413 0.0387221
40.1567 109.694 14.5633 -0.167891 -0.983973 0.0600822
40.5507 109.603 15.5584 -0.304562 -0.945787 0.00452312
40.8982 109.555 16.4703 -0.378924 -0.918181 -0.0206155
41.3687 109.07 17.6253 -0.496162 -0.838166 -0.226499
42.1161 108.374 18.3027 -0.563681 -0.778049 -0.277315
42.9057 107.676 18.4569 -0.623969 -0.657908 -0.421552
43.8297 107.009 18.2106 -0.591616 -0.667752 -0.451772
44.6732 106.607 17.6908 -0.594042 -0.625479 -0.505856
45.5616 106.372 17.0394 -0.521329 -0.661977 -0.538514
46.6954 106.212 16.2086 -0.469463 -0.686747 -0.554963
47.3676 106.284 15.6118 -0.428346 -0.676312 -0.599033
48.2081 106.619 14.7328 -0.337817 -0.647098 -0.68348
48.632 107.011 14.0454 -0.310537 -0.715661 -0.624377
48.925 107.566 13.3399 -0.269672 -0.686143 -0.675637
49.1426 108.152 12.5607 -0.177332 -0.766384 -0.616505
49.0275 108.719 11.87 -0.100249 -0.823497 -0.556671
48.482 109.139 11.2815 -0.0242111 -0.881156 -0.472133
47.8624 109.464 10.6957 0.00408796 -0.894806 -0.445028
47.2522 109.761 10.0163 0.00699906 -0.908267 -0.417976
46.6323 110.097 9.0935 0.0523864 -0.93388 -0.353727
46.1154 110.41 8.04626 0.0676805 -0.952156 -0.298023
45.6711 110.734 6.91915 0.0673016 -0.950743 -0.302585
45.2872 110.978 5.95895 0.075252 -0.964541 -0.252977
44.8358 111.238 4.86237 0.0687252 -0.963249 -0.259669
44.0847 111.494 3.60678 0.0735808 -0.970444 -0.229834
43.3646 111.61 2.97044 0.0501505 -0.974329 -0.21947
42.6349 111.704 2.38746 0.0433914 -0.97468 -0.21925
41.5688 111.817 1.65606 0.0408713 -0.977773 -0.205645
40.4904 111.961 0.735455 0.0443833 -0.977774 -0.204912
39.8537 112.095 -0.107003 0.0594938 -0.985754 -0.157319
39.1522 112.204 -1.07735 0.0295149 -0.990052 -0.137573
38.5634 112.298 -1.88912 0.0301843 -0.990233 -0.136117
37.8905 112.401 -2.64667 0.00807161 -0.992096 -0.123312
37.1633 112.488 -3.38246 -0.0121906 -0.992863 -0.118639
36.3896 112.593 -4.11737 -0.0349455 -0.996628 -0.0715716
35.3864 112.669 -4.97389 -0.0372645 -0.997406 -0.0607256
34.428 112.764 -5.58303 -0.0659319 -0.99666 -0.047915
33.2845 112.856 -6.16654 -0.0591162 -0.997618 -0.0355337
32.399 112.921 -6.57596 -0.0416044 -0.998885 -0.0209753
31.5334 112.96 -7.01063 -0.0207316 -0.999565 -0.0113867
30.4963 112.973 -7.62891 -0.0525758 -0.996667 -0.0358171
29.6623 113.084 -8.1353 -0.0917777 -0.993048 -0.0735147
28.7457 113.31 -8.6739 -0.168415 -0.968359 -0.184168
27.9014 113.609 -9.35572 -0.196284 -0.944375 -0.263873
27.3417 114.064 -9.98322 -0.243475 -0.820457 -0.517271
26.7693 114.786 -10.8893 -0.241248 -0.83332 -0.49737
26.4257 115.334 -11.7155 -0.16933 -0.836335 -0.518749
26.1251 116.02 -12.8004 -0.0666353 -0.885512 -0.459813
25.8994 116.575 -14.0035 0.118088 -0.924073 -0.363516
25.7325 116.877 -14.8413 0.114822 -0.943854 -0.309071
25.4552 117.225 -16.0909 0.107937 -0.950535 -0.290707
25.1134 117.484 -17.3442 0.147213 -0.966464 -0.208632
24.806 117.652 -18.4475 0.198959 -0.960839 -0.191706
24.4643 117.743 -19.3975 0.206637 -0.964491 -0.164492
24.076 117.798 -20.35 0.193491 -0.972518 -0.129499
23.5735 117.82 -21.366 0.182674 -0.977925 -0.100853
23.1016 117.824 -22.1654 0.164647 -0.980369 -0.107943
22.5625 117.814 -22.9806 0.174232 -0.98005 -0.0956327
21.9092 117.794 -23.9097 0.168383 -0.980372 -0.102557
21.267 117.794 -24.7722 0.133599 -0.985269 -0.106758
20.7017 117.789 -25.5022 0.166142 -0.981438 -0.0957929
20.0689 117.777 -26.2857 0.116925 -0.986266 -0.116283
19.3605 117.783 -27.0413 0.133351 -0.9845 -0.113466
18.2136 117.73 -28.056 0.136734 -0.984959 -0.105336
17.4862 117.734 -28.777 0.10383 -0.987539 -0.118265
16.8193 117.742 -29.43 0.0997962 -0.987435 -0.122525
16.055 117.75 -30.1138 0.100097 -0.987356 -0.122916
14.8949 117.744 -31.013 0.0975382 -0.986705 -0.129758
13.8267 117.745 -31.7512 0.0952663 -0.986052 -0.136464
12.6462 117.709 -32.3035 0.0867041 -0.986048 -0.14184
11.6056 117.677 -32.6536 0.0822739 -0.986774 -0.139594
10.4337 117.648 -33.0398 0.0575196 -0.990154 -0.127616
9.28713 117.634 -33.4686 0.0823504 -0.985664 -0.147259
8.01831 117.637 -34.0492 0.0430439 -0.988933 -0.141979
6.87206 117.635 -34.4182 0.0514507 -0.988521 -0.142051
5.76761 117.625 -34.6667 0.0306836 -0.988878 -0.145423
4.62264 117.616 -34.831 0.0307674 -0.989645 -0.140197
3.57943 117.593 -34.9024 0.0255183 -0.990674 -0.133571
2.62785 117.59 -34.9252 0.00516178 -0.989291 -0.145865
1.29973 117.583 -34.8988 -0.00327154 -0.989979 -0.140964
-0.235655 117.587 -34.9314 0.00765919 -0.990945 -0.13405
-1.61744 117.597 -34.8963 -0.0287432 -0.988182 -0.150564
-2.53719 117.613 -34.8247 -0.0304531 -0.988227 -0.149923
-3.82547 117.601 -34.5176 -0.0205584 -0.989747 -0.141344
-5.36663 117.629 -34.2688 -0.0487793 -0.990922 -0.125251
-6.749 117.643 -33.8685 -0.0436767 -0.990427 -0.130949
-8.15774 117.642 -33.3162 -0.0601757 -0.988638 -0.137746
-9.25651 117.644 -32.8454 -0.064348 -0.99035 -0.121598
-10.3777 117.666 -32.3684 -0.0615645 -0.992211 -0.108295
-11.3908 117.703 -31.9935 -0.0888565 -0.987126 -0.132988
-12.3367 117.72 -31.4814 -0.0838177 -0.987615 -0.13252
-13.1089 117.704 -30.9037 -0.0923743 -0.98735 -0.127983
-14.0137 117.707 -30.0994 -0.107238 -0.987763 -0.113241
-14.6679 117.713 -29.4713 -0.115095 -0.988462 -0.0978215
-15.4189 117.716 -28.6767 -0.0963875 -0.989719 -0.105667
-16.0579 117.711 -28.0033 -0.111511 -0.988385 -0.103092
-16.8294 117.722 -27.2133 -0.107821 -0.990325 -0.0862473
-17.4778 117.732 -26.5325 -0.107332 -0.990297 -0.0882667
-18.1887 117.735 -25.609 -0.113398 -0.991051 -0.0703669
-18.7041 117.734 -24.7815 -0.104671 -0.990793 -0.0845288
-19.2296 117.686 -23.7683 -0.112683 -0.988882 -0.0959453
-19.6356 117.658 -22.9315 -0.0888586 -0.994144 -0.061498
-20.0552 117.632 -22.0267 -0.094009 -0.992439 -0.0780533
-20.4541 117.605 -21.1077 -0.102244 -0.990746 -0.0882039
-20.8714 117.54 -20.0671 -0.0952111 -0.990104 -0.103007
-21.2873 117.442 -19.065 -0.0483914 -0.992 -0.116595
-21.7846 117.29 -17.8232 -0.0258886 -0.986725 -0.160322
-22.2824 117.079 -16.6496 0.0592367 -0.982197 -0.178269
-22.824 116.801 -15.5114 0.0763313 -0.968072 -0.238767
-23.4076 116.416 -14.451 0.174107 -0.939584 -0.294735
-23.8868 116.119 -13.7415 0.259662 -0.942018 -0.209718
-24.5624 115.697 -12.8465 0.28786 -0.936759 -0.197747
-25.1925 115.375 -12.2398 0.311999 -0.930461 -0.192089
-25.9748 115.047 -11.6089 0.207457 -0.961639 -0.179478
-26.7603 114.748 -11.027 0.255661 -0.953363 -0.15794
-27.7408 114.411 -10.3785 0.231225 -0.963415 -0.135127
-28.8889 114.037 -9.78294 0.228887 -0.961224 -0.153717
-30.0191 113.673 -9.32552 0.22595 -0.95858 -0.172908
-30.9012 113.413 -9.041 0.226079 -0.955894 -0.187499
-31.8571 113.128 -8.70753 0.209941 -0.960051 -0.18476
-32.7105 112.855 -8.2736 0.211603 -0.957352 -0.196684
-33.8355 112.427 -7.40081 0.193253 -0.958874 -0.207876
-34.9094 112.019 -6.54361 0.195078 -0.951828 -0.236324
-35.921 111.625 -5.80449 0.178354 -0.951557 -0.25046
-37.0275 111.217 -5.06472 0.181228 -0.945834 -0.268869
-37.7637 110.904 -4.50652 0.177408 -0.939713 -0.292347
-38.4998 110.592 -3.93683 0.15886 -0.939546 -0.302836
-39.7807 110.097 -3.16132 0.169319 -0.926132 -0.336856
-40.6991 109.762 -2.68236 0.140031 -0.923385 -0.357424
-41.5241 109.427 -2.12255 0.134844 -0.922439 -0.361739
-42.06 109.056 -1.38022 0.12866 -0.921449 -0.366576
-42.5078 108.597 -0.438437 0.120676 -0.910356 -0.395839
-42.9205 108.148 0.466265 0.131761 -0.903768 -0.406927
-43.3929 107.556 1.58003 0.144687 -0.899866 -0.411429
-43.7299 107.1 2.42253 0.133552 -0.893242 -0.429281
-44.1036 106.529 3.44136 0.164621 -0.866558 -0.471144
-44.2806 106.08 4.21431 0.166459 -0.869168 -0.465659
-44.2467 105.453 5.42366 0.254777 -0.858086 -0.445844
-43.9172 105.051 6.36111 0.30408 -0.847087 -0.430564
-43.4368 104.884 7.17469 0.344693 -0.858014 -0.380788
-42.7794 104.837 8.05888 0.399486 -0.867493 -0.296424
-41.7143 105.129 8.83378 0.455076 -0.86784 -0.199399
-40.7019 105.7 8.50085 0.387951 -0.902979 -0.184723
-39.9277 106.146 7.93948 0.364444 -0.914138 -0.175956
-38.8985 106.678 7.14734 0.341327 -0.924504 -0.16959
-38.1971 107.038 6.65111 0.360404 -0.917975 -0.16562
-37.4387 107.422 6.17409 0.353662 -0.926862 -0.125895
-36.7033 107.759 5.76704 0.353767 -0.926777 -0.126226
-35.74 108.207 5.22827 0.363598 -0.920537 -0.142856
-34.9889 108.581 4.81248 0.431825 -0.880595 -0.187887
-34.2914 109.046 4.415 0.409 -0.885498 -0.22048
-33.2353 109.665 3.89048 0.436663 -0.876192 -0.200947
-32.4698 110.134 3.56442 0.456614 -0.872358 -0.174628
-31.714 110.593 3.24426 0.453015 -0.874466 -0.173456
-30.9332 111.065 2.90338 0.453056 -0.875172 -0.169706
-29.9692 111.629 2.46966 0.446935 -0.881724 -0.151034
-29.1012 112.092 2.17472 0.431526 -0.892024 -0.134017
-28.2465 112.535 1.96979 0.425324 -0.897076 -0.11981
-27.3498 112.979 1.8095 0.42398 -0.899108 -0.108838
-26.5291 113.377 1.73929 0.428611 -0.896877 -0.109107
-25.5577 113.84 1.73579 0.425154 -0.898863 -0.106118
-24.6882 114.246 1.81753 0.428616 -0.897672 -0.102338
-23.69 114.685 2.09402 0.419377 -0.901639 -0.105685
-22.8946 114.989 2.46087 0.381678 -0.915837 -0.124757
-21.8991 115.283 3.10417 0.345937 -0.92581 -0.152327
-21.0678 115.505 3.85467 0.319773 -0.942568 -0.0964865
-20.4525 115.642 4.55667 0.31894 -0.942405 -0.100751
-19.7113 115.785 5.56024 0.319741 -0.942508 -0.0971074
-18.9178 115.898 6.4815 0.23865 -0.967071 -0.0883555
-17.9625 116.111 6.77818 0.230182 -0.969563 -0.0825358
-16.8769 116.351 6.68188 0.205768 -0.974226 -0.0924289
-15.8042 116.569 6.56154 0.18117 -0.978853 -0.0945117
-14.7723 116.747 6.529 0.166094 -0.978602 -0.121457
-13.7234 116.891 6.61362 0.133337 -0.983346 -0.123339
-12.8336 116.975 6.78256 0.106102 -0.986129 -0.127643
-11.4208 117.048 7.3014 0.100583 -0.982614 -0.156054
-10.5703 117.027 7.84171 0.0617703 -0.977642 -0.200833
-9.62758 116.927 8.60381 0.0565006 -0.974324 -0.217947
-8.81198 116.817 9.30582 0.0536265 -0.974666 -0.217119
-8.14402 116.679 9.91115 0.0313197 -0.965567 -0.258263
-7.445 116.469 10.6983 0.0187096 -0.952334 -0.304194
-6.79235 116.189 11.5889 0.00968839 -0.942058 -0.335311
-6.18283 115.871 12.4183 -0.0186931 -0.92448 -0.38047
-5.61409 115.498 13.232 -0.0541236 -0.90931 -0.412585
-5.03277 115.083 14.0704 -0.0458475 -0.905193 -0.422308
-4.47483 114.629 14.8646 -0.072765 -0.887095 -0.455816
-3.94035 114.208 15.5629 -0.0962998 -0.854329 -0.508829
-3.37065 113.644 16.3125 -0.119455 -0.815775 -0.565899
-2.88741 113.073 17.0366 -0.116556 -0.805336 -0.580763
-2.41251 112.547 17.6125 -0.127409 -0.780273 -0.612325
-1.89163 111.957 18.1772 -0.165855 -0.735438 -0.656617
-1.09735 111.17 18.8368 -0.0925056 -0.702381 -0.705765
-0.322815 110.721 19.1969 -0.0816189 -0.664808 -0.740069
0.527393 110.518 19.3219 -0.00552555 -0.633783 -0.773491
1.80535 110.957 18.9837 0.0981008 -0.663718 -0.741336
2.83333 111.842 18.3055 0.135902 -0.705514 -0.695543
3.40264 112.398 17.8378 0.128834 -0.762446 -0.633967
4.38293 113.244 17.0556 0.179419 -0.766929 -0.61614
5.05195 113.831 16.4363 0.158133 -0.799066 -0.580066
5.77991 114.428 15.6716 0.153756 -0.854122 -0.496824
6.43707 114.957 14.9234 0.118871 -0.879348 -0.460076
7.08056 115.387 14.2007 0.112494 -0.895927 -0.429654
8.03441 115.892 13.2698 0.0770328 -0.925569 -0.369042
8.66341 116.165 12.6425 0.0691101 -0.938271 -0.338926
9.34335 116.433 12.0089 0.0439475 -0.944895 -0.324019
10.0331 116.64 11.4648 0.0280289 -0.945459 -0.324533
10.7858 116.763 10.9478 -0.0176752 -0.969009 -0.246391
11.738 116.883 10.4056 -0.0202087 -0.970741 -0.239146
12.6884 116.925 9.96064 -0.0463029 -0.981454 -0.186024
13.9506 116.933 9.57951 -0.0534316 -0.981162 -0.185653
15.1501 116.855 9.40462 -0.12775 -0.979478 -0.155893
16.202 116.733 9.30673 -0.137465 -0.979798 -0.143451
17.0994 116.602 9.26223 -0.148932 -0.981074 -0.123743
18.2408 116.411 9.30223 -0.164154 -0.977737 -0.13049
19.1237 116.211 9.38058 -0.221634 -0.967502 -0.121731
20.1064 115.944 9.40867 -0.268592 -0.958394 -0.0966411
21.1322 115.675 9.07998 -0.295524 -0.950555 -0.0954475
21.8998 115.488 8.50395 -0.359996 -0.927861 -0.0973467
22.8192 115.2 7.57162 -0.384116 -0.920957 -0.0655261
23.7751 114.867 6.71511 -0.400042 -0.911911 -0.09157
24.7072 114.512 6.13335 -0.406243 -0.909811 -0.0849173
25.5065 114.191 5.79104 -0.398657 -0.912048 -0.0961287
26.4874 113.787 5.5104 -0.403745 -0.909857 -0.0956598
27.9162 113.168 5.39098 -0.400649 -0.909261 -0.112804
28.8651 112.719 5.56142 -0.417522 -0.899395 -0.129329
29.7223 112.285 5.84817 -0.412403 -0.901331 -0.132388
30.5916 111.825 6.3003 -0.388601 -0.910027 -0.142138
31.6508 111.245 7.03961 -0.386451 -0.907706 -0.163479
32.5585 110.9 7.7553 -0.267526 -0.960559 -0.0758623
33.2773 110.65 8.38147 -0.279309 -0.949332 -0.131875
34.3874 110.316 9.38068 -0.192699 -0.978654 -0.0714322
35.2009 110.131 9.96429 -0.175211 -0.982901 -0.0566281
36.2125 109.96 10.6072 -0.111631 -0.993078 0.0135316
37.0578 109.885 11.181 -0.142491 -0.988754 0.0420775
37.8685 109.789 11.8108 -0.140576 -0.987485 0.0714997
38.6287 109.759 12.4601 -0.0918684 -0.993929 0.0531127
39.4454 109.729 13.3331 -0.137843 -0.985819 0.0904318
39.9288 109.706 14.1169 -0.167891 -0.983973 0.0600758
39.228 109.9 14.7157 -0.246048 -0.959721 0.135633
38.5332 109.865 13.6685 -0.102585 -0.989778 0.0990748
37.8166 109.876 12.9863 -0.124355 -0.989332 0.0740374
37.0578 109.94 12.401 -0.127135 -0.990162 0.0584317
36.2168 110.014 11.7595 -0.119721 -0.991839 0.0432052
35.1948 110.138 11.1215 -0.184154 -0.980563 0.0675571
34.2859 110.27 10.5083 -0.19328 -0.979415 0.00942381
33.497 110.452 9.87971 -0.147832 -0.988958 -0.010383
32.6439 110.714 9.10358 -0.390321 -0.916538 -0.0872229
31.8181 111.07 8.36781 -0.308041 -0.950756 -0.034275
31.0679 111.395 7.80732 -0.450802 -0.887309 -0.0963984
30.3285 111.835 7.31783 -0.453478 -0.884601 -0.108806
29.4158 112.296 6.81017 -0.411387 -0.907541 -0.0843822
28.603 112.711 6.49902 -0.422641 -0.897458 -0.12627
27.5069 113.23 6.35613 -0.406179 -0.907319 -0.10859
26.6709 113.596 6.44048 -0.410088 -0.905468 -0.109339
25.7599 113.979 6.65864 -0.411097 -0.904084 -0.116548
24.9217 114.317 7.04055 -0.419177 -0.900589 -0.11499
23.9489 114.669 7.76334 -0.404662 -0.907715 -0.110918
23.1334 114.99 8.59183 -0.437882 -0.891964 -0.108312
22.3376 115.202 9.36567 -0.383137 -0.910954 -0.152867
21.2101 115.517 10.1644 -0.344389 -0.926112 -0.153988
20.1064 115.816 10.4493 -0.245624 -0.957569 -0.150769
19.1088 116.068 10.3927 -0.219168 -0.96391 -0.151136
17.844 116.349 10.2281 -0.167549 -0.976304 -0.136957
16.5855 116.533 10.2119 -0.116784 -0.982491 -0.145167
15.5141 116.657 10.3064 -0.121578 -0.975538 -0.181896
14.3033 116.739 10.4801 -0.0669765 -0.977027 -0.202316
13.4115 116.754 10.681 -0.0498605 -0.981308 -0.18584
12.2388 116.678 11.1738 -0.026626 -0.969149 -0.245033
11.4172 116.577 11.6318 -0.0173138 -0.969105 -0.246041
10.3562 116.339 12.3675 0.0267304 -0.944817 -0.326506
9.44991 116.023 13.1774 0.0370083 -0.938721 -0.342684
8.78494 115.727 13.8289 0.0969257 -0.912653 -0.397076
8.09492 115.371 14.4865 0.0999178 -0.903749 -0.415549
7.46028 114.962 15.1659 0.108286 -0.893737 -0.435324
6.86059 114.504 15.8504 0.135059 -0.869062 -0.47591
6.09306 113.848 16.6855 0.151801 -0.833005 -0.531636
5.3833 113.229 17.3761 0.19189 -0.797098 -0.57139
4.57429 112.477 18.0878 0.192003 -0.776521 -0.600125
3.83463 111.731 18.6612 0.245826 -0.690221 -0.680561
3.12719 111.027 19.1627 0.159899 -0.655828 -0.737782
2.43415 110.413 19.5624 0.118212 -0.630565 -0.76708
1.56274 109.904 19.8467 0.0660757 -0.640389 -0.763314
0.554192 109.705 19.9788 0.0222687 -0.621206 -0.783331
-0.498511 109.871 19.8947 -0.0316911 -0.631083 -0.774869
-1.2994 110.324 19.6209 -0.110524 -0.638955 -0.761263
-2.21785 111.153 19.0733 -0.168325 -0.689786 -0.704175
-2.90353 111.934 18.441 -0.162435 -0.722315 -0.672217
-3.48091 112.612 17.7781 -0.129887 -0.791664 -0.596533
-4.13289 113.374 16.8628 -0.114948 -0.808568 -0.576898
-4.75908 113.985 16.0538 -0.111274 -0.832665 -0.542483
-5.31621 114.444 15.3272 -0.0508277 -0.877439 -0.476698
-5.87282 114.897 14.5179 -0.0480616 -0.886732 -0.459779
-6.36597 115.271 13.7935 -0.0358862 -0.901248 -0.431811
-6.92073 115.642 12.9849 -0.00663213 -0.926818 -0.375452
-7.47297 115.947 12.2259 -0.026801 -0.937242 -0.347649
-8.16963 116.266 11.3209 0.00710803 -0.9509 -0.309356
-8.94665 116.507 10.4594 0.0314108 -0.965567 -0.258251
-9.68292 116.659 9.79868 0.0314976 -0.965567 -0.258239
-10.3533 116.761 9.20109 0.0519581 -0.977571 -0.204083
-11.0822 116.844 8.60819 0.0543408 -0.978166 -0.200572
-12.1643 116.868 7.98052 0.0887245 -0.98404 -0.154251
-13.0808 116.832 7.68164 0.0974131 -0.985084 -0.140947
-13.9943 116.735 7.52516 0.131555 -0.982549 -0.13149
-14.9435 116.614 7.47585 0.132511 -0.982413 -0.131553
-15.9731 116.437 7.54179 0.17555 -0.979062 -0.103047
-17.1056 116.202 7.68768 0.205478 -0.973085 -0.104263
-18.1322 115.961 7.80131 0.233128 -0.966711 -0.105455
-19.4442 115.664 7.40291 0.273484 -0.956654 -0.100102
-20.042 115.557 6.72236 0.320607 -0.942597 -0.093395
-20.6575 115.441 5.78195 0.319742 -0.942508 -0.0971016
-21.271 115.32 4.96982 0.319036 -0.942375 -0.100725
-22.2401 115.067 3.98093 0.353793 -0.932062 -0.0780396
-22.9622 114.828 3.4289 0.403106 -0.909534 -0.10073
-23.7764 114.522 3.01635 0.397943 -0.910848 -0.109533
-24.6409 114.156 2.77111 0.4296 -0.896335 -0.109665
-25.5075 113.749 2.70061 0.430151 -0.89615 -0.109021
-26.5969 113.228 2.6998 0.428746 -0.896834 -0.108929
-27.4308 112.819 2.77764 0.430632 -0.894877 -0.117267
-28.2502 112.405 2.92738 0.432652 -0.892957 -0.123908
-29.4138 111.783 3.26667 0.450192 -0.883804 -0.126722
-30.4772 111.163 3.73675 0.460454 -0.875123 -0.147887
-31.2065 110.707 4.05739 0.473499 -0.868362 -0.147323
-31.9187 110.258 4.37797 0.472783 -0.865734 -0.162656
-32.687 109.79 4.69618 0.460643 -0.869168 -0.179813
-33.7324 109.126 5.19013 0.46779 -0.87067 -0.148263
-34.5239 108.676 5.61846 0.443561 -0.890874 -0.0979623
-35.7286 108.059 6.29423 0.354187 -0.926618 -0.126214
-36.8265 107.554 6.92696 0.353554 -0.926947 -0.125575
-37.8176 107.075 7.50848 0.383258 -0.917181 -0.106347
-38.7375 106.639 8.16722 0.391565 -0.916309 -0.0825579
-39.5226 106.214 8.80612 0.4151 -0.903101 -0.110002
-40.2424 105.786 9.38588 0.449167 -0.88285 -0.137207
-41.1098 105.182 9.90464 0.528776 -0.827868 -0.187164
-42.1039 104.616 9.76489 0.548501 -0.782096 -0.295759
-42.9389 104.328 9.1143 0.454182 -0.82208 -0.34337
-43.5996 104.279 8.40964 0.442807 -0.817718 -0.367777
-44.3019 104.409 7.45205 0.377206 -0.811312 -0.446641
-44.8627 104.671 6.51189 0.259732 -0.837426 -0.480892
-45.1629 105.039 5.69624 0.225809 -0.852761 -0.46945
-45.2697 105.606 4.6787 0.196749 -0.852545 -0.484098
-45.1699 106.267 3.58973 0.130202 -0.856217 -0.49897
-44.8014 106.839 2.62974 0.117879 -0.871474 -0.476061
-44.47 107.337 1.74434 0.105533 -0.883716 -0.45597
-44.1573 107.767 0.942125 0.100179 -0.897222 -0.430052
-43.5983 108.409 -0.331278 0.111795 -0.911928 -0.39478
-43.0931 108.956 -1.46731 0.116043 -0.920855 -0.372237
-42.638 109.386 -2.3862 0.116175 -0.924676 -0.3624
-42.0549 109.697 -3.0198 0.122042 -0.927142 -0.354155
-41.0972 110.021 -3.5392 0.135305 -0.931495 -0.337441
-40.0218 110.371 -4.07164 0.135378 -0.936887 -0.32236
-39.1589 110.691 -4.6075 0.151305 -0.945539 -0.288207
-38.3721 111.016 -5.23522 0.176035 -0.944097 -0.278345
-37.6367 111.306 -5.79093 0.170951 -0.949756 -0.262144
-36.8529 111.594 -6.34144 0.169484 -0.952661 -0.25228
-36.1384 111.852 -6.84739 0.185602 -0.955299 -0.230123
-35.0112 112.259 -7.71061 0.180948 -0.960764 -0.209878
-33.9654 112.667 -8.62162 0.194235 -0.960436 -0.199368
-33.0843 112.961 -9.21621 0.189853 -0.96369 -0.187769
-32.2964 113.196 -9.60612 0.217622 -0.958925 -0.181701
-31.2572 113.505 -9.94299 0.22507 -0.956088 -0.187719
-30.4087 113.748 -10.2241 0.213093 -0.961593 -0.173006
-29.493 114.023 -10.5753 0.223603 -0.962493 -0.153652
-28.661 114.282 -10.9673 0.22765 -0.962885 -0.144538
-27.7595 114.562 -11.4924 0.231225 -0.963416 -0.135117
-27.0467 114.85 -11.9893 0.269981 -0.945714 -0.18093
-25.9951 115.304 -12.7932 0.220644 -0.941736 -0.253867
-25.1972 115.74 -13.5678 0.234294 -0.920348 -0.312576
-24.682 116.092 -14.2626 0.211887 -0.930332 -0.299309
-24.1524 116.465 -15.0459 0.192997 -0.934958 -0.297023
-23.7463 116.752 -15.8077 0.0952475 -0.943523 -0.317321
-23.2173 117.122 -16.9007 0.0237805 -0.969787 -0.241141
-22.7443 117.347 -17.9934 -0.0332591 -0.986581 -0.159852
-22.2261 117.552 -19.3544 -0.0800203 -0.984684 -0.154782
-21.751 117.671 -20.5442 -0.0910283 -0.990363 -0.104376
-21.3173 117.734 -21.5154 -0.131739 -0.986584 -0.0963766
-20.8709 117.773 -22.4948 -0.128803 -0.986901 -0.0971405
-20.4657 117.811 -23.4398 -0.127282 -0.987168 -0.0964138
-20.017 117.848 -24.4115 -0.126922 -0.987487 -0.0935984
-19.4711 117.87 -25.3849 -0.133252 -0.986725 -0.0927848
-18.93 117.88 -26.2478 -0.130358 -0.987078 -0.0931883
-18.364 117.876 -27 -0.121589 -0.988064 -0.0941611
-17.3818 117.864 -28.0105 -0.111351 -0.988885 -0.0985313
-16.4476 117.862 -28.993 -0.112353 -0.986637 -0.117534
-15.5439 117.87 -29.947 -0.121747 -0.986332 -0.110992
-14.7519 117.86 -30.7048 -0.118152 -0.985293 -0.122901
-13.999 117.861 -31.38 -0.118612 -0.983904 -0.133653
-12.9487 117.867 -32.2063 -0.0954548 -0.983051 -0.156521
-11.8467 117.867 -32.8996 -0.0884169 -0.987066 -0.133731
-10.7829 117.82 -33.2728 -0.087891 -0.985193 -0.146502
-9.61961 117.787 -33.7115 -0.0766646 -0.985942 -0.147218
-8.65175 117.79 -34.1578 -0.0599999 -0.988605 -0.138059
-7.72284 117.787 -34.5379 -0.0578162 -0.988611 -0.138928
-6.70745 117.783 -34.9203 -0.0531228 -0.987158 -0.15024
-5.59063 117.769 -35.2022 -0.0527821 -0.986321 -0.156154
-4.52569 117.752 -35.3957 -0.0422306 -0.985606 -0.1637
-3.50231 117.759 -35.6133 -0.015162 -0.985687 -0.1679
-2.60332 117.764 -35.7781 -0.0384634 -0.986699 -0.157942
-1.68794 117.748 -35.8744 -0.0257398 -0.988011 -0.152177
-0.50407 117.723 -35.8888 -0.00871508 -0.988793 -0.148267
0.723382 117.724 -35.8433 0.00592936 -0.98969 -0.143101
1.84471 117.729 -35.8661 0.000479641 -0.988847 -0.148937
2.75413 117.739 -35.9162 0.0240537 -0.985517 -0.167797
3.81094 117.756 -35.8585 0.025436 -0.986248 -0.1633
5.15199 117.78 -35.7462 0.0335101 -0.983933 -0.175346
6.28045 117.776 -35.5275 0.0394173 -0.982264 -0.182983
7.36749 117.794 -35.2694 0.0581844 -0.985706 -0.158105
8.39995 117.802 -34.9196 0.0600774 -0.98489 -0.16234
9.42514 117.787 -34.4191 0.0754094 -0.984483 -0.157936
10.3058 117.79 -34.0865 0.044678 -0.988301 -0.145827
11.4855 117.82 -33.7292 0.0889436 -0.980444 -0.175551
12.7263 117.86 -33.2647 0.0926974 -0.984612 -0.148142
13.6343 117.893 -32.9053 0.101094 -0.984348 -0.144282
14.6329 117.925 -32.3964 0.103053 -0.983451 -0.148939
15.3793 117.921 -31.8658 0.107281 -0.982245 -0.153902
16.3726 117.913 -31.0948 0.110596 -0.982743 -0.148273
17.2453 117.908 -30.3418 0.127123 -0.982936 -0.132601
18.1088 117.906 -29.4996 0.121801 -0.983595 -0.133033
18.8111 117.901 -28.7829 0.142512 -0.98305 -0.115336
19.6956 117.947 -28.0712 0.133354 -0.984499 -0.113474
20.5882 117.951 -27.1564 0.122541 -0.98511 -0.12052
21.4863 117.971 -26.0025 0.176924 -0.97817 -0.108396
22.1094 117.981 -25.2308 0.171493 -0.977088 -0.126053
22.9385 117.99 -24.0953 0.186136 -0.974979 -0.121179
23.5282 118.015 -23.2258 0.184026 -0.9782 -0.0962221
24.254 118.024 -22.105 0.175062 -0.978556 -0.108543
24.8683 118.031 -20.9002 0.235706 -0.965218 -0.113106
25.3739 117.97 -19.587 0.238231 -0.961201 -0.139045
25.812 117.836 -18.3243 0.19896 -0.960839 -0.191706
26.1242 117.638 -17.2634 0.170483 -0.956658 -0.236095
26.4598 117.332 -15.9969 0.128622 -0.945858 -0.298009
26.7018 117.02 -14.9433 0.103947 -0.939558 -0.32623
26.9119 116.595 -13.8928 -0.00505119 -0.889232 -0.457428
27.0587 116.121 -13.0413 -0.0127035 -0.858951 -0.5119
27.219 115.616 -12.2754 -0.0428044 -0.81814 -0.573423
27.4866 115 -11.5239 -0.16264 -0.776577 -0.604467
27.9188 114.378 -10.7264 -0.190246 -0.808757 -0.555915
28.5406 113.83 -10.009 -0.199418 -0.867508 -0.4557
29.7108 113.239 -9.20475 -0.156332 -0.971133 -0.179535
30.6609 113.054 -8.67393 -0.0810909 -0.991596 -0.100668
31.6199 112.972 -8.0558 0.00409708 -0.99861 -0.0525475
32.8159 112.917 -7.43862 -0.0425049 -0.998332 -0.0350997
34.1652 112.839 -6.82949 -0.0277524 -0.997624 -0.0630546
35.2089 112.765 -6.26012 -0.045096 -0.996495 -0.0704587
36.0458 112.692 -5.75337 -0.0372686 -0.997406 -0.0607287
37.1323 112.639 -4.81194 0.0190963 -0.997766 -0.0640176
38.0334 112.54 -3.91025 -0.0136392 -0.993686 -0.1111
38.7488 112.467 -3.17764 0.0386753 -0.993186 -0.109935
39.3929 112.395 -2.42348 0.0254495 -0.991251 -0.129516
40.0051 112.306 -1.55223 0.0569422 -0.989695 -0.13138
40.5645 112.224 -0.732277 0.0501399 -0.988723 -0.14111
41.2939 112.1 0.188767 0.0234826 -0.985212 -0.169723
42.0848 112.01 0.860103 0.0471538 -0.979897 -0.192773
43.0223 111.921 1.49395 0.0496716 -0.975705 -0.213376
43.7603 111.828 2.08361 0.0421715 -0.976414 -0.211646
44.491 111.744 2.63565 0.0523851 -0.978141 -0.201233
45.3398 111.583 3.63069 0.0629206 -0.974193 -0.216035
45.7491 111.382 4.52372 0.0379191 -0.968798 -0.244936
46.0601 111.192 5.35147 0.0520793 -0.969618 -0.238766
46.5405 110.9 6.56466 0.0446765 -0.95933 -0.278146
46.8817 110.65 7.45923 0.0744068 -0.954586 -0.288229
47.2974 110.395 8.36688 0.0625317 -0.949637 -0.306812
47.8612 110.115 9.22792 0.0527642 -0.933846 -0.353762
48.6449 109.715 10.1967 0.0203471 -0.912674 -0.407987
49.4737 109.27 10.9733 0.00294459 -0.858755 -0.512244
50.2015 108.657 11.7169 -0.0674222 -0.773299 -0.629406
50.1605 108.059 12.3737 -0.223398 -0.721277 -0.655632
49.8651 107.293 13.2648 -0.219009 -0.678844 -0.700861
49.5558 106.584 14.0893 -0.349429 -0.642279 -0.682186
49.0547 106.046 14.8532 -0.349911 -0.643089 -0.681175
48.2837 105.673 15.6764 -0.42463 -0.63886 -0.63882
47.5672 105.459 16.3269 -0.46433 -0.605124 -0.64527
46.5765 105.521 17.0821 -0.513169 -0.603376 -0.610406
45.7438 105.674 17.6735 -0.562523 -0.582674 -0.586565
44.7452 105.95 18.4481 -0.646186 -0.549195 -0.529933
43.9683 106.334 18.9374 -0.603181 -0.613401 -0.509816
43.1301 106.908 19.2966 -0.643123 -0.587133 -0.491596
42.4518 107.521 19.3795 -0.629723 -0.651123 -0.423638
41.8134 108.188 19.3015 -0.596366 -0.683511 -0.418422
41.139 108.921 18.8315 -0.544056 -0.804348 -0.229217
40.4285 109.561 17.9936 -0.55941 -0.81847 -0.119662
40.0718 109.816 17.1971 -0.522051 -0.852562 -0.0245177
39.8505 109.956 16.2716 -0.309099 -0.941954 0.11227
39.4959 109.918 15.331 -0.246476 -0.959877 0.133726
39.3983 109.911 15.1017 -0.246043 -0.959722 0.135636
38.628 110.166 15.5097 -0.246483 -0.959875 0.133727
39.0502 110.293 16.6407 -0.32483 -0.913973 0.243185
39.3832 110.221 17.803 -0.454546 -0.887073 0.00259222
39.8487 109.826 18.7896 -0.501073 -0.830497 -0.223964
40.3625 109.234 19.4443 -0.52253 -0.795157 -0.307713
41.0342 108.417 19.9938 -0.585459 -0.709619 -0.392019
41.8256 107.532 20.2735 -0.627433 -0.64609 -0.434621
42.7282 106.587 20.229 -0.690041 -0.56474 -0.452673
43.5474 105.934 19.8797 -0.657293 -0.540582 -0.52387
44.3477 105.466 19.4248 -0.638467 -0.549748 -0.538644
45.2479 105.064 18.8065 -0.590385 -0.591139 -0.549546
46.013 104.918 18.1663 -0.540038 -0.594276 -0.595379
46.9434 104.725 17.5344 -0.540118 -0.541245 -0.643539
47.6952 104.645 17.019 -0.509238 -0.554225 -0.658416
48.5907 104.843 16.201 -0.451519 -0.582918 -0.675527
49.3584 105.15 15.4707 -0.38993 -0.58433 -0.711698
50.0554 105.696 14.6701 -0.365661 -0.608928 -0.702584
50.4591 106.209 14.0265 -0.279114 -0.639949 -0.715933
50.7519 106.914 13.2879 -0.278346 -0.630365 -0.724682
51.113 107.836 12.4105 -0.192499 -0.636419 -0.746937
51.3287 108.639 11.5655 0.0131345 -0.735122 -0.667606
50.8154 109.283 10.8827 -0.0674184 -0.773296 -0.62941
49.9417 109.721 10.2163 -0.00808375 -0.856746 -0.515675
49.066 110.152 9.26878 0.0872294 -0.915519 -0.392703
48.2651 110.505 8.19723 0.0526523 -0.948089 -0.313615
47.8329 110.763 7.33114 0.0744064 -0.954584 -0.288235
47.4624 110.982 6.40297 0.0533851 -0.968904 -0.241611
46.9687 111.298 5.07906 0.0277088 -0.972004 -0.233324
46.5924 111.564 3.90867 0.0300841 -0.97319 -0.228028
46.126 111.791 2.8042 0.043412 -0.979345 -0.197418
45.1743 111.926 1.92163 0.0403691 -0.98004 -0.194659
44.1693 112.031 1.20246 0.034442 -0.981036 -0.189733
43.0628 112.139 0.366983 0.0379255 -0.984381 -0.171835
42.2737 112.211 -0.24777 0.0464408 -0.984312 -0.170217
41.5214 112.313 -1.0199 0.0368114 -0.986968 -0.155417
40.9286 112.391 -1.85229 0.0487676 -0.991122 -0.123689
40.3445 112.475 -2.73855 0.0477758 -0.99058 -0.128331
39.7387 112.543 -3.50448 0.0452479 -0.992166 -0.116355
39.0091 112.607 -4.31794 0.0408352 -0.992445 -0.115698
38.0797 112.688 -5.28117 0.0339649 -0.993555 -0.10742
37.0507 112.738 -6.26128 0.0242744 -0.996743 -0.0769059
36.284 112.77 -6.77 -0.0169456 -0.995576 -0.0924147
35.2216 112.845 -7.39121 -0.0155262 -0.996469 -0.081815
34.239 112.895 -7.86598 -0.0261176 -0.998318 -0.0517674
33.2549 112.945 -8.30445 -0.0319916 -0.99813 -0.0519249
32.153 113.004 -8.84717 -0.026883 -0.998727 -0.0426822
31.0681 113.081 -9.53243 -0.0710249 -0.997389 -0.0130476
30.2074 113.223 -10.0265 -0.350278 -0.87315 -0.238274
29.4969 113.787 -10.4293 -0.325125 -0.824701 -0.459612
28.79 114.387 -11.0665 -0.212469 -0.797913 -0.564085
28.4227 114.959 -11.7016 -0.126243 -0.733892 -0.666688
28.1237 115.667 -12.4159 -0.100028 -0.775852 -0.6173
27.9503 116.378 -13.4382 0.0546144 -0.806937 -0.588107
27.7603 117.007 -14.5529 0.0817295 -0.903956 -0.408992
27.5123 117.413 -15.7226 0.133667 -0.923795 -0.358799
27.2938 117.656 -16.6053 0.17466 -0.933657 -0.312131
27.034 117.889 -17.5212 0.205582 -0.943591 -0.25949
26.7701 118.058 -18.3801 0.211125 -0.953037 -0.217134
26.4264 118.195 -19.3504 0.240778 -0.955385 -0.168643
26.1004 118.244 -20.2297 0.238232 -0.961201 -0.139045
25.7065 118.274 -21.2343 0.234415 -0.965377 -0.114438
25.2886 118.28 -22.1813 0.236021 -0.966108 -0.104545
24.7431 118.255 -23.1047 0.2212 -0.968688 -0.112609
24.0398 118.222 -24.1594 0.211826 -0.970109 -0.118398
23.4337 118.206 -25.0317 0.195211 -0.973187 -0.121653
22.8929 118.193 -25.7873 0.196429 -0.972093 -0.12824
22.2085 118.176 -26.6143 0.171142 -0.977394 -0.12414
21.6346 118.158 -27.3508 0.184563 -0.972845 -0.139674
21.0623 118.15 -28.0538 0.169619 -0.974848 -0.143726
20.0593 118.123 -28.9916 0.157676 -0.978578 -0.132379
19.2156 118.085 -29.7023 0.147116 -0.976301 -0.158399
18.3784 118.099 -30.5865 0.147568 -0.979155 -0.139567
17.4736 118.102 -31.4444 0.128282 -0.980445 -0.149239
16.7405 118.094 -32.0215 0.119438 -0.981593 -0.148763
15.5987 118.114 -32.8955 0.113071 -0.978518 -0.172389
14.3064 118.091 -33.6303 0.114632 -0.978228 -0.17299
13.4237 118.052 -33.9851 0.105964 -0.979086 -0.173502
12.1545 118.017 -34.4813 0.0937223 -0.979668 -0.177391
11.0285 117.986 -34.846 0.077293 -0.981534 -0.174761
9.93946 117.962 -35.2254 0.0773467 -0.982924 -0.166959
8.97738 117.97 -35.7054 0.0712099 -0.983783 -0.164532
7.95599 117.976 -36.092 0.0601564 -0.979537 -0.192065
6.72955 117.97 -36.4142 0.0494561 -0.980659 -0.189364
5.72684 117.961 -36.6183 0.0478185 -0.98073 -0.189422
4.73767 117.95 -36.7641 0.0327929 -0.981778 -0.187179
3.44148 117.921 -36.8433 0.0339318 -0.981791 -0.18691
2.10651 117.897 -36.8406 0.00688115 -0.984618 -0.174583
0.681511 117.882 -36.7881 0.000623288 -0.984435 -0.17575
-0.264974 117.89 -36.8369 -0.00894643 -0.983141 -0.182628
-1.3655 117.907 -36.8503 -0.0184547 -0.985071 -0.171117
-2.71041 117.919 -36.7128 -0.036617 -0.985981 -0.162791
-4.03544 117.922 -36.4768 -0.0291594 -0.984283 -0.174173
-4.921 117.917 -36.2855 -0.0424875 -0.985589 -0.163732
-5.82803 117.936 -36.1454 -0.0513908 -0.983402 -0.174005
-6.72225 117.948 -35.9244 -0.0540777 -0.985612 -0.160096
-7.89111 117.954 -35.5663 -0.0698503 -0.982463 -0.172618
-8.93873 117.963 -35.1344 -0.0799248 -0.981827 -0.172125
-9.88502 117.966 -34.6794 -0.0915716 -0.982296 -0.163428
-10.8448 117.998 -34.3366 -0.0888522 -0.982575 -0.163133
-11.7062 118.027 -34.0138 -0.0956021 -0.981539 -0.165653
-12.5886 118.046 -33.5952 -0.100057 -0.983915 -0.147981
-13.4177 118.044 -33.028 -0.0973997 -0.983507 -0.152334
-14.329 118.037 -32.3309 -0.115102 -0.981637 -0.152122
-15.3694 118.032 -31.4297 -0.117197 -0.983988 -0.134289
-16.2786 118.035 -30.5684 -0.135415 -0.982027 -0.131477
-16.9651 118.031 -29.8344 -0.118247 -0.984769 -0.127451
-17.5976 118.015 -29.1133 -0.127827 -0.984436 -0.120121
-18.5543 118.037 -28.2258 -0.134426 -0.982603 -0.128148
-19.3597 118.045 -27.3124 -0.148143 -0.981941 -0.117671
-20.0597 118.032 -26.25 -0.136129 -0.986375 -0.092379
-20.6949 118.015 -25.1852 -0.137171 -0.985527 -0.0994608
-21.2472 117.98 -24.0257 -0.145375 -0.984041 -0.102451
-21.6769 117.927 -22.9662 -0.154337 -0.98231 -0.10568
-22.1268 117.894 -22.0159 -0.134681 -0.986264 -0.0956312
-22.5804 117.843 -21.0716 -0.130354 -0.982367 -0.133903
-22.9307 117.771 -20.179 -0.13177 -0.97766 -0.161119
-23.2263 117.644 -19.3282 -0.126834 -0.973529 -0.190142
-23.5686 117.497 -18.4203 -0.128664 -0.969437 -0.208895
-24.071 117.202 -17.2701 -0.0361215 -0.95313 -0.300398
-24.6002 116.799 -16.2001 0.0939398 -0.943604 -0.317471
-25.1121 116.363 -15.3169 0.181511 -0.922685 -0.340156
-25.6064 116.001 -14.62 0.220643 -0.910771 -0.348892
-26.4028 115.452 -13.6971 0.236488 -0.928326 -0.284459
-27.2241 115.041 -13.0309 0.273525 -0.928152 -0.252425
-27.939 114.729 -12.5133 0.211066 -0.954848 -0.209086
-28.964 114.379 -11.8839 0.197681 -0.962211 -0.187275
-29.8481 114.114 -11.4781 0.205303 -0.959096 -0.1949
-30.7184 113.86 -11.1389 0.202304 -0.959863 -0.194259
-31.9768 113.501 -10.7186 0.214039 -0.957172 -0.194959
-33.0042 113.208 -10.3701 0.191085 -0.961471 -0.197638
-33.8394 112.954 -9.94173 0.181809 -0.963967 -0.194096
-34.7234 112.662 -9.34311 0.182386 -0.962607 -0.200305
-35.6858 112.305 -8.45572 0.167246 -0.961517 -0.217974
-36.3574 112.064 -7.90201 0.177538 -0.95882 -0.221337
-37.169 111.78 -7.31005 0.161717 -0.959046 -0.232549
-37.8871 111.52 -6.77376 0.153224 -0.957089 -0.245975
-38.849 111.164 -6.04602 0.153023 -0.950028 -0.271832
-39.7031 110.836 -5.36408 0.149971 -0.94511 -0.290304
-40.4955 110.568 -4.85193 0.137805 -0.938523 -0.316519
-41.562 110.253 -4.35136 0.121219 -0.937545 -0.325846
-42.6251 109.923 -3.81983 0.113087 -0.935495 -0.334755
-43.3449 109.59 -3.15866 0.116049 -0.929873 -0.349098
-43.7969 109.211 -2.32089 0.117425 -0.921033 -0.371361
-44.2145 108.736 -1.27315 0.105824 -0.923188 -0.369299
-44.5677 108.384 -0.517969 0.0728837 -0.913216 -0.400905
-45.0111 107.877 0.527077 0.0871137 -0.899526 -0.427969
-45.4227 107.312 1.5731 0.103959 -0.882268 -0.459125
-45.8373 106.723 2.5896 0.1167 -0.870861 -0.477476
-46.1302 106.175 3.46563 0.154527 -0.832396 -0.532034
-46.2345 105.68 4.22545 0.163043 -0.836736 -0.52277
-46.1956 105.142 5.04541 0.212338 -0.822384 -0.527823
-46.0556 104.678 5.85341 0.249048 -0.810087 -0.530786
-45.6774 104.211 6.80879 0.302895 -0.814006 -0.495422
-45.0033 103.85 7.8822 0.353275 -0.82006 -0.45022
-44.3916 103.711 8.73866 0.440816 -0.80585 -0.394174
-43.6011 103.729 9.62154 0.502885 -0.78278 -0.366554
-42.8858 103.895 10.2224 0.501343 -0.802087 -0.319565
-41.6433 104.495 10.9656 0.551075 -0.784046 -0.285637
-40.6762 105.232 10.88 0.527898 -0.826698 -0.194661
-39.6573 105.977 10.1409 0.462487 -0.878399 -0.120146
-38.849 106.468 9.44381 0.415156 -0.905459 -0.0871284
-38.174 106.821 8.88037 0.402485 -0.911042 -0.0894856
-37.4797 107.15 8.38365 0.391581 -0.918307 -0.0581142
-36.6171 107.545 7.88153 0.393319 -0.914762 -0.0922536
-35.89 107.893 7.45886 0.386536 -0.918654 -0.0816336
-35.1555 108.236 7.03445 0.404999 -0.911022 -0.0733239
-34.3625 108.647 6.61862 0.435816 -0.895839 -0.0854013
-33.4565 109.161 6.11124 0.453174 -0.886201 -0.0963413
-32.7223 109.595 5.76641 0.471258 -0.874451 -0.115113
-31.757 110.191 5.32732 0.489055 -0.863187 -0.125435
-30.9569 110.698 4.95105 0.478623 -0.867493 -0.135316
-30.2097 111.164 4.63026 0.47179 -0.872335 -0.127465
-29.0437 111.846 4.13964 0.450189 -0.883805 -0.126729
-27.9142 112.459 3.81534 0.451312 -0.884978 -0.114591
-27.0701 112.889 3.67995 0.437887 -0.893683 -0.0979051
-25.881 113.463 3.64258 0.423436 -0.901324 -0.0911943
-24.9975 113.872 3.69315 0.42985 -0.895916 -0.112066
-24.1547 114.256 3.84692 0.413501 -0.903681 -0.109928
-23.184 114.635 4.34853 0.408272 -0.90822 -0.0919232
-22.5021 114.86 4.92759 0.375988 -0.920178 -0.109111
-21.5502 115.091 6.06141 0.339661 -0.934854 -0.102331
-21.0091 115.207 6.94308 0.332383 -0.938657 -0.091015
-20.4789 115.305 7.7652 0.320234 -0.942627 -0.0943685
-19.4608 115.529 8.61 0.270399 -0.956931 -0.105673
-18.4708 115.769 8.82116 0.230573 -0.967111 -0.107333
-17.5905 115.985 8.74838 0.215478 -0.970426 -0.107989
-16.6064 116.208 8.58225 0.202786 -0.973415 -0.10649
-15.4037 116.419 8.43188 0.144893 -0.979558 -0.139544
-14.3731 116.565 8.41872 0.134363 -0.981721 -0.134748
-13.3029 116.653 8.58459 0.105108 -0.979184 -0.173638
-12.4025 116.692 8.88154 0.0988339 -0.979957 -0.172963
-11.1781 116.611 9.69234 0.0564747 -0.977045 -0.205412
-10.3291 116.462 10.4887 0.0173254 -0.97019 -0.241724
-9.66047 116.324 11.09 0.0168983 -0.963419 -0.266254
-9.00183 116.118 11.7593 -0.0121822 -0.951612 -0.307062
-8.41027 115.874 12.495 -0.00899719 -0.943164 -0.331273
-7.61323 115.401 13.5922 -0.0154447 -0.925384 -0.378597
-7.06963 115.009 14.4039 -0.0437011 -0.907073 -0.418699
-6.59156 114.634 15.0974 -0.0586538 -0.884599 -0.462485
-5.90675 114.074 16.0514 -0.0633725 -0.870059 -0.488858
-5.23879 113.429 16.9995 -0.108254 -0.828731 -0.549077
-4.71841 112.879 17.6879 -0.144061 -0.801215 -0.580775
-4.16463 112.232 18.4552 -0.195069 -0.758604 -0.615502
-3.62301 111.548 18.9968 -0.145801 -0.706107 -0.692932
-3.06682 110.908 19.5156 -0.172735 -0.651435 -0.737038
-2.5203 110.293 19.8797 -0.177145 -0.613084 -0.769901
-1.84183 109.723 20.2043 -0.120744 -0.601999 -0.787932
-0.744235 109.066 20.4833 -0.0719907 -0.575092 -0.812714
0.406068 108.889 20.558 -0.029185 -0.540921 -0.840567
1.38928 109.012 20.498 0.0632592 -0.573481 -0.814434
2.24356 109.329 20.3896 0.126595 -0.584777 -0.801255
3.20633 109.991 20.095 0.207076 -0.621606 -0.755464
4.04893 110.874 19.5804 0.261776 -0.6622 -0.702114
4.68004 111.527 19.1748 0.246822 -0.691477 -0.678924
5.26014 112.114 18.7232 0.192768 -0.73115 -0.654416
5.94115 112.808 18.0985 0.172867 -0.759394 -0.627246
6.5556 113.422 17.4893 0.178085 -0.823042 -0.539239
7.22563 113.997 16.8134 0.182628 -0.82899 -0.528375
7.86829 114.511 16.1093 0.120066 -0.870213 -0.477823
8.62374 115.058 15.2501 0.103775 -0.891262 -0.441456
9.58771 115.585 14.3416 0.0904324 -0.911103 -0.402135
10.4447 115.939 13.5138 0.0325129 -0.934105 -0.355235
11.4157 116.224 12.737 0.00170281 -0.945552 -0.325466
12.2246 116.412 12.2212 0.0178045 -0.963218 -0.265398
13.4592 116.527 11.6475 -0.0229217 -0.970162 -0.24137
14.7445 116.536 11.3147 -0.0616565 -0.97356 -0.219211
15.7848 116.474 11.1946 -0.0762002 -0.985848 -0.149322
16.8444 116.367 11.123 -0.11541 -0.982342 -0.147237
17.9115 116.196 11.1851 -0.154049 -0.977962 -0.140924
18.8625 115.973 11.3583 -0.219389 -0.963908 -0.15083
20.2237 115.617 11.4654 -0.259093 -0.952003 -0.162978
21.3306 115.318 11.1823 -0.362288 -0.920746 -0.143826
22.1617 115.061 10.6656 -0.381176 -0.912757 -0.146897
22.8875 114.849 10.079 -0.41344 -0.898503 -0.147254
23.6898 114.599 9.32241 -0.432253 -0.889504 -0.147568
24.4485 114.347 8.50919 -0.45099 -0.880358 -0.146821
25.5924 113.916 7.73612 -0.419185 -0.900585 -0.114995
26.8195 113.409 7.37607 -0.391788 -0.910012 -0.133735
27.7064 113.032 7.30427 -0.403833 -0.909227 -0.10112
28.7187 112.547 7.54576 -0.418656 -0.903958 -0.086869
29.8641 111.97 8.12914 -0.41139 -0.907539 -0.0843891
30.6354 111.535 8.63277 -0.448128 -0.890015 -0.0839906
31.5357 111.111 9.3508 -0.321912 -0.944128 -0.070677
32.1961 110.824 9.95616 -0.359383 -0.93046 -0.0354311
33.2182 110.484 10.8473 -0.238135 -0.96667 0.00298865
33.9792 110.384 11.4286 -0.175094 -0.98248 0.0638349
34.8567 110.265 12.0206 -0.180361 -0.980741 0.0747975
35.642 110.162 12.5284 -0.18029 -0.98039 0.0795702
36.6024 110.054 13.2691 -0.175297 -0.982559 0.0552797
37.6083 109.998 14.0464 -0.111466 -0.989203 0.0946229
38.3071 110.091 14.9138 -0.0749763 -0.974163 0.213036
38.5379 110.161 15.3147 -0.160512 -0.966942 0.174334
37.6381 110.252 15.5253 -0.0472975 -0.923481 0.342283
38.1416 110.589 16.5581 -0.314374 -0.917675 0.242986
38.4199 110.759 17.5699 -0.529954 -0.83259 0.161068
38.7524 110.531 18.6889 -0.591746 -0.790151 -0.159679
39.2728 109.896 19.663 -0.573741 -0.782605 -0.241559
39.7746 109.281 20.2238 -0.597284 -0.713387 -0.364419
40.5173 108.356 20.8484 -0.586261 -0.698871 -0.409721
41.1437 107.626 21.137 -0.633901 -0.644226 -0.427951
41.8804 106.902 21.1992 -0.709952 -0.603194 -0.333705
42.611 106.024 21.0602 -0.681441 -0.538874 -0.49523
43.3406 105.379 20.7236 -0.678919 -0.516021 -0.522294
44.0362 104.889 20.3227 -0.656618 -0.504065 -0.561044
44.9998 104.421 19.6493 -0.628113 -0.510543 -0.586605
46.2274 104.119 18.6769 -0.583853 -0.520429 -0.622541
47.2515 103.854 18.027 -0.520754 -0.537338 -0.663388
48.1098 103.816 17.3953 -0.509236 -0.548793 -0.662919
48.8551 103.943 16.7382 -0.458679 -0.538197 -0.707077
49.5733 104.252 16.0695 -0.41095 -0.554275 -0.723809
50.2866 104.624 15.4034 -0.373964 -0.569889 -0.731615
51.0936 105.483 14.3585 -0.327138 -0.561494 -0.760069
51.4807 106.022 13.747 -0.323971 -0.605205 -0.727165
51.7259 106.829 13.0355 -0.314344 -0.52335 -0.792018
52.3089 107.838 12.2523 0.00543695 -0.580546 -0.814209
52.4981 108.707 11.5693 -0.00317979 -0.655535 -0.755158
52.1317 109.368 10.9374 0.120841 -0.747266 -0.653098
51.5176 109.765 10.3896 0.155337 -0.785455 -0.592105
50.6524 110.109 9.6494 0.0882895 -0.82099 -0.564075
49.9322 110.406 8.82788 0.0718255 -0.926289 -0.369905
49.3405 110.639 8.16272 0.0411291 -0.907409 -0.41823
48.885 110.88 7.37135 0.130061 -0.948755 -0.279801
48.2727 111.116 6.0941 0.0800095 -0.965615 -0.24736
47.9655 111.268 5.19738 -0.0245976 -0.977892 -0.207657
47.6373 111.592 3.93122 0.00747696 -0.96588 -0.256189
47.3341 111.839 2.84264 0.0396291 -0.97593 -0.213436
46.7495 111.984 1.96653 0.0497345 -0.978542 -0.19987
46.0385 112.068 1.33948 0.0313504 -0.984952 -0.169959
44.8197 112.168 0.565671 0.0340284 -0.983513 -0.177479
44.1026 112.24 0.00468399 0.0414067 -0.983455 -0.176354
43.2653 112.328 -0.671636 0.0350936 -0.984062 -0.174327
42.2925 112.418 -1.60297 0.0247448 -0.990328 -0.136519
41.6447 112.495 -2.4575 0.0388494 -0.992235 -0.118151
41.0941 112.578 -3.28775 0.0413452 -0.991251 -0.125293
40.4608 112.657 -4.16687 0.0496552 -0.99189 -0.116995
39.6932 112.705 -4.96095 0.0318931 -0.995544 -0.0882858
39.0164 112.769 -5.83013 0.0302511 -0.994961 -0.0955892
38.3199 112.801 -6.50218 0.0429506 -0.995675 -0.0823816
37.5256 112.821 -7.14478 0.0191732 -0.996436 -0.0821418
36.6589 112.847 -7.68983 0.00634757 -0.997501 -0.068564
35.7565 112.901 -8.2804 -0.0141073 -0.997361 -0.0712203
34.8084 112.938 -8.70253 -0.00230426 -0.998063 -0.061778
33.632 112.979 -9.16442 -0.0287514 -0.998323 -0.0502524
32.2365 113.028 -9.87043 -0.0352011 -0.999194 -0.0193073
31.4562 113.229 -10.3856 -0.155303 -0.975543 -0.155555
30.6378 113.466 -10.8617 -0.431274 -0.784449 -0.445692
29.9149 114.063 -11.2141 -0.349645 -0.783742 -0.513319
29.4034 115.063 -11.9543 -0.0915116 -0.739828 -0.666485
28.9594 115.983 -12.7724 0.021787 -0.722451 -0.676411
28.8574 116.742 -13.8447 0.115149 -0.831347 -0.540947
28.6385 117.304 -14.9242 0.168063 -0.900311 -0.397696
28.4887 117.609 -15.7968 0.195959 -0.91576 -0.350676
28.2618 117.891 -16.7087 0.210042 -0.921548 -0.326543
27.9854 118.138 -17.6457 0.243528 -0.926491 -0.286894
27.6046 118.357 -18.746 0.247196 -0.936198 -0.249688
27.2684 118.494 -19.7162 0.281566 -0.94757 -0.151104
26.7992 118.506 -20.8578 0.257463 -0.959454 -0.114368
26.1637 118.524 -22.4471 0.242042 -0.964871 -0.102005
25.5624 118.504 -23.6082 0.236559 -0.965614 -0.107841
24.8051 118.456 -24.7203 0.209768 -0.970893 -0.115604
24.0643 118.432 -25.7948 0.20013 -0.971604 -0.126207
23.3656 118.418 -26.7623 0.194786 -0.972184 -0.130066
22.6939 118.376 -27.4633 0.191033 -0.972965 -0.129615
21.8636 118.368 -28.5267 0.181902 -0.973719 -0.137054
21.1875 118.348 -29.2214 0.177554 -0.972723 -0.149272
20.5226 118.321 -29.83 0.172606 -0.972805 -0.154345
19.8162 118.304 -30.449 0.160623 -0.973837 -0.160755
19.1082 118.318 -31.2596 0.158406 -0.974834 -0.156861
18.1129 118.324 -32.1902 0.148224 -0.973747 -0.172689
17.3176 118.328 -32.8921 0.143941 -0.975176 -0.168263
16.4804 118.324 -33.4732 0.124927 -0.977031 -0.17255
15.548 118.306 -34.0269 0.114269 -0.978609 -0.171075
14.5575 118.277 -34.5203 0.111367 -0.979219 -0.169493
13.3251 118.227 -35.0284 0.100831 -0.979435 -0.174586
12.4798 118.202 -35.3395 0.0931595 -0.980161 -0.174942
11.552 118.169 -35.6319 0.0898914 -0.979898 -0.178091
10.3785 118.149 -36.108 0.086652 -0.979329 -0.182703
9.21385 118.181 -36.7088 0.0721731 -0.978349 -0.193968
7.92967 118.166 -37.0842 0.0638066 -0.980751 -0.184417
6.50251 118.154 -37.4232 0.0479336 -0.980828 -0.188887
5.38794 118.154 -37.6835 0.0376716 -0.980524 -0.192751
4.21892 118.116 -37.7341 0.0355455 -0.98312 -0.179308
3.17413 118.108 -37.8795 0.0344002 -0.982001 -0.185718
2.27414 118.086 -37.8529 0.0143491 -0.981968 -0.188504
0.919174 118.053 -37.7559 0.00273356 -0.98596 -0.166957
