14.1629 126.985 6.51991 -0.300616 -0.952241 -0.0531191
13.5204 127.125 7.61476 -0.293095 -0.954926 -0.0470261
12.9717 127.184 8.70224 -0.257373 -0.962808 -0.0821097
12.4832 127.189 9.79306 -0.252987 -0.960002 -0.11737
12.0927 127.142 10.8615 -0.198368 -0.963879 -0.176511
11.7215 126.959 12.4575 -0.14523 -0.965553 -0.204617
11.4094 126.65 13.5728 -0.113766 -0.94809 -0.296955
11.1732 126.377 14.494 -0.105043 -0.919949 -0.37282
11.0234 125.995 15.3352 -0.0807503 -0.908533 -0.407761
10.8448 125.546 16.2672 -0.0144899 -0.88402 -0.467225
10.6693 125.126 17.0688 -0.0102984 -0.86169 -0.505332
10.4607 124.13 18.4699 0.0726012 -0.817243 -0.571701
10.3409 123.421 19.339 0.0629695 -0.772923 -0.631336
9.97079 122.514 20.3451 0.0452521 -0.736993 -0.674384
9.6692 121.879 20.9203 0.0820131 -0.673977 -0.733798
9.21226 121.03 21.6589 0.084712 -0.664803 -0.741879
8.66474 120.272 22.2217 0.0881779 -0.629175 -0.772246
8.05665 119.57 22.6803 0.0876859 -0.606515 -0.789956
7.36534 118.958 23.0864 0.0704706 -0.60244 -0.795047
6.48665 118.224 23.5588 0.0546943 -0.585222 -0.809027
5.75821 117.557 24.0055 0.0332398 -0.587312 -0.808609
5.18782 116.941 24.4204 0.0322087 -0.578858 -0.814792
4.46275 115.924 25.1283 0.0314792 -0.593683 -0.804083
3.96641 114.991 25.7992 0.0412355 -0.609366 -0.791816
3.55511 114.137 26.3967 0.0684656 -0.589482 -0.804874
3.12658 113.145 27.0664 0.0789816 -0.579465 -0.811161
2.68029 112.086 27.7355 0.0854525 -0.548106 -0.831988
2.27 111.317 28.172 0.0878433 -0.524027 -0.84716
1.61739 110.336 28.6752 0.105742 -0.49503 -0.862418
0.880497 109.5 29.0606 0.0728278 -0.454508 -0.88776
-0.247479 109.62 28.9543 -0.0422416 -0.460937 -0.886427
-0.966865 110.457 28.5345 -0.0267672 -0.47687 -0.878566
-1.45798 111.171 28.1339 -0.0440275 -0.518135 -0.854105
-1.87524 111.876 27.736 -0.0535331 -0.514957 -0.855543
-2.34334 112.713 27.1936 -0.0337681 -0.570384 -0.820684
-2.81173 113.659 26.5258 -0.0162858 -0.598355 -0.801066
-3.23558 114.578 25.824 -0.00275648 -0.622134 -0.782906
-3.58778 115.457 25.1099 0.0406103 -0.62605 -0.778725
-3.95103 116.335 24.3716 0.0492333 -0.637052 -0.769247
-4.39085 117.182 23.6537 0.0737124 -0.624073 -0.777881
-5.03492 117.982 22.9491 0.0745812 -0.625384 -0.776745
-5.67205 118.518 22.4646 0.0666689 -0.608353 -0.790535
-6.43148 119.077 21.9651 0.0498784 -0.618324 -0.784298
-7.22421 119.738 21.4243 0.0252934 -0.616036 -0.787292
-7.68545 120.49 20.8316 -0.00618998 -0.648021 -0.760048
-7.9889 121.192 20.1724 -0.00629189 -0.693456 -0.720471
-8.25798 122.042 19.3275 -0.00779253 -0.732524 -0.680138
-8.418 122.686 18.5996 -0.00214795 -0.764377 -0.644201
-8.63992 123.584 17.4561 -0.00171226 -0.807817 -0.588901
-8.83813 124.326 16.3494 0.00874098 -0.858812 -0.511403
-8.99266 124.761 15.5725 0.00491571 -0.877475 -0.479452
-9.24672 125.259 14.5587 -0.00630031 -0.90617 -0.422867
-9.54326 125.674 13.4732 0.0430638 -0.933136 -0.356934
-9.76255 125.941 12.6107 0.0861999 -0.953587 -0.288515
-9.9707 126.194 11.5653 0.107157 -0.97032 -0.216788
-10.2012 126.432 10.2098 0.116801 -0.981065 -0.154499
-10.3217 126.542 9.27601 0.151661 -0.983139 -0.10185
-10.4147 126.629 8.20522 0.185875 -0.978811 -0.0850552
-10.6097 126.685 6.92054 0.21088 -0.976256 -0.0495368
-10.9305 126.669 5.68427 0.243834 -0.968943 -0.041159
-11.3212 126.599 4.61812 0.258714 -0.965867 -0.0129698
-11.7852 126.492 3.71913 0.266995 -0.963351 -0.0258695
-12.4055 126.341 2.77939 0.239563 -0.970876 0.00307991
-13.1347 126.163 1.78183 0.2331 -0.972453 -5.83834e-05
-14.0331 125.949 0.730308 0.228651 -0.973508 0.000550762
-14.7684 125.782 0.011625 0.214925 -0.976618 -0.00497195
-15.5514 125.612 -0.690999 0.201627 -0.979319 -0.00867418
-16.6509 125.407 -1.62272 0.190554 -0.981673 -0.0028046
-17.4976 125.273 -2.34762 0.160339 -0.986896 -0.0180939
-18.1502 125.168 -2.97258 0.147974 -0.988979 0.00490718
-18.6777 125.088 -3.89814 0.14624 -0.989249 -0.00100686
-19.0277 125.043 -5.00362 0.0863536 -0.996051 0.0206411
-19.1992 125.02 -6.2303 0.0726416 -0.997341 -0.00592555
-19.3018 125 -7.58944 0.0695143 -0.997491 0.0133735
-19.3354 124.934 -8.97429 0.0365552 -0.998519 0.0399147
-19.3522 124.887 -10.1222 0.0315509 -0.998871 0.0355268
-19.3904 124.83 -11.3475 0.0371168 -0.99777 0.0554797
-19.4057 124.752 -12.5443 0.0374807 -0.996662 0.0725298
-19.3744 124.742 -13.833 -0.00036575 -0.999298 -0.037452
-19.2698 124.778 -14.7945 0.0448613 -0.997162 -0.0399826
-19.0868 124.804 -15.9323 0.0315691 -0.999358 -0.0169661
-18.8327 124.815 -16.8692 0.0283559 -0.999335 0.0217988
-18.5464 124.796 -17.8772 0.0214546 -0.999608 0.0141314
-18.1123 124.835 -19.2811 0.0640306 -0.997748 -0.0199905
-17.6572 124.888 -20.3173 0.0494409 -0.998327 -0.0229662
-17.1647 124.949 -21.3693 0.0683994 -0.997316 -0.0261292
-16.7299 124.963 -22.1957 0.0637011 -0.99775 0.0208997
-15.9862 124.992 -23.3745 0.065919 -0.997794 0.00792496
-15.381 125.011 -24.159 0.0455742 -0.998841 0.0154711
-14.3701 125.001 -25.2361 0.04871 -0.997591 0.0493955
-13.3251 125.034 -26.2413 0.0753181 -0.996698 0.0303478
-12.6447 125.022 -26.8546 0.0737225 -0.993709 0.084301
-11.7689 124.977 -27.7196 0.0398959 -0.988082 0.148665
-10.9378 124.928 -28.4819 0.0837655 -0.988463 0.12619
-9.95201 124.883 -29.2395 0.0361189 -0.991322 0.123689
-8.84129 124.862 -29.9188 0.0444448 -0.994691 0.0928118
-7.48201 124.875 -30.4832 0.0411467 -0.990609 0.130385
-6.34484 124.864 -30.9342 -0.00486579 -0.993961 0.109622
-5.09065 124.832 -31.4009 0.0328902 -0.987357 0.155065
-4.14518 124.849 -31.6917 0.0466585 -0.996406 0.0664633
-3.06339 124.859 -31.9343 -0.00561911 -0.997473 0.0598631
-2.0416 124.872 -32.1062 0.0196229 -0.999339 0.0305707
-0.821392 124.896 -32.2335 0.036339 -0.998692 0.0332158
0.0790765 124.939 -32.2651 0.0591484 -0.997769 0.0273479
0.989169 124.991 -32.2235 0.0351843 -0.999303 0.00250711
1.97204 125.018 -32.1264 0.012745 -0.999781 -0.00573976
3.27797 125.051 -31.8808 0.0158978 -0.997654 0.0602495
4.40225 125.048 -31.61 -0.00545147 -0.998864 0.0407585
5.62768 125.085 -31.2716 -0.00185549 -0.999174 0.0337155
6.7104 125.068 -30.9978 0.00612188 -0.999414 0.00986028
7.6706 125.096 -30.6778 0.0314235 -0.999474 -0.00797765
8.8424 125.114 -30.0941 -0.00883108 -0.999868 0.0136647
9.69279 125.107 -29.5731 0.00477982 -0.999667 0.000999131
10.7026 125.147 -28.883 0.0339129 -0.999188 0.0207477
11.5194 125.182 -28.2668 0.0241246 -0.999608 0.00867043
12.2898 125.166 -27.6076 -0.0256104 -0.999559 -0.015003
13.1941 125.185 -26.7549 0.0224353 -0.997802 0.0623494
14.1513 125.221 -25.8206 -0.00332534 -0.999975 -0.00623695
14.8315 125.222 -25.136 0.010146 -0.99972 0.0211703
15.5878 125.25 -24.3354 0.014366 -0.999203 0.0348562
16.2058 125.296 -23.6376 0.0196622 -0.998539 0.0503391
17.0011 125.358 -22.6815 0.0715395 -0.997394 0.00930249
17.6397 125.44 -21.8065 0.128437 -0.990869 0.00243072
18.5275 125.51 -20.4781 0.136667 -0.990015 -0.0345407
19.1676 125.56 -19.5127 0.141937 -0.987944 -0.0426461
19.6293 125.592 -18.5686 0.172646 -0.981142 -0.0869117
20.0393 125.633 -17.204 0.148922 -0.98705 0.0596149
20.3859 125.715 -15.9838 0.126139 -0.992 -0.00508817
20.7094 125.757 -14.8264 0.142377 -0.989809 0.00277362
20.9069 125.793 -13.65 0.14425 -0.989496 0.00950099
20.9542 125.802 -12.7422 0.106775 -0.993942 -0.0259331
20.9833 125.775 -11.5497 0.10399 -0.993595 -0.0409976
20.8575 125.772 -10.5565 0.0274611 -0.99832 0.0510295
20.6892 125.817 -9.59557 0.0441353 -0.997738 0.0507055
20.4583 125.877 -8.62678 0.04365 -0.993075 0.10808
20.2026 125.976 -7.47097 0.0297959 -0.997273 0.0675163
20.0748 126.03 -6.36064 0.00880663 -0.999515 0.0298694
20.0476 126.073 -5.27166 0.0033436 -0.998849 0.0478539
20.1872 126.078 -3.93016 -0.0172996 -0.999847 -0.00269231
20.3918 126.04 -3.04103 -0.0495113 -0.998459 -0.0250686
20.7162 125.975 -1.85818 -0.0682468 -0.996473 -0.0488275
20.8409 125.89 -0.808404 -0.0724644 -0.993929 -0.0820149
20.305 125.874 0.0965737 -0.130506 -0.988709 -0.0735974
19.4857 125.944 0.714359 -0.146821 -0.987428 -0.0585591
18.654 126.043 1.31482 -0.203193 -0.977397 -0.0545562
17.8249 126.163 1.98012 -0.202009 -0.976487 -0.0752751
17.1551 126.293 2.60976 -0.249912 -0.967262 -0.0441359
16.3394 126.461 3.46934 -0.270319 -0.961612 -0.0472249
15.6758 126.618 4.28706 -0.288585 -0.956556 -0.0414582
15.1069 126.756 5.08832 -0.301156 -0.952582 -0.0435023
14.4468 126.917 6.05494 -0.302749 -0.951848 -0.0481678
14.4348 126.92 6.07273 -0.305493 -0.950944 -0.0487727
15.26 126.644 6.4327 -0.298077 -0.953501 -0.0445701
14.7192 126.769 7.34447 -0.295931 -0.954012 -0.0478186
14.1535 126.896 8.34601 -0.280963 -0.957569 -0.0602708
13.5539 126.954 9.63389 -0.242329 -0.965093 -0.0967525
13.1205 126.928 10.7538 -0.222946 -0.96918 -0.104812
12.8483 126.849 11.8555 -0.193391 -0.97088 -0.139527
12.5579 126.702 12.9225 -0.185489 -0.961897 -0.200867
12.3101 126.474 13.813 -0.102416 -0.94942 -0.296837
12.0273 126.052 15.0632 -0.0851826 -0.92109 -0.379918
11.8935 125.678 15.9855 -0.0299931 -0.902284 -0.427596
11.646 125.139 17.0148 -0.0139066 -0.884345 -0.466627
11.4504 124.339 18.2729 0.0230981 -0.84946 -0.525889
11.3132 123.486 19.3749 0.0924755 -0.782509 -0.615734
10.9665 122.534 20.3976 0.0609271 -0.737033 -0.673105
10.6337 121.799 21.0848 0.0713401 -0.658305 -0.749363
10.2544 121.06 21.7091 0.0458581 -0.656794 -0.752675
9.76557 120.254 22.3493 0.0661761 -0.628739 -0.774796
9.12383 119.388 22.9367 0.0796503 -0.570553 -0.817389
8.31724 118.627 23.3931 0.0767055 -0.575358 -0.814297
7.64285 118.06 23.7421 0.0484982 -0.578652 -0.814118
6.59667 117.177 24.2959 0.0287221 -0.564523 -0.824745
5.91794 116.444 24.7953 0.0160506 -0.587478 -0.808868
5.37589 115.707 25.3255 0.0342093 -0.594881 -0.803085
4.93962 114.936 25.8828 0.0255808 -0.60086 -0.798945
4.50715 114.033 26.5362 0.0294157 -0.588954 -0.807631
4.09167 113.08 27.2079 0.0801371 -0.580152 -0.810556
3.69517 112.101 27.8472 0.102984 -0.560753 -0.821554
3.20094 111.107 28.4277 0.128002 -0.528889 -0.838982
2.69049 110.271 28.841 0.130183 -0.483448 -0.865165
2.22671 109.564 29.1885 0.112121 -0.473066 -0.873558
1.28219 108.537 29.5868 0.0970667 -0.454232 -0.885244
0.291517 108.318 29.7001 0.00907368 -0.501696 -0.864996
-0.620177 108.706 29.4808 -0.0532198 -0.497382 -0.865836
-1.28402 109.348 29.1545 -0.0831939 -0.487495 -0.868746
-1.93053 110.246 28.7256 -0.109532 -0.49508 -0.861916
-2.63813 111.366 28.1264 -0.106764 -0.545909 -0.831014
-3.09457 112.204 27.5985 -0.072471 -0.579543 -0.811584
-3.58678 113.129 26.9661 -0.0368069 -0.617482 -0.785723
-3.93459 113.869 26.399 -0.0275777 -0.631067 -0.775057
-4.29621 114.667 25.7512 0.0115078 -0.636643 -0.770815
-4.60138 115.471 25.0514 0.0443966 -0.661137 -0.74874
-4.99237 116.33 24.2863 0.0770583 -0.637673 -0.766443
-5.50854 117.158 23.567 0.0720066 -0.626483 -0.776094
-6.21579 117.868 22.9058 0.0964761 -0.626342 -0.773556
-6.89183 118.376 22.4541 0.0352752 -0.585755 -0.80972
-7.69997 118.908 22.0296 0.0204702 -0.597407 -0.80145
-8.26312 119.493 21.5952 0.00471128 -0.602149 -0.798321
-8.66294 120.33 20.9491 -0.00519927 -0.605141 -0.795982
-8.95495 121.052 20.3101 0.00576199 -0.692083 -0.721795
-9.19488 121.903 19.4636 0.0328426 -0.734226 -0.677885
-9.38597 122.714 18.549 0.0266792 -0.745698 -0.66575
-9.53998 123.368 17.731 -0.00399986 -0.795648 -0.605746
-9.73678 124.12 16.6496 -0.0279946 -0.849942 -0.526132
-9.97605 124.797 15.4807 0.00306473 -0.883035 -0.469298
-10.2967 125.332 14.2975 0.000743018 -0.935931 -0.352184
-10.5565 125.655 13.388 0.0274649 -0.954429 -0.297079
-10.7757 125.929 12.4685 0.0430327 -0.964974 -0.255573
-11.0129 126.204 11.189 0.0826936 -0.979596 -0.176321
-11.166 126.327 10.147 0.110063 -0.983483 -0.143056
-11.2739 126.426 9.08663 0.12861 -0.988085 -0.0818966
-11.3251 126.481 8.08194 0.14127 -0.988416 -0.0541233
-11.6069 126.487 6.74846 0.198713 -0.978651 -0.0524982
-11.9161 126.429 5.62235 0.215786 -0.976435 -0.00327784
-12.3793 126.332 4.53157 0.23892 -0.970886 -0.017279
-12.9637 126.2 3.57771 0.239524 -0.97082 -0.0117143
-13.5101 126.072 2.82909 0.232927 -0.972493 -0.00135389
-14.2495 125.897 1.86962 0.228261 -0.973597 -0.00234568
-14.8933 125.748 1.15984 0.221735 -0.975073 -0.00253861
-15.8628 125.539 0.289696 0.210974 -0.97741 -0.0103448
-16.5721 125.408 -0.308748 0.201955 -0.979011 -0.027417
-17.4772 125.254 -1.06535 0.186674 -0.981723 -0.0370601
-18.3445 125.122 -1.79817 0.167716 -0.98563 -0.0201236
-19.0082 125.024 -2.47199 0.166195 -0.985838 -0.0224037
-19.5948 124.974 -3.51382 0.120628 -0.992306 -0.0226215
-19.9183 124.949 -4.47735 0.108733 -0.99394 -0.0161325
-20.114 124.954 -5.75533 0.058864 -0.998245 -0.00643925
-20.1979 124.961 -6.71028 0.0404099 -0.998909 -0.00340477
-20.2429 124.942 -7.68644 0.0294868 -0.999443 0.0150251
-20.2718 124.913 -8.65422 0.0208489 -0.999147 0.0356495
-20.2828 124.854 -9.83591 0.0164403 -0.99649 0.0685749
-20.3281 124.791 -11.1439 0.0560449 -0.997681 0.0386303
-20.3471 124.75 -12.7408 -0.0372867 -0.998975 0.0256534
-20.3385 124.737 -13.6912 0.018883 -0.999285 -0.0195114
-20.2558 124.742 -14.7611 0.0381317 -0.999271 -0.00157088
-20.1236 124.763 -15.7065 0.0420049 -0.998869 -0.0223001
-19.8139 124.78 -16.9261 -0.016343 -0.998206 -0.00750819
-19.5295 124.792 -17.8537 -0.070335 -0.997238 -0.0162025
-19.217 124.796 -19.0641 -0.00754237 -0.99987 -0.0142423
-18.7592 124.848 -20.1839 0.0247995 -0.99838 -0.0469669
-18.3322 124.882 -21.136 0.0405356 -0.999101 -0.0123916
-17.7806 124.922 -22.2363 -0.024835 -0.999373 -0.0252503
-17.1895 124.93 -23.2993 -0.0043586 -0.999547 -0.0215829
-16.4822 124.972 -24.323 0.00971252 -0.999593 -0.00515517
-15.7272 124.957 -25.1996 0.00422679 -0.999763 0.0213392
-14.8851 124.949 -26.0621 0.039448 -0.998968 0.0224968
-14.1112 124.957 -26.8098 0.0263635 -0.99864 0.0438733
-13.0796 124.931 -27.7357 0.0182735 -0.999116 0.0363868
-12.4249 124.89 -28.3817 0.0187604 -0.996548 0.0808721
-11.5692 124.842 -29.1871 0.0197758 -0.998031 0.053705
-10.8046 124.839 -29.7936 -0.00591587 -0.998981 0.0367172
-10.0013 124.789 -30.3586 -0.0260753 -0.999 0.0344249
-8.99766 124.788 -30.9085 0.0280796 -0.999096 0.0319233
-7.9097 124.8 -31.3429 -0.0424278 -0.999078 -0.00658173
-7.01109 124.781 -31.7122 0.0221002 -0.994152 0.101918
-5.99445 124.789 -32.0678 0.0239246 -0.999648 0.0114796
-5.09207 124.784 -32.4027 0.0183827 -0.999001 0.0326043
-4.0628 124.833 -32.6948 0.0591951 -0.99635 -0.0615004
-3.14587 124.813 -32.9451 -0.0314979 -0.997299 0.0255262
-1.89522 124.876 -33.0932 0.0475107 -0.997821 -0.0269012
-0.905756 124.89 -33.1889 0.0390625 -0.996503 -0.0616258
0.126962 124.945 -33.2366 0.0351268 -0.994095 -0.102673
1.27609 124.997 -33.1723 0.059602 -0.997403 -0.0404436
2.20937 125.038 -33.0591 0.0215708 -0.99855 -0.0471814
3.23078 125.041 -32.8745 0.00861029 -0.998197 -0.0591808
4.41126 125.047 -32.5742 0.0247883 -0.999574 -0.0154082
5.29537 125.049 -32.3364 0.00460645 -0.999808 -0.0190216
6.88306 125.078 -31.9584 0.0347624 -0.999384 -0.00480759
7.8624 125.11 -31.6617 0.0411371 -0.999035 -0.0114005
8.74616 125.149 -31.2523 0.0508508 -0.998596 -0.0148234
9.54715 125.148 -30.7936 0.0577801 -0.996053 -0.0673735
10.6959 125.172 -30.0427 0.0646082 -0.996277 -0.0570764
11.796 125.193 -29.2531 0.0542001 -0.998495 -0.00842442
12.6138 125.242 -28.6053 0.0668781 -0.99774 -0.00649931
13.581 125.218 -27.7159 0.0477363 -0.995763 -0.0785934
14.5159 125.271 -26.776 0.0729858 -0.997309 0.00694575
15.5819 125.301 -25.7365 0.104562 -0.992972 -0.0554326
16.2577 125.328 -25.0215 0.120986 -0.990858 -0.0596876
16.9507 125.384 -24.2447 0.133083 -0.991007 -0.0139242
17.8489 125.414 -23.1697 0.0718766 -0.996786 -0.0199167
18.6644 125.58 -21.983 0.205398 -0.978645 0.0067227
19.351 125.674 -20.9796 0.198176 -0.97843 -0.0583244
19.8442 125.736 -20.2216 0.208416 -0.976254 -0.0586188
20.3658 125.783 -19.2731 0.19235 -0.978439 -0.0732325
20.6715 125.796 -18.4217 0.225335 -0.971762 -0.0700182
20.9373 125.815 -17.4782 0.23585 -0.971318 -0.0302691
21.2017 125.866 -16.5739 0.251702 -0.96762 0.00696494
21.5372 125.939 -15.3988 0.204024 -0.976747 -0.0658664
21.7912 125.93 -14.217 0.204916 -0.97826 0.00110077
21.8888 125.969 -13.2925 0.169193 -0.98416 -0.022871
21.9761 125.896 -12.0401 0.132539 -0.989535 -0.0469876
21.8244 125.8 -10.5325 0.063227 -0.995893 -0.0028781
21.581 125.886 -9.30027 0.131828 -0.988208 0.0710867
21.3709 125.949 -8.41294 0.0799432 -0.988624 0.123724
21.163 126.015 -7.44623 0.0432092 -0.996157 0.0761816
20.9967 126.065 -6.19049 0.0496429 -0.998691 0.0123493
20.9763 126.071 -5.13339 0.0486184 -0.998817 0.00103449
21.1618 126.045 -3.80367 0.00611325 -0.998869 -0.0471494
21.4084 125.994 -2.90228 -0.0185349 -0.997492 -0.0681029
21.7084 125.924 -1.88685 -0.0339131 -0.996282 -0.0766235
21.9469 125.817 -0.937337 -0.0464648 -0.993304 -0.105771
21.6488 125.72 0.261363 -0.0800866 -0.991545 -0.102104
20.9185 125.735 0.846551 -0.131162 -0.986879 -0.0924426
19.7827 125.809 1.68514 -0.162709 -0.981228 -0.103331
18.6204 125.949 2.51896 -0.216468 -0.9726 -0.0847963
17.8244 126.073 3.26785 -0.259455 -0.962797 -0.0755376
16.9705 126.244 4.17234 -0.274734 -0.95965 -0.0599409
16.1306 126.437 5.17804 -0.287107 -0.956788 -0.0461104
15.609 126.559 5.9127 -0.297045 -0.953833 -0.0443387
16.2825 126.323 6.49415 -0.292306 -0.955124 -0.0476311
15.5656 126.498 7.65805 -0.285454 -0.957744 -0.034434
14.9163 126.64 8.8652 -0.280963 -0.957569 -0.0602708
14.5095 126.686 9.75151 -0.26111 -0.963017 -0.0664786
14.1186 126.696 10.7314 -0.242443 -0.964651 -0.103293
13.7685 126.644 11.9307 -0.200602 -0.973038 -0.113827
13.4708 126.516 13.055 -0.153911 -0.967552 -0.200388
13.2267 126.288 14.0372 -0.130396 -0.942388 -0.308062
12.9566 125.883 15.2627 -0.0838443 -0.921792 -0.378505
12.776 125.511 16.2122 -0.0694422 -0.905315 -0.416599
12.5573 125.025 17.2098 -0.000570107 -0.88937 -0.455279
12.4369 124.435 18.2119 0.0405781 -0.830922 -0.552226
12.3523 123.871 18.9671 0.031774 -0.798799 -0.600727
12.2136 123.285 19.7029 0.0188537 -0.776985 -0.629237
11.9458 122.555 20.4353 0.0241297 -0.697789 -0.715713
11.6845 121.9 21.0861 0.0254795 -0.70738 -0.706294
11.3774 121.237 21.6343 0.0619313 -0.644344 -0.762224
10.9117 120.369 22.35 0.055559 -0.622762 -0.779996
10.3865 119.564 22.9227 0.0602919 -0.588692 -0.805841
9.63936 118.622 23.5213 0.0740493 -0.571809 -0.817018
8.84053 117.944 23.9209 0.0703202 -0.566579 -0.821002
7.8288 117.121 24.4057 0.0699011 -0.569415 -0.819073
7.15922 116.524 24.7637 0.0682992 -0.576805 -0.81397
6.25825 115.436 25.564 0.025807 -0.598672 -0.800521
5.66503 114.339 26.3661 0.0510455 -0.614575 -0.787174
5.16776 113.256 27.189 0.0701479 -0.599718 -0.796699
4.71124 112.174 27.9481 0.0986249 -0.604061 -0.790812
4.40349 111.452 28.3903 0.135134 -0.561149 -0.816596
3.77986 110.33 29.0065 0.142834 -0.502102 -0.852257
3.15341 109.31 29.4607 0.209776 -0.511494 -0.833267
2.37342 108.371 29.8863 0.155362 -0.518327 -0.840951
1.71419 107.763 30.1251 0.168336 -0.500229 -0.849373
0.601111 107.403 30.2466 0.0453844 -0.562348 -0.824583
-0.374262 107.512 30.1789 -0.0139323 -0.514958 -0.857102
-1.19817 107.996 29.9231 -0.0612955 -0.485969 -0.871824
-1.88662 108.654 29.6019 -0.0831953 -0.487497 -0.868745
-2.61182 109.662 29.1433 -0.130624 -0.482902 -0.865375
-3.30241 110.692 28.6577 -0.128227 -0.531235 -0.836624
-3.79411 111.6 28.1106 -0.0891525 -0.569126 -0.816992
-4.34398 112.581 27.4505 -0.0770383 -0.61612 -0.782988
-4.88214 113.698 26.5723 -0.0275718 -0.631067 -0.775058
-5.22504 114.519 25.8493 0.0254456 -0.665357 -0.746091
-5.5789 115.421 25.0241 0.0550085 -0.671511 -0.73895
-5.89852 116.079 24.4014 0.076735 -0.65144 -0.754063
-6.33768 116.765 23.788 0.0947932 -0.628984 -0.771618
-6.9152 117.336 23.2521 0.0764653 -0.630776 -0.771973
-7.70171 117.909 22.7627 0.0232013 -0.608337 -0.793339
-8.74371 118.621 22.2242 0.0110047 -0.577305 -0.816455
-9.33969 119.49 21.5973 -0.00402602 -0.594618 -0.803826
-9.66938 120.329 20.9725 -0.00138544 -0.639875 -0.766669
-9.97652 121.124 20.2324 0.0252597 -0.67772 -0.734821
-10.2218 122.167 19.1282 0.0328494 -0.734225 -0.677887
-10.3534 122.76 18.4575 0.0271938 -0.746069 -0.665314
-10.561 123.614 17.4043 0.00561802 -0.802696 -0.596362
-10.7236 124.229 16.5254 -0.0105691 -0.863972 -0.50237
-10.8931 124.684 15.689 0.0049591 -0.880521 -0.473948
-11.1431 125.123 14.7656 0.0378912 -0.906521 -0.420456
-11.4874 125.557 13.6025 0.0306034 -0.952354 -0.303456
-11.7922 125.921 12.2337 0.044659 -0.974187 -0.221283
-11.9944 126.123 11.0468 0.0916282 -0.987734 -0.126055
-12.1236 126.229 10.0597 0.111305 -0.989789 -0.0890435
-12.2305 126.298 9.01844 0.135065 -0.990038 -0.033731
-12.3063 126.335 8.00325 0.1539 -0.987519 -0.0248014
-12.5202 126.3 6.91973 0.17985 -0.983204 0.0256388
-12.8273 126.227 5.85238 0.216776 -0.976207 0.0013398
-13.1839 126.142 4.97421 0.219147 -0.975671 0.00634959
-13.7085 126.018 4.1025 0.223553 -0.974652 -0.00158624
-14.3206 125.879 3.28721 0.229186 -0.97338 -0.000111286
-14.8916 125.746 2.5465 0.226852 -0.973929 -0.00126434
-15.7584 125.552 1.62054 0.217642 -0.976007 -0.00646279
-16.64 125.369 0.861853 0.20432 -0.978819 -0.0129081
-17.8246 125.155 -0.111776 0.187355 -0.981753 -0.03254
-18.5091 125.044 -0.706015 0.180577 -0.98264 -0.0418333
-19.3987 124.917 -1.42966 0.181218 -0.982209 -0.049247
-20.2077 124.857 -2.46213 0.150074 -0.986872 -0.0506507
-20.6393 124.821 -3.4253 0.160681 -0.986501 -0.0315907
-20.944 124.85 -4.51167 0.11874 -0.990984 -0.0489398
-21.0742 124.898 -5.79402 0.0695267 -0.996921 -0.0274979
-21.1619 124.924 -6.98362 0.0354924 -0.99916 -0.00976341
-21.2399 124.91 -8.17332 0.0237418 -0.999362 0.0236934
-21.2295 124.904 -9.17566 -0.00909245 -0.999959 0.00047358
-21.2204 124.862 -10.1307 -0.0802652 -0.996632 0.0167768
-21.2663 124.85 -11.2606 -0.0622792 -0.997339 0.0287555
-21.2918 124.793 -12.4393 -0.0431323 -0.998272 0.0376146
-21.2836 124.793 -13.5667 -0.0733184 -0.997243 -0.011414
-21.2565 124.774 -14.5221 -0.0843923 -0.996046 0.0277417
-21.0935 124.791 -15.7199 -0.123351 -0.98859 -0.0625983
-20.8693 124.846 -16.7094 -0.0703182 -0.997009 -0.0320747
-20.5974 124.856 -17.6117 -0.0687644 -0.997093 -0.0327612
-20.3207 124.85 -18.6106 -0.118504 -0.9902 -0.0405939
-20.1056 124.888 -19.4907 -0.163043 -0.983098 -0.0832654
-19.6112 124.932 -20.6727 -0.0711205 -0.994942 -0.0485796
-19.0779 124.899 -21.7601 -0.10969 -0.990501 -0.0750444
-18.5696 124.958 -22.7548 -0.0871813 -0.991146 -0.100087
-18.1224 124.955 -23.6066 -0.0224888 -0.999675 -0.0119871
-17.5532 124.962 -24.4906 0.0097125 -0.999593 -0.00515518
-16.6047 124.943 -25.6552 0.00493433 -0.999765 0.0211017
-15.5247 124.908 -26.7591 0.0208996 -0.999178 0.0287096
-14.4174 124.904 -27.8273 0.0263667 -0.99864 0.0438833
-13.684 124.9 -28.4792 0.0196524 -0.999468 0.0260384
-13.0038 124.871 -29.1228 -0.0400623 -0.99848 0.0332577
-12.2256 124.832 -29.8661 -0.0208107 -0.999767 0.00580892
-11.2213 124.807 -30.6576 -0.0013247 -0.999603 0.0169645
-10.4777 124.794 -31.1913 -0.0543492 -0.996497 -0.0635568
-9.17291 124.797 -31.896 -0.0192032 -0.995896 -0.088442
-8.15173 124.816 -32.283 -0.0316665 -0.998494 -0.0338629
-7.27209 124.819 -32.6307 -0.0208981 -0.997911 -0.0611365
-5.86671 124.831 -33.1072 -0.00663662 -0.994903 -0.100613
-4.71401 124.865 -33.4951 -0.00394266 -0.994695 -0.102793
-3.56797 124.878 -33.8492 -0.0350524 -0.991338 -0.126571
-2.39414 124.894 -34.0122 0.0212035 -0.990531 -0.13564
-0.941737 124.976 -34.1453 0.0582682 -0.986522 -0.152903
0.701659 125.045 -34.1784 0.0110437 -0.996439 -0.0835898
1.67102 125.058 -34.0771 0.0444902 -0.998177 -0.0377801
3.18976 125.109 -33.8767 0.0709494 -0.989473 -0.125753
4.16422 125.119 -33.6156 0.0466028 -0.984801 -0.167318
5.06723 125.114 -33.3652 0.0496739 -0.988451 -0.139973
6.00791 125.148 -33.1363 0.0775708 -0.990292 -0.114557
7.03297 125.217 -32.9126 0.0812785 -0.988119 -0.129318
8.28694 125.277 -32.5402 0.105094 -0.982741 -0.152233
9.1228 125.281 -32.1274 0.0821147 -0.980791 -0.176934
10.1116 125.285 -31.5644 0.110071 -0.973325 -0.201305
11.0528 125.272 -30.9647 0.138426 -0.971767 -0.19066
12.1313 125.286 -30.1771 0.134173 -0.974242 -0.181022
13.1079 125.328 -29.4513 0.150038 -0.982061 -0.114212
13.8972 125.37 -28.7289 0.161792 -0.978406 -0.125908
14.5922 125.38 -28.0339 0.172777 -0.974462 -0.142961
15.6209 125.384 -27.0106 0.105184 -0.988338 -0.103929
16.55 125.468 -26.1205 0.210309 -0.971164 -0.104439
17.5246 125.497 -25.0043 0.238209 -0.958952 -0.145219
18.1716 125.577 -24.2697 0.242052 -0.965775 -0.0932188
18.8125 125.638 -23.4004 0.218644 -0.969255 -0.112869
19.479 125.745 -22.432 0.201376 -0.979503 0.00468861
20.0426 125.852 -21.6153 0.203627 -0.97749 -0.0548211
20.6797 125.938 -20.644 0.289454 -0.948732 -0.0871892
21.1391 125.977 -19.7886 0.379626 -0.906404 -0.185246
21.5188 126.025 -18.7951 0.386333 -0.922219 0.0160875
21.8123 126.063 -17.8184 0.324725 -0.936095 -0.135199
22.1283 126.12 -16.8021 0.312936 -0.948141 0.00822648
22.4412 126.17 -15.6889 0.279295 -0.949919 -0.14017
22.7222 126.15 -14.3399 0.274552 -0.960205 -0.00713184
22.8921 126.107 -13.026 0.201885 -0.969559 -0.11828
22.9644 126.046 -11.9789 0.154603 -0.986279 -0.0578963
22.8494 125.966 -10.8712 0.168564 -0.983661 0.00932946
22.5826 126 -9.62054 0.229207 -0.968934 0.0825512
22.2943 126.064 -8.26505 0.135253 -0.982768 0.116437
21.996 126.117 -6.77257 0.116841 -0.992014 0.0145899
21.8706 126.115 -5.29903 0.0673654 -0.996739 -0.0265635
22.0541 126.064 -4.09386 0.00561988 -0.998989 -0.0445152
22.4546 125.962 -2.7173 -0.018535 -0.997492 -0.0681029
22.8186 125.832 -1.46388 -0.0474208 -0.994018 -0.098074
23.0244 125.703 -0.582355 -0.0818901 -0.988102 -0.130187
22.9479 125.557 0.350268 -0.0823465 -0.981427 -0.173266
22.1445 125.533 1.12784 -0.134787 -0.983079 -0.124046
21.0168 125.593 1.91743 -0.142512 -0.982402 -0.120731
20.2013 125.646 2.51788 -0.17031 -0.978602 -0.11547
19.3684 125.733 3.08949 -0.215095 -0.972471 -0.0895003
18.4358 125.855 3.94411 -0.236586 -0.967569 -0.0848832
17.7935 125.986 4.63934 -0.264614 -0.962492 -0.0598989
16.7627 126.213 5.84652 -0.2886 -0.956082 -0.0511545
16.5206 126.269 6.17112 -0.2886 -0.956082 -0.0511545
17.215 126.011 6.72694 -0.315356 -0.946906 -0.062601
16.5431 126.193 7.73706 -0.32021 -0.946641 -0.0365555
15.9669 126.335 8.79079 -0.277379 -0.960155 -0.0341016
15.4301 126.425 9.91857 -0.261225 -0.962988 -0.0664582
14.9394 126.454 11.1799 -0.226604 -0.971426 -0.070591
14.6381 126.431 12.2065 -0.204857 -0.97165 -0.117903
14.3106 126.294 13.3971 -0.164253 -0.961812 -0.218951
14.0191 125.983 14.7029 -0.0928822 -0.953116 -0.287998
13.8494 125.721 15.6068 0.0081045 -0.92841 -0.37147
13.6746 125.351 16.4827 -0.00753482 -0.907917 -0.419083
13.496 124.945 17.3649 -0.000579101 -0.889373 -0.455274
13.3627 124.286 18.4534 -0.0307257 -0.846241 -0.531914
13.2205 123.478 19.5008 0.0194049 -0.781753 -0.623287
12.9391 122.606 20.4281 0.0174742 -0.690995 -0.722649
12.5445 121.685 21.2805 0.00678015 -0.668859 -0.743241
12.3033 121.04 21.8633 0.0212716 -0.658641 -0.75188
11.8379 120.127 22.6085 0.0555591 -0.622762 -0.779996
11.3427 119.326 23.1686 0.0586585 -0.593661 -0.802575
10.9106 118.635 23.6722 0.0229538 -0.544655 -0.83823
10.2517 117.985 24.0183 0.0763101 -0.566229 -0.820708
9.43831 117.324 24.4001 0.069479 -0.568225 -0.819932
8.57252 116.643 24.8015 0.0692661 -0.569646 -0.818966
7.76037 115.931 25.2412 0.0666974 -0.584195 -0.808868
7.1773 115.23 25.7498 0.0219096 -0.619462 -0.784721
6.74249 114.497 26.3163 0.037287 -0.614326 -0.787997
6.4174 113.815 26.8287 0.0617294 -0.631659 -0.772526
6.10051 113.144 27.3641 0.0740305 -0.643355 -0.76198
5.78195 112.405 27.9042 0.0963936 -0.604122 -0.79104
5.36139 111.402 28.5861 0.149959 -0.563328 -0.812405
4.91437 110.488 29.1227 0.168959 -0.535759 -0.827253
4.45132 109.719 29.5337 0.190038 -0.529447 -0.826444
3.81983 108.778 29.9502 0.210048 -0.506494 -0.836268
3.2714 108.062 30.2679 0.188093 -0.522452 -0.831664
2.49446 107.265 30.589 0.200066 -0.518797 -0.830868
1.47629 106.743 30.7937 0.0685421 -0.609512 -0.789808
0.284064 106.532 30.8282 0.101894 -0.567424 -0.817097
-1.00322 106.792 30.6275 -0.0799904 -0.531942 -0.842994
-1.74382 107.288 30.4117 -0.143769 -0.491433 -0.858967
-2.45694 107.978 30.1141 -0.152246 -0.525813 -0.836818
-3.01206 108.699 29.7712 -0.158063 -0.506988 -0.847174
-3.70675 109.746 29.2848 -0.147058 -0.499481 -0.853752
-4.2271 110.565 28.8659 -0.120421 -0.557665 -0.821195
-4.65628 111.329 28.4182 -0.117855 -0.580629 -0.804928
-5.2267 112.356 27.714 -0.0770411 -0.616118 -0.782989
-5.64309 113.21 27.0143 -0.0294024 -0.649597 -0.75971
-5.95261 113.882 26.4114 -0.00901214 -0.68663 -0.726951
-6.25875 114.617 25.7366 0.036914 -0.695674 -0.717409
-6.51844 115.269 25.0916 0.0465362 -0.683531 -0.728192
-6.83541 115.914 24.4744 0.139616 -0.666701 -0.732132
-7.41317 116.611 23.8043 0.0737384 -0.605988 -0.792049
-8.13753 117.189 23.3016 0.0343019 -0.605552 -0.794982
-9.17566 117.84 22.8004 -0.0229308 -0.576247 -0.816954
-9.84314 118.401 22.4032 -0.00272423 -0.594415 -0.804154
-10.3116 119.237 21.7749 0.0054789 -0.608364 -0.79364
-10.6648 120.225 21.0111 0.0494541 -0.618101 -0.784542
-10.9432 121.131 20.1705 0.0418114 -0.682971 -0.729248
-11.1127 121.889 19.4055 -0.00293971 -0.706601 -0.707606
-11.3083 122.81 18.4362 -0.0128958 -0.766782 -0.641238
-11.4687 123.421 17.6745 -0.0024052 -0.792259 -0.609746
-11.6461 124.084 16.7577 0.0108721 -0.817414 -0.575948
-11.8137 124.586 15.9148 -0.0399624 -0.880725 -0.47194
-12.1505 125.165 14.7217 -0.00732202 -0.927165 -0.37092
-12.3999 125.451 13.8926 0.0192307 -0.94782 -0.31772
-12.6809 125.774 12.6619 0.0573636 -0.968822 -0.241025
-12.8935 125.998 11.4396 0.0625693 -0.989674 -0.126787
-13.0788 126.132 10.0057 0.0587569 -0.997255 -0.0450625
-13.1534 126.189 8.92819 0.118992 -0.992687 -0.0203365
-13.2942 126.169 7.73367 0.151475 -0.987469 0.0299116
-13.5228 126.103 6.68937 0.183666 -0.982062 0.0426735
-13.864 125.994 5.72071 0.200964 -0.978673 0.0299398
-14.5463 125.832 4.53224 0.222263 -0.974961 0.00659206
-15.4374 125.62 3.3508 0.223699 -0.974651 0.0036415
-16.1097 125.462 2.57674 0.230183 -0.973103 -0.00826588
-16.9716 125.267 1.79812 0.225792 -0.973866 -0.021838
-18.0459 125.054 0.931693 0.217476 -0.97555 -0.0317366
-18.8474 124.919 0.271941 0.198062 -0.978352 -0.0599919
-19.5675 124.814 -0.331394 0.189766 -0.978839 -0.0765778
-20.4737 124.691 -1.0708 0.207369 -0.973739 -0.0930023
-21.1513 124.652 -2.13529 0.188464 -0.978679 -0.0816391
-21.5977 124.658 -3.21291 0.174152 -0.982602 -0.0574425
-21.8784 124.723 -4.30052 0.106096 -0.989516 -0.0979909
-21.9735 124.806 -5.46065 0.06684 -0.994148 -0.0848672
-22.0389 124.879 -6.37478 0.0492684 -0.996635 -0.0561152
-22.147 124.899 -7.50997 -0.0372925 -0.998022 -0.0506043
-22.1786 124.949 -8.48417 -0.0479683 -0.998121 -0.0199184
-22.138 124.945 -9.85399 -0.0834253 -0.996411 0.00360389
-22.2128 124.934 -11.2901 -0.0954731 -0.995397 0.00832655
-22.2179 124.912 -12.7163 -0.155754 -0.98775 -0.0095321
-22.231 124.909 -14.0008 -0.152866 -0.987445 -0.0242727
-22.1441 124.952 -15.0034 -0.16291 -0.985259 -0.0498009
-21.9511 124.983 -16.2162 -0.217252 -0.974109 -0.0625613
-21.7423 124.986 -17.1277 -0.176886 -0.981661 -0.0710781
-21.4643 125.005 -18.037 -0.183046 -0.97888 -0.0910388
-21.1648 125.05 -19.2239 -0.192453 -0.978106 -0.0791926
-20.7722 125.082 -20.5512 -0.152117 -0.98585 -0.0704341
-20.1445 125.051 -21.7224 -0.164604 -0.985166 -0.0485029
-19.7185 125.038 -22.5613 -0.133797 -0.984427 -0.103084
-19.3009 125.086 -23.4224 -0.10436 -0.991425 -0.0723901
-18.5412 125.046 -24.7161 -0.114939 -0.992834 -0.0326968
-17.678 125.013 -25.8848 -0.057815 -0.99722 -0.0470041
-16.9867 125.008 -26.6204 -0.0665277 -0.996764 -0.0441046
-16.1173 124.965 -27.4877 -0.0783903 -0.996738 -0.0192099
-15.3298 124.95 -28.2609 -0.0394029 -0.998255 -0.0439832
-14.2685 124.94 -29.218 -0.0549038 -0.997408 -0.045914
-13.5826 124.934 -29.8486 -0.109378 -0.99328 -0.0378239
-12.5607 124.899 -30.855 -0.0899566 -0.991292 -0.0961706
-11.5414 124.898 -31.621 -0.0698806 -0.994491 -0.078129
-10.4339 124.869 -32.3595 -0.0797442 -0.991772 -0.0976725
-9.14014 124.894 -32.9256 -0.0197264 -0.994884 -0.0990832
-7.96699 124.884 -33.4 -0.0231556 -0.997553 -0.065973
-6.83626 124.9 -33.7763 -0.00421667 -0.995764 -0.0918453
-5.50615 124.943 -34.2092 0.000782002 -0.994615 -0.103505
-4.12293 125.016 -34.6705 0.0300316 -0.989528 -0.14118
-2.83085 125.028 -34.9068 0.0128856 -0.982054 -0.186501
-1.56871 125.087 -35.0346 0.0240966 -0.985327 -0.16897
-0.438729 125.153 -35.1333 0.0418759 -0.989279 -0.139908
0.91533 125.19 -35.1257 0.027859 -0.984507 -0.171342
1.83645 125.213 -35.0156 0.046773 -0.981249 -0.186982
2.93807 125.23 -34.9066 0.036909 -0.979954 -0.195697
4.264 125.287 -34.5806 0.0635828 -0.986689 -0.14735
5.20889 125.276 -34.2971 0.0351439 -0.985478 -0.166128
6.29743 125.3 -34.0497 0.102261 -0.977322 -0.184155
7.25063 125.377 -33.8471 0.113707 -0.979574 -0.165847
8.52786 125.441 -33.489 0.123399 -0.980734 -0.149353
9.56731 125.493 -32.9586 0.117445 -0.976505 -0.180676
10.5938 125.505 -32.3614 0.1144 -0.973928 -0.195776
11.5825 125.506 -31.7356 0.133873 -0.970159 -0.202162
12.3249 125.501 -31.1913 0.134172 -0.974244 -0.181013
13.3515 125.52 -30.47 0.1802 -0.959907 -0.214723
14.0909 125.523 -29.8619 0.17762 -0.960611 -0.213701
14.7444 125.569 -29.2417 0.216931 -0.964687 -0.1494
15.4419 125.596 -28.4646 0.194766 -0.960251 -0.198801
16.2366 125.591 -27.7219 0.199322 -0.955106 -0.219189
16.9188 125.651 -27.0797 0.277434 -0.947745 -0.15751
17.7367 125.756 -26.2264 0.287041 -0.946031 -0.150441
18.4855 125.825 -25.393 0.248063 -0.952862 -0.174696
19.2705 125.919 -24.3055 0.331143 -0.937299 -0.1087
19.9011 125.977 -23.3805 0.312625 -0.935926 -0.1622
20.6984 126.157 -22.2454 0.393364 -0.915336 -0.0861634
21.4188 126.294 -21.0911 0.370844 -0.920624 -0.122162
21.9488 126.374 -20.0739 0.375738 -0.91337 -0.153265
22.373 126.415 -18.967 0.433443 -0.893736 -0.115509
22.7548 126.438 -17.8069 0.416456 -0.901127 -0.120555
23.088 126.495 -16.8014 0.398149 -0.914183 -0.033022
23.4313 126.503 -15.5207 0.405588 -0.907679 -0.107782
23.6437 126.463 -14.3422 0.364913 -0.926905 -0.0486171
23.7842 126.412 -13.4143 0.329825 -0.929654 -0.141014
23.9014 126.333 -12.3876 0.410567 -0.907603 -0.080018
23.8426 126.284 -11.2504 0.348099 -0.937412 -0.00265169
23.5852 126.245 -9.96425 0.245164 -0.966718 0.0449784
23.3998 126.196 -9.01989 0.199305 -0.977763 0.039163
23.1246 126.213 -7.83938 0.150145 -0.988088 0.0337539
22.9294 126.213 -6.78746 0.101025 -0.994498 -0.0276925
22.7875 126.179 -5.39014 0.0673655 -0.99674 -0.026563
23.0327 126.084 -3.97789 0.0350104 -0.995827 -0.0842835
23.4169 125.984 -2.84002 0.00989709 -0.993981 -0.109103
23.74 125.829 -1.71305 -0.0462298 -0.986757 -0.155476
24.0244 125.653 -0.776362 -0.130239 -0.972074 -0.195215
24.1164 125.457 0.100879 -0.131855 -0.968913 -0.209339
23.5729 125.295 1.21715 -0.147398 -0.964716 -0.218165
22.4291 125.353 2.06926 -0.180547 -0.96975 -0.164279
21.4583 125.422 2.73603 -0.143643 -0.980358 -0.13515
20.5934 125.471 3.36781 -0.171603 -0.975577 -0.137119
19.7951 125.552 3.95636 -0.199683 -0.974538 -0.101989
18.8081 125.684 4.90161 -0.222357 -0.971152 -0.0861469
18.1314 125.812 5.62872 -0.273321 -0.95838 -0.082483
17.3079 125.988 6.60713 -0.315356 -0.946906 -0.0626008
17.9899 125.731 7.14064 -0.313704 -0.947994 -0.0524788
17.3172 125.919 8.221 -0.323208 -0.945999 -0.0232641
16.8369 126.052 9.09971 -0.307172 -0.951031 -0.0344326
16.4282 126.156 9.92614 -0.281997 -0.957793 -0.0470323
15.8581 126.249 11.2691 -0.232793 -0.970979 -0.0412776
15.5025 126.205 12.5465 -0.205503 -0.970978 -0.122356
15.1916 126.141 13.5676 -0.0354558 -0.981848 -0.186324
14.9681 125.94 14.6622 -0.00873387 -0.973508 -0.223913
14.7708 125.647 15.7465 -0.00122644 -0.956478 -0.289094
14.481 125.1 17.1071 0.0734167 -0.916841 -0.392444
14.3539 124.655 17.9785 0.147107 -0.839038 -0.523808
14.2233 123.844 19.1402 0.110272 -0.787121 -0.60685
14.0954 123.264 19.8646 0.0959124 -0.74211 -0.65978
13.8919 122.613 20.4864 0.0622517 -0.706315 -0.705156
13.4489 121.488 21.483 0.043818 -0.660001 -0.74934
13.0656 120.485 22.3546 0.024478 -0.643431 -0.765113
12.6734 119.757 22.9101 0.00481525 -0.597104 -0.802069
12.1677 118.899 23.5226 0.0123979 -0.563472 -0.82596
11.6082 118.041 24.0816 0.0485514 -0.560049 -0.827036
10.9124 117.409 24.4754 0.0608353 -0.566544 -0.821655
9.94445 116.673 24.8987 0.0703057 -0.57189 -0.817311
8.95071 115.87 25.358 0.0572274 -0.559183 -0.826728
8.17497 115.079 25.8604 0.00241916 -0.569127 -0.820976
7.72054 114.415 26.367 -0.0345961 -0.591186 -0.805793
7.18338 113.334 27.3277 0.110283 -0.644274 -0.756801
6.77927 112.44 28.0153 0.142911 -0.618825 -0.771945
6.46282 111.385 28.8192 0.139617 -0.592979 -0.791851
5.74726 110.234 29.4959 0.191677 -0.570554 -0.79816
5.01637 109.038 30.1377 0.240626 -0.545829 -0.801868
4.50827 108.298 30.452 0.268693 -0.523845 -0.808318
3.88381 107.506 30.795 0.217721 -0.554969 -0.802874
3.19604 106.796 31.0898 0.240621 -0.548739 -0.800616
2.18668 106.14 31.3324 0.118341 -0.629812 -0.765964
1.34164 105.838 31.4931 0.0961195 -0.608365 -0.787815
0.27498 105.733 31.4438 0.0947414 -0.611254 -0.785734
-0.661982 105.809 31.3814 -0.00756197 -0.590399 -0.807076
-1.6093 106.157 31.1592 -0.0585509 -0.613288 -0.787686
-2.34011 106.629 30.8971 -0.158109 -0.536454 -0.8279
-3.00299 107.28 30.6388 -0.169935 -0.494743 -0.852185
-3.75501 108.27 30.1943 -0.179255 -0.530423 -0.828565
-4.23828 108.996 29.846 -0.187707 -0.511789 -0.838355
-5.04121 110.267 29.2348 -0.168964 -0.551578 -0.815982
-5.60563 111.159 28.6957 -0.158255 -0.59888 -0.784918
-5.94323 111.855 28.2183 -0.117308 -0.634162 -0.762624
-6.46591 112.853 27.3789 -0.0787565 -0.672276 -0.736099
-6.81129 113.632 26.679 -0.0614165 -0.691855 -0.71942
-7.18582 114.46 25.8414 0.0147769 -0.720228 -0.692322
-7.52326 115.079 25.2234 0.055486 -0.718905 -0.691786
-7.86067 115.786 24.3987 0.276713 -0.719253 -0.599971
-8.50003 116.351 23.9048 0.0698476 -0.606527 -0.791989
-9.28878 116.926 23.4555 -0.0326868 -0.589127 -0.807349
-10.4368 117.752 22.8622 0.0212238 -0.58362 -0.811715
-11.1434 118.726 22.1372 0.0448802 -0.594889 -0.802524
-11.4173 119.408 21.6081 0.047303 -0.611243 -0.789976
-11.7249 120.42 20.777 0.0638606 -0.655199 -0.752045
-11.9878 121.563 19.7418 2.27437e-05 -0.67799 -0.733876
-12.1296 122.252 19.0538 -0.0134364 -0.706181 -0.707898
-12.3476 123.177 18.014 -0.0535494 -0.786138 -0.615727
-12.5356 123.844 17.1602 -0.100444 -0.828317 -0.551183
-12.7538 124.505 16.1751 -0.0763027 -0.873623 -0.47809
-12.9573 124.909 15.3871 -0.0783192 -0.900995 -0.426416
-13.2632 125.335 14.3259 -0.0863704 -0.945504 -0.313947
-13.5115 125.625 13.3686 -0.0648878 -0.97201 -0.2258
-13.7653 125.933 11.7853 0.0138622 -0.991497 -0.128711
-13.9646 126.039 10.8611 0.0378161 -0.994594 -0.088233
-14.0095 126.086 9.84899 0.0539259 -0.99748 -0.0460964
-14.0927 126.078 8.85427 0.11968 -0.99261 -0.0200387
-14.2025 126.058 7.83339 0.126919 -0.99059 0.0512151
-14.381 125.955 6.91344 0.16909 -0.98331 0.0628781
-14.7673 125.837 5.92446 0.182021 -0.981848 0.0533288
-15.1828 125.697 5.13864 0.216309 -0.975093 0.0426543
-16.0677 125.473 4.07622 0.23397 -0.97207 0.0142314
-16.9383 125.265 3.1373 0.228885 -0.973444 -0.00431279
-17.6604 125.084 2.36937 0.266544 -0.963349 -0.0262636
-18.6898 124.863 1.6347 0.249198 -0.965932 -0.0698249
-19.422 124.745 1.01826 0.213266 -0.973372 -0.0840511
-20.257 124.611 0.345196 0.239092 -0.966375 -0.093019
-21.274 124.472 -0.56709 0.229943 -0.967338 -0.106659
-22.0269 124.415 -1.55258 0.214423 -0.970691 -0.108547
-22.4123 124.434 -2.57641 0.206071 -0.974913 -0.0841405
-22.7195 124.526 -3.60086 0.147778 -0.982515 -0.113247
-22.9084 124.68 -4.93051 0.102888 -0.987226 -0.117805
-22.9367 124.76 -5.85781 0.0962244 -0.991418 -0.0884984
-23.05 124.928 -7.12354 -0.0227838 -0.991939 -0.101938
-23.1099 124.98 -8.10161 -0.0700366 -0.996381 -0.0481551
-23.0902 125.026 -9.22401 -0.10966 -0.993939 -0.007677
-23.0953 125.041 -10.308 -0.126941 -0.991673 -0.0101222
-23.149 125.042 -11.2597 -0.148164 -0.988692 -0.00899915
-23.1574 125.066 -12.5744 -0.172018 -0.985057 -0.00855755
-23.1685 125.066 -13.6587 -0.175102 -0.984508 0.00911862
-23.165 125.127 -14.616 -0.214718 -0.971265 -0.102671
-22.9974 125.182 -15.7079 -0.215636 -0.974429 -0.0631612
-22.744 125.199 -16.7821 -0.249812 -0.96656 -0.0579312
-22.4491 125.217 -18.0411 -0.260967 -0.961009 -0.0913689
-22.182 125.245 -19.0771 -0.258022 -0.961819 -0.0912382
-22.0274 125.322 -20.0833 -0.215537 -0.969902 -0.113285
-21.6613 125.307 -20.975 -0.236936 -0.96938 -0.0645331
-21.1676 125.25 -21.877 -0.213019 -0.973359 -0.0808224
-20.5416 125.247 -23.0624 -0.181628 -0.977291 -0.109147
-20.056 125.213 -23.9291 -0.148187 -0.988287 -0.0358398
-19.6172 125.184 -24.7581 -0.144543 -0.988644 -0.0411034
-18.913 125.135 -25.8396 -0.132288 -0.990065 -0.0476468
-18.3045 125.11 -26.6083 -0.0940239 -0.992006 -0.0841605
-17.3766 125.079 -27.5551 -0.0992016 -0.994376 -0.0369359
-16.7249 125.04 -28.1824 -0.0952938 -0.99446 -0.0439809
-15.6463 125.019 -29.2442 -0.0580545 -0.996424 -0.0613964
-14.8397 125.02 -29.9862 -0.0696336 -0.995397 -0.0658483
-14.134 125.014 -30.6378 -0.0698006 -0.995568 -0.0629596
-13.4978 125.018 -31.3041 -0.0771572 -0.994027 -0.0771778
-12.495 125.021 -32.0969 -0.0746345 -0.991071 -0.108638
-11.4568 125.012 -32.8465 -0.0829223 -0.989311 -0.119939
-10.6116 125.012 -33.3835 -0.0674091 -0.989422 -0.128456
-9.55093 124.993 -33.7847 -0.0587831 -0.988297 -0.140502
-8.62694 124.992 -34.1848 -0.0684424 -0.985931 -0.152496
-7.66089 125.005 -34.5241 -0.0355354 -0.983747 -0.176006
-6.56319 125.026 -34.8443 -0.0237509 -0.982821 -0.182981
-5.60364 125.066 -35.1618 -0.0134464 -0.981491 -0.190724
-4.47813 125.149 -35.5234 0.0184861 -0.980867 -0.193798
-3.40759 125.206 -35.7556 -0.00877274 -0.979639 -0.200575
-2.34613 125.229 -35.89 0.0136286 -0.978902 -0.203567
-0.853296 125.291 -36.0332 0.0282609 -0.981018 -0.191528
0.0916414 125.335 -36.0698 0.0423207 -0.980683 -0.190905
1.05323 125.375 -36.0454 0.0462749 -0.979921 -0.193941
2.27685 125.413 -35.9347 0.0463568 -0.978514 -0.200785
3.46399 125.432 -35.7886 0.0525496 -0.975139 -0.214631
4.74121 125.473 -35.4336 0.0833033 -0.980584 -0.177528
5.90898 125.517 -35.2654 0.0740858 -0.97641 -0.202119
6.81967 125.537 -34.9562 0.103899 -0.970845 -0.215204
7.74185 125.591 -34.711 0.119906 -0.968338 -0.218963
8.9823 125.671 -34.3045 0.145054 -0.964836 -0.219205
9.87887 125.704 -33.8538 0.149879 -0.967104 -0.205537
10.9474 125.733 -33.2144 0.149834 -0.967019 -0.205969
12.4532 125.762 -32.2991 0.145706 -0.964438 -0.220521
13.5051 125.785 -31.5242 0.180238 -0.959555 -0.216259
14.4263 125.798 -30.8216 0.177827 -0.959518 -0.21841
15.5252 125.829 -29.8011 0.212652 -0.965721 -0.148869
16.3315 125.861 -28.9499 0.1902 -0.965399 -0.178406
17.0032 125.873 -28.2347 0.282953 -0.941079 -0.184715
17.7986 126.002 -27.561 0.292165 -0.942715 -0.161022
18.4157 126.072 -26.8609 0.297025 -0.940982 -0.162104
19.1589 126.134 -25.9728 0.285463 -0.937545 -0.198799
19.9123 126.252 -24.9782 0.365033 -0.920287 -0.140791
20.5816 126.326 -23.9395 0.349228 -0.918154 -0.187172
21.1337 126.454 -23.2061 0.419458 -0.899786 -0.120168
21.6747 126.576 -22.3663 0.391769 -0.910903 -0.129512
22.2446 126.68 -21.3179 0.40225 -0.906548 -0.127764
23.0023 126.817 -19.7503 0.428774 -0.896372 -0.112534
23.3666 126.883 -18.9428 0.421703 -0.897142 -0.131543
23.66 126.903 -18.045 0.461076 -0.882807 -0.0895114
23.9539 126.962 -17.1805 0.421543 -0.897603 -0.128881
24.1996 126.923 -16.0655 0.459816 -0.879905 -0.119718
24.4418 126.887 -14.705 0.447137 -0.889018 -0.0985705
24.7097 126.813 -13.1958 0.435214 -0.890868 -0.130165
24.7945 126.712 -12.2508 0.383822 -0.912934 -0.121588
24.8271 126.615 -11.1575 0.329643 -0.939501 -0.0931333
24.5231 126.489 -10.047 0.284325 -0.958244 -0.0169043
24.2009 126.388 -8.5635 0.236926 -0.970596 0.0109298
24.006 126.388 -7.6579 0.194492 -0.979875 0.00822388
23.7836 126.309 -6.15899 0.169112 -0.985304 -0.0240124
23.7253 126.229 -5.19562 0.0969349 -0.990212 -0.100027
23.9011 126.162 -4.30019 0.0919629 -0.991425 -0.0928446
24.2072 126.056 -3.43035 0.0195734 -0.990598 -0.132722
24.5102 125.95 -2.56211 -0.0193369 -0.984659 -0.173414
24.7867 125.767 -1.61361 -0.0380468 -0.96881 -0.244866
25.0626 125.465 -0.524166 -0.127287 -0.94762 -0.292337
25.0628 125.095 0.764264 -0.226024 -0.939903 -0.255921
24.3782 125.017 1.77979 -0.245309 -0.935929 -0.2527
23.5532 125.05 2.4506 -0.245541 -0.943409 -0.220265
22.6403 125.174 3.06501 -0.186928 -0.974491 -0.124198
21.7691 125.238 3.73925 -0.144612 -0.980377 -0.133962
20.813 125.286 4.37002 -0.182433 -0.971018 -0.149078
20.0046 125.394 5.00553 -0.236638 -0.966761 -0.0967414
18.891 125.542 6.11305 -0.262014 -0.958841 -0.104711
18.4195 125.633 6.63107 -0.292285 -0.951205 -0.0988821
18.2682 125.662 6.80107 -0.297487 -0.951331 -0.0773218
