58.0536 116.52 20.7914 0.00974255 -0.86373 -0.50386
58.2193 116.025 21.6427 0.010024 -0.858526 -0.512581
58.147 115.236 22.9494 0.0280111 -0.852006 -0.522614
57.69 114.517 24.0711 0.0141341 -0.849078 -0.528061
57.2925 114.007 24.9011 0.0452123 -0.862244 -0.504362
56.8226 113.459 25.7736 0.0526718 -0.860663 -0.506407
56.1553 112.928 26.7604 -0.00533536 -0.882773 -0.46977
55.5928 112.577 27.475 -0.0431079 -0.883567 -0.466317
54.9137 112.285 28.1571 -0.0946668 -0.89083 -0.443117
53.5546 112.159 28.9418 -0.185661 -0.89889 -0.39549
52.6951 112.582 28.5296 -0.233416 -0.877753 -0.41841
52.0929 113.017 27.9577 -0.243631 -0.860278 -0.447435
51.2718 113.572 27.3175 -0.257468 -0.867936 -0.424732
50.5169 114.081 26.7748 -0.280177 -0.845424 -0.454333
49.6815 114.696 26.1794 -0.280227 -0.836678 -0.470576
49.0666 115.243 25.5959 -0.319378 -0.822941 -0.469857
48.3859 115.981 24.7597 -0.317745 -0.824831 -0.467645
47.8278 116.656 23.9367 -0.307361 -0.834008 -0.458168
47.4424 117.172 23.2477 -0.29959 -0.838398 -0.455322
46.9791 117.741 22.4961 -0.293227 -0.838317 -0.459523
46.4597 118.242 21.8746 -0.285202 -0.852708 -0.437662
45.686 118.845 21.186 -0.289135 -0.861177 -0.418061
44.9702 119.364 20.5405 -0.255554 -0.884393 -0.390565
44.8009 119.778 19.6923 -0.247978 -0.893667 -0.373986
45.2788 120.078 18.6319 -0.252173 -0.899482 -0.356848
46.1764 120.252 17.6194 -0.232418 -0.903074 -0.361164
47.2095 120.268 16.9359 -0.213992 -0.908731 -0.35807
48.0592 120.242 16.5302 -0.203616 -0.90806 -0.366016
49.3411 120.11 16.206 -0.192975 -0.916612 -0.348923
50.3828 119.884 16.2297 -0.190755 -0.914359 -0.357155
51.4605 119.631 16.3383 -0.180669 -0.906483 -0.381638
52.3712 119.442 16.3986 -0.122736 -0.913638 -0.387558
53.4994 119.224 16.5256 -0.121916 -0.899757 -0.418461
54.7376 118.902 16.9234 -0.111132 -0.892038 -0.437412
55.8751 118.408 17.6781 -0.0829357 -0.877429 -0.472273
56.633 117.906 18.4837 -0.0604581 -0.874951 -0.480422
57.2899 117.396 19.3239 -0.0528218 -0.873946 -0.483145
57.8215 116.869 20.2006 -0.0307451 -0.863802 -0.502892
58.017 116.598 20.658 0.00647875 -0.861895 -0.507022
58.8757 116.809 20.3118 0.0197035 -0.864259 -0.502547
58.4892 117.264 19.5097 -0.00781787 -0.872676 -0.488238
58.0491 117.666 18.8054 -0.0143232 -0.872497 -0.488379
57.4036 118.143 17.9512 -0.0374692 -0.878299 -0.475949
56.8168 118.553 17.2769 -0.0629878 -0.876201 -0.477811
56.1169 118.91 16.6432 -0.0666322 -0.890921 -0.448819
55.1875 119.233 16.1197 -0.0748985 -0.906713 -0.415044
54.3534 119.454 15.8237 -0.0917767 -0.910762 -0.402093
53.3296 119.652 15.5952 -0.124661 -0.914646 -0.384555
52.1472 119.852 15.5031 -0.123698 -0.914142 -0.386056
51.2057 120.048 15.4234 -0.162844 -0.916427 -0.365572
49.908 120.334 15.2812 -0.162615 -0.929431 -0.331231
48.961 120.495 15.344 -0.194518 -0.930877 -0.308731
47.8974 120.627 15.6052 -0.196372 -0.934571 -0.296673
46.9862 120.689 16.0131 -0.198846 -0.921726 -0.330981
46.2015 120.68 16.4795 -0.161226 -0.937124 -0.309524
45.428 120.646 17.0821 -0.211903 -0.913915 -0.346203
44.6585 120.52 17.9348 -0.24466 -0.908545 -0.338567
44.0759 120.296 18.9322 -0.247438 -0.902951 -0.351266
43.7241 119.907 20.0771 -0.237723 -0.894693 -0.37817
43.9086 119.502 20.9613 -0.257209 -0.89197 -0.371119
44.7208 118.961 21.6258 -0.289726 -0.870613 -0.396949
45.4945 118.398 22.2426 -0.296158 -0.857837 -0.419923
46.1926 117.78 22.9694 -0.302019 -0.848024 -0.435476
46.6835 117.153 23.7976 -0.323105 -0.840636 -0.434665
47.0912 116.616 24.5292 -0.324039 -0.838331 -0.438391
47.6693 115.898 25.4169 -0.347884 -0.818946 -0.456404
48.3647 115.184 26.2397 -0.34384 -0.845341 -0.408869
49.101 114.542 26.9189 -0.359333 -0.838887 -0.40867
49.7984 114.008 27.4268 -0.354695 -0.847706 -0.394443
50.4836 113.521 27.8987 -0.258963 -0.87081 -0.417815
51.3114 112.972 28.5413 -0.260454 -0.873686 -0.410897
52.2167 112.272 29.4473 -0.247717 -0.875056 -0.415563
53.1649 111.824 29.9802 -0.209923 -0.905636 -0.368443
54.1847 111.678 29.7666 -0.206619 -0.905605 -0.370388
55.0249 111.765 29.2294 -0.0676926 -0.902978 -0.42432
55.9623 112.088 28.4173 -0.058051 -0.898003 -0.436143
56.7468 112.525 27.5096 -0.00532263 -0.882745 -0.469822
57.3287 112.953 26.6996 0.0243122 -0.873202 -0.485496
58.0022 113.645 25.5806 0.0526731 -0.860663 -0.506407
58.5139 114.301 24.4982 0.0551576 -0.864898 -0.498908
58.8699 114.782 23.7292 0.0589175 -0.856283 -0.513135
59.2291 115.544 22.4967 0.0458094 -0.856203 -0.514605
59.1599 116.222 21.3406 0.0335199 -0.86641 -0.498181
59.0184 116.549 20.7681 0.0303271 -0.864544 -0.501641
59.9808 116.658 20.6386 0.0265815 -0.868667 -0.494601
59.6331 117.151 19.7387 0.0228358 -0.872789 -0.487564
58.96 117.826 18.499 0.0159434 -0.878013 -0.478371
58.2225 118.402 17.4511 -0.0144657 -0.881829 -0.471331
57.6291 118.764 16.7762 -0.0167359 -0.898113 -0.43936
56.6175 119.252 15.8679 -0.0565892 -0.901085 -0.429933
55.3305 119.642 15.1968 -0.0498802 -0.918371 -0.392283
54.2344 119.872 14.8464 -0.0895753 -0.922874 -0.374538
52.9546 120.076 14.6544 -0.10357 -0.934987 -0.339224
51.7579 120.25 14.5836 -0.1282 -0.929519 -0.345773
50.8208 120.455 14.4526 -0.148927 -0.938596 -0.31122
49.7851 120.656 14.3597 -0.170474 -0.93722 -0.30422
48.7064 120.833 14.4263 -0.179438 -0.936873 -0.299997
47.6752 120.972 14.6635 -0.196645 -0.934591 -0.29643
46.5217 121.035 15.1959 -0.167582 -0.941007 -0.293976
45.7014 121.021 15.708 -0.16441 -0.939064 -0.301751
44.8773 121.01 16.3524 -0.216827 -0.93447 -0.282402
44.2269 120.934 17.0325 -0.18142 -0.938357 -0.294234
43.5912 120.766 17.9188 -0.160187 -0.938057 -0.307227
43.073 120.544 18.8593 -0.206374 -0.928202 -0.309597
42.7953 120.288 19.7153 -0.21745 -0.90687 -0.360973
42.6934 119.956 20.6617 -0.241063 -0.908319 -0.341197
43.2338 119.371 21.7724 -0.276572 -0.890225 -0.360984
44.0943 118.827 22.3785 -0.289721 -0.870616 -0.396947
44.9144 118.259 22.9798 -0.324486 -0.853716 -0.406569
45.5049 117.713 23.5953 -0.341067 -0.840587 -0.420812
46.1339 116.907 24.6811 -0.343137 -0.837903 -0.42447
46.7171 116.127 25.7319 -0.347324 -0.837845 -0.421115
47.3697 115.434 26.5632 -0.350946 -0.840563 -0.412578
48.1194 114.75 27.3591 -0.351138 -0.846895 -0.399318
48.8076 114.196 27.9181 -0.35728 -0.844168 -0.399646
49.7811 113.493 28.5876 -0.354345 -0.857025 -0.374097
50.5 112.975 29.112 -0.349203 -0.863879 -0.362897
51.2948 112.375 29.9054 -0.287926 -0.887438 -0.359933
51.9826 111.892 30.5806 -0.278561 -0.895402 -0.347361
53.2416 111.356 31.0835 -0.226529 -0.9194 -0.321541
54.3302 111.258 30.6923 -0.176029 -0.915205 -0.360476
55.4476 111.345 30.0432 -0.0870268 -0.91169 -0.399588
56.1633 111.563 29.4719 -0.0731219 -0.897856 -0.434174
56.875 111.85 28.7768 -0.0641924 -0.897495 -0.436328
57.5421 112.24 28.0049 -0.0153136 -0.873401 -0.486761
58.0292 112.63 27.3355 0.0565389 -0.870243 -0.489349
58.7754 113.318 26.2116 0.0508309 -0.859757 -0.508089
59.2912 114.041 25.0386 0.0574805 -0.865766 -0.497137
59.7135 114.592 24.1507 0.0766097 -0.85883 -0.506348
60.0373 115.057 23.4208 0.0651817 -0.859468 -0.506939
60.2347 115.785 22.1873 0.068104 -0.86322 -0.500182
60.1648 116.237 21.3875 0.0476117 -0.867421 -0.49517
60.0142 116.593 20.7526 0.0335199 -0.86641 -0.498181
60.8604 116.886 20.3153 0.0524637 -0.872985 -0.484917
61.0717 116.449 21.1253 0.0554918 -0.869778 -0.490264
61.1864 115.82 22.2548 0.0663435 -0.871121 -0.486566
61.1148 115.29 23.1711 0.0834391 -0.867472 -0.490439
60.7595 114.67 24.1963 0.0869445 -0.862317 -0.498848
60.298 114.089 25.1107 0.0870588 -0.857737 -0.506664
59.9706 113.639 25.8264 0.097696 -0.866045 -0.490306
59.6246 113.122 26.6761 0.0936741 -0.865812 -0.491514
59.0285 112.544 27.6036 0.056545 -0.870246 -0.489343
58.5434 112.107 28.316 0.0482173 -0.871748 -0.48744
57.835 111.632 29.1329 0.0227447 -0.892189 -0.450069
57.0207 111.277 29.9192 -0.0693043 -0.896351 -0.437863
56.3339 111.061 30.5376 -0.0744801 -0.929631 -0.36072
55.5242 110.94 31.0501 -0.122757 -0.926916 -0.353756
54.291 110.894 31.7249 -0.145629 -0.933168 -0.328618
53.1892 111.004 32.1281 -0.215603 -0.924787 -0.313154
52.2887 111.271 32.0878 -0.284581 -0.90887 -0.304908
51.2554 111.885 31.2562 -0.293041 -0.902748 -0.314918
50.4505 112.47 30.4362 -0.336084 -0.879114 -0.337944
49.7519 113.01 29.7616 -0.349257 -0.867235 -0.354855
49.0972 113.473 29.2831 -0.358693 -0.857998 -0.367636
48.3789 113.98 28.8077 -0.358466 -0.856115 -0.372249
47.5348 114.628 28.131 -0.356335 -0.850368 -0.386852
46.8134 115.281 27.3795 -0.356378 -0.847221 -0.393969
46.1534 115.939 26.5832 -0.350134 -0.838819 -0.416861
45.75 116.429 25.9285 -0.34733 -0.837843 -0.421114
45.3128 117.041 25.0807 -0.343153 -0.837444 -0.425362
44.886 117.607 24.3042 -0.341125 -0.839687 -0.422562
44.3258 118.158 23.6606 -0.324485 -0.853716 -0.40657
43.5423 118.696 23.1176 -0.326694 -0.861307 -0.38913
42.6663 119.228 22.556 -0.315482 -0.879691 -0.35522
41.8728 119.751 21.8328 -0.281442 -0.898672 -0.33642
41.6944 120.108 20.9407 -0.242539 -0.915449 -0.321136
41.776 120.431 19.9722 -0.221485 -0.911722 -0.345589
42.0588 120.733 18.9102 -0.183586 -0.935334 -0.3024
42.4301 120.921 18.0993 -0.182461 -0.938108 -0.294384
43.0576 121.124 17.1073 -0.16227 -0.937437 -0.308026
43.8097 121.276 16.1403 -0.104859 -0.959124 -0.262843
44.7558 121.333 15.2095 -0.191699 -0.953101 -0.233653
45.5115 121.332 14.6534 -0.158299 -0.955099 -0.249152
46.4498 121.32 14.1573 -0.139945 -0.966286 -0.216117
47.4174 121.268 13.7435 -0.145084 -0.966069 -0.213684
48.3121 121.155 13.5301 -0.15553 -0.953979 -0.256387
49.6576 120.953 13.4256 -0.154538 -0.949298 -0.273192
50.7601 120.762 13.5151 -0.149985 -0.945234 -0.289893
51.7851 120.56 13.6959 -0.132193 -0.941552 -0.309848
52.8447 120.42 13.7441 -0.091884 -0.937792 -0.334578
54.0547 120.268 13.8762 -0.0646155 -0.934563 -0.349882
55.3041 120.062 14.1888 -0.0389703 -0.922835 -0.38322
56.449 119.785 14.7023 -0.041366 -0.911766 -0.4081
57.2359 119.535 15.2086 -0.0257896 -0.908016 -0.418107
57.9957 119.217 15.839 -0.0269844 -0.901273 -0.432235
58.8031 118.788 16.701 -0.0130676 -0.891676 -0.45209
59.5842 118.245 17.745 0.0180107 -0.886536 -0.46231
60.0634 117.795 18.5888 0.0271443 -0.879656 -0.474643
60.4784 117.386 19.3833 0.0433335 -0.875154 -0.481808
60.7901 116.999 20.1035 0.0502097 -0.871993 -0.486927
61.7186 117.155 19.9398 0.0647987 -0.87575 -0.478276
61.3943 117.55 19.1623 0.049909 -0.87813 -0.475812
60.8672 118.104 18.0783 0.0304812 -0.884389 -0.465755
60.3469 118.535 17.2167 0.0230701 -0.887956 -0.459291
59.7707 118.915 16.4645 0.0203084 -0.893527 -0.448321
59.1548 119.288 15.6776 -0.00361214 -0.897215 -0.441578
58.4555 119.613 15.0016 0.00380413 -0.902147 -0.431411
57.6851 119.894 14.3897 -0.0165023 -0.913432 -0.406544
56.8734 120.132 13.9032 -0.0258033 -0.914149 -0.404557
55.997 120.32 13.4929 -0.039903 -0.923767 -0.38087
54.4851 120.541 13.0677 -0.0426248 -0.932827 -0.35704
53.6058 120.666 12.8956 -0.052986 -0.938572 -0.340646
52.4171 120.78 12.7879 -0.091566 -0.949832 -0.299055
51.4843 120.922 12.6795 -0.121249 -0.948822 -0.291607
50.5156 121.074 12.5493 -0.141635 -0.957515 -0.251206
49.1739 121.262 12.5083 -0.12852 -0.969512 -0.207329
48.2492 121.389 12.5814 -0.132065 -0.973451 -0.185935
47.0561 121.508 12.8313 -0.142716 -0.975327 -0.168431
45.9696 121.582 13.31 -0.1337 -0.97627 -0.154868
44.9844 121.621 13.8019 -0.150247 -0.963288 -0.22249
44.2124 121.619 14.3548 -0.144409 -0.968651 -0.202144
43.4497 121.546 15.1761 -0.132537 -0.966245 -0.220916
42.8064 121.471 15.9498 -0.159284 -0.955806 -0.247109
42.0202 121.321 17.0194 -0.146997 -0.95303 -0.264316
41.2844 121.072 18.3538 -0.194002 -0.940017 -0.27941
40.9916 120.853 19.2115 -0.201432 -0.932737 -0.298912
40.7991 120.594 20.1665 -0.210276 -0.927788 -0.308208
40.6861 120.3 21.1279 -0.2258 -0.928078 -0.295435
40.9306 119.851 22.3093 -0.264888 -0.916445 -0.299937
41.6013 119.426 22.9792 -0.286785 -0.906463 -0.309967
42.4108 118.935 23.5459 -0.333837 -0.876913 -0.345799
43.2185 118.435 23.984 -0.332352 -0.864724 -0.376557
43.8767 117.946 24.4821 -0.362771 -0.837652 -0.408334
44.4791 117.179 25.4658 -0.348057 -0.829218 -0.436965
45.1668 116.276 26.7178 -0.338173 -0.843432 -0.417411
45.7391 115.611 27.6148 -0.333784 -0.851603 -0.40418
46.3039 115.089 28.265 -0.353793 -0.852582 -0.384558
46.8174 114.563 28.9514 -0.355877 -0.853962 -0.37955
47.4816 114.107 29.3688 -0.351502 -0.857847 -0.374891
48.252 113.557 29.9195 -0.359156 -0.859712 -0.363182
48.9761 113.048 30.4257 -0.346817 -0.867702 -0.356107
49.7613 112.481 31.095 -0.337618 -0.87886 -0.337075
50.3822 112.015 31.7127 -0.286825 -0.894473 -0.343
51.1171 111.488 32.5053 -0.290326 -0.900615 -0.32337
51.7953 111.039 33.1389 -0.272328 -0.901452 -0.33648
52.6485 110.739 33.2476 -0.253936 -0.907344 -0.334395
53.9567 110.563 32.882 -0.206329 -0.914461 -0.348123
55.0396 110.557 32.3786 -0.121212 -0.914394 -0.379994
56.0469 110.57 31.9299 -0.105794 -0.938062 -0.328878
57.0133 110.783 31.1117 -0.0794625 -0.93065 -0.356795
58.1162 111.143 30.1594 0.00152293 -0.908625 -0.417369
58.8804 111.536 29.4084 0.0431628 -0.88168 -0.469869
59.3857 111.939 28.7447 0.0784049 -0.875128 -0.477491
60.0065 112.496 27.8583 0.103713 -0.866159 -0.488881
60.5165 112.988 27.0887 0.1109 -0.8657 -0.488056
60.8834 113.476 26.3013 0.101996 -0.864774 -0.491693
61.2465 114.024 25.4176 0.102283 -0.862924 -0.494873
61.703 114.626 24.444 0.0932469 -0.864329 -0.494207
62.0112 115.142 23.5981 0.0965815 -0.866421 -0.489884
62.1267 115.832 22.3722 0.0809449 -0.873069 -0.480767
62.0819 116.292 21.5421 0.0753376 -0.871605 -0.484379
61.9377 116.72 20.7481 0.0685453 -0.870717 -0.486985
61.7827 117.054 20.1299 0.0685473 -0.870715 -0.486988
