-45.2256 114.014 14.8463 0.370554 -0.86842 -0.329353
-45.8702 113.484 15.5633 0.371434 -0.874693 -0.311367
-46.6846 112.81 16.4657 0.367257 -0.874557 -0.316575
-47.3908 112.142 17.5551 0.401889 -0.885423 -0.231268
-47.893 111.764 18.3588 0.325327 -0.920133 -0.217985
-48.5475 111.327 19.4113 0.36056 -0.919637 -0.155063
-49.0866 110.968 20.4233 0.342936 -0.937552 -0.0467702
-49.8425 110.673 21.6234 0.312936 -0.949011 -0.0380741
-50.687 110.392 21.5694 0.294297 -0.952979 -0.0636568
-51.7956 110.188 20.8868 0.194269 -0.978639 -0.0672766
-52.5834 110.131 20.1353 0.146529 -0.98516 -0.0884699
-53.4752 110.182 19.2353 0.133472 -0.964982 -0.225822
-54.2375 110.263 18.3914 0.0821049 -0.972567 -0.20859
-54.8852 110.502 17.3895 0.0515495 -0.949072 -0.309319
-55.5082 110.896 16.264 -0.000674479 -0.945742 -0.324457
-55.9228 111.166 15.4238 0.00553442 -0.951093 -0.308854
-56.3436 111.466 14.5919 0.0115297 -0.934138 -0.356727
-56.7471 111.779 13.7562 0.0118056 -0.934396 -0.356041
-57.2447 112.169 12.7351 -0.00340181 -0.932009 -0.360665
-57.6938 112.55 11.7808 0.0343394 -0.933863 -0.355979
-57.9624 112.889 10.8768 0.0579657 -0.919191 -0.389505
-57.8131 113.435 9.6003 0.0645371 -0.914998 -0.398032
-57.2509 114.009 8.41269 0.0822333 -0.904506 -0.418081
-56.5641 114.535 7.46561 0.0968695 -0.892996 -0.439399
-55.943 114.998 6.67477 0.126617 -0.889219 -0.439144
-55.2814 115.451 5.99552 0.141633 -0.881464 -0.450512
-54.6436 115.849 5.43631 0.152801 -0.877583 -0.454423
-53.5588 116.313 4.89966 0.163173 -0.883678 -0.438708
-52.3411 116.623 4.73945 0.169541 -0.883729 -0.43621
-51.3819 116.771 4.81588 0.178172 -0.886656 -0.42672
-50.1292 116.88 5.10552 0.185075 -0.888611 -0.419514
-49.1203 117.003 5.29623 0.183942 -0.894008 -0.408553
-47.9783 117.181 5.45348 0.192386 -0.902148 -0.386156
-46.6857 117.375 5.68302 0.204835 -0.909141 -0.362274
-45.2969 117.498 6.16363 0.2155 -0.911939 -0.349181
-44.3492 117.513 6.7883 0.228916 -0.917209 -0.326069
-43.7122 117.427 7.48527 0.229211 -0.918615 -0.321883
-42.9739 117.243 8.56701 0.254616 -0.911072 -0.32422
-42.3911 117.038 9.64945 0.279032 -0.910135 -0.306244
-42.0194 116.809 10.6568 0.289561 -0.902078 -0.319591
-42.0102 116.457 11.6527 0.32248 -0.895875 -0.305639
-42.588 116.055 12.2329 0.318148 -0.889145 -0.328259
-43.213 115.607 12.7994 0.334061 -0.883464 -0.328474
-44.0634 114.98 13.5936 0.356588 -0.877088 -0.32181
-44.8407 114.355 14.3903 0.367917 -0.866707 -0.336832
-45.1674 114.066 14.7767 0.37091 -0.865675 -0.336189
-44.4293 114.151 15.452 0.384821 -0.870811 -0.305931
-43.6683 114.778 14.6139 0.378988 -0.876005 -0.298186
-42.8258 115.41 13.811 0.357865 -0.880068 -0.311947
-41.9051 116.049 13.0117 0.349358 -0.885985 -0.304926
-41.2357 116.452 12.5147 0.329099 -0.901778 -0.280162
-40.7615 116.96 11.4453 0.29652 -0.912942 -0.280379
-41.0862 117.241 10.2424 0.290349 -0.90733 -0.304056
-41.5311 117.478 9.10174 0.256623 -0.923993 -0.283515
-42.1007 117.647 8.07834 0.248122 -0.919881 -0.303733
-42.6615 117.781 7.24296 0.239147 -0.916884 -0.319581
-43.2165 117.895 6.4978 0.208422 -0.92972 -0.303492
-44.0097 117.933 5.8195 0.216521 -0.927324 -0.305267
-44.9481 117.92 5.24824 0.197036 -0.925644 -0.323048
-45.8861 117.843 4.90748 0.185919 -0.919948 -0.344943
-46.8604 117.73 4.67057 0.180846 -0.916079 -0.357683
-48.2377 117.528 4.49449 0.177897 -0.906168 -0.383351
-49.5716 117.356 4.30328 0.17342 -0.897204 -0.405961
-50.8572 117.261 3.98854 0.167115 -0.890908 -0.42221
-51.755 117.208 3.76604 0.16374 -0.888466 -0.428712
-52.6717 117.033 3.77539 0.161756 -0.884766 -0.437063
-54.0254 116.696 3.96666 0.159894 -0.882355 -0.442588
-54.9786 116.297 4.43799 0.147547 -0.884998 -0.441598
-56.015 115.674 5.3302 0.141635 -0.88138 -0.450676
-56.609 115.289 5.89557 0.141641 -0.881463 -0.450511
-57.3142 114.783 6.77216 0.10762 -0.897034 -0.428658
-58.0733 114.226 7.78901 0.094748 -0.900137 -0.425096
-58.5259 113.868 8.52308 0.0418525 -0.914016 -0.403513
-58.8589 113.516 9.29827 0.0276019 -0.925622 -0.377442
-59.0771 113.02 10.4888 0.0163221 -0.928376 -0.370944
-58.9276 112.649 11.4602 0.0103857 -0.934145 -0.356742
-58.4914 112.269 12.5312 -0.0143283 -0.945995 -0.323699
-57.9322 111.87 13.6272 -0.0328536 -0.937518 -0.345912
-57.3633 111.427 14.7566 -0.052934 -0.940826 -0.33473
-56.7571 110.989 15.9852 -0.0310428 -0.946987 -0.319768
-56.2572 110.634 17.006 -0.0247611 -0.949474 -0.310953
-55.8304 110.372 17.8303 -0.0241687 -0.967568 -0.248317
-55.3436 110.199 18.6067 0.00333614 -0.976887 -0.213513
-54.6937 110.038 19.4253 0.0286896 -0.975954 -0.216082
-53.9486 109.964 20.2974 0.0994038 -0.98886 -0.110791
-52.9711 109.981 21.2609 0.134397 -0.987262 -0.0851519
-51.969 110.099 22.05 0.215699 -0.975086 -0.03297
-50.8212 110.336 22.6908 0.240282 -0.970546 0.0174829
-49.6351 110.718 22.9673 0.321938 -0.946745 0.00541892
-48.7032 111.034 22.0036 0.313856 -0.948744 -0.0371505
-48.2386 111.271 20.9531 0.353697 -0.932201 -0.0768137
-47.8309 111.493 20.1359 0.363641 -0.928992 -0.0673922
-47.1502 111.923 19.0736 0.368988 -0.918674 -0.141015
-46.5467 112.383 18.1073 0.394274 -0.898028 -0.19492
-46.0272 112.842 17.3044 0.389304 -0.884636 -0.256635
-45.3069 113.411 16.4777 0.389162 -0.88229 -0.264749
-44.6132 113.995 15.6631 0.386189 -0.869472 -0.30802
-43.9321 114.045 16.434 0.393122 -0.874929 -0.28273
-44.5871 113.481 17.2885 0.384435 -0.884113 -0.265621
-45.2184 113.023 17.908 0.378739 -0.891034 -0.249985
-45.6531 112.644 18.5976 0.394529 -0.885954 -0.243786
-46.1262 112.294 19.2997 0.355405 -0.915899 -0.186309
-46.6369 111.936 20.1449 0.348713 -0.921043 -0.173436
-47.1356 111.662 21.051 0.319553 -0.94487 -0.0714611
-47.6954 111.389 22.336 0.354396 -0.93423 -0.0402254
-48.1307 111.207 23.257 0.323138 -0.945953 0.025101
-48.7573 111.021 23.9125 0.313611 -0.949025 0.0316135
-49.8244 110.66 24.0909 0.328982 -0.944109 0.0159379
-51.1469 110.256 23.6802 0.245776 -0.969278 -0.00976398
-52.0278 110.031 23.1966 0.247625 -0.968154 -0.0368865
-52.9635 109.83 22.6161 0.166756 -0.982261 -0.0669734
-53.6447 109.798 22.0188 0.14979 -0.981677 -0.117787
-54.3865 109.774 21.3424 0.129279 -0.978307 -0.161873
-55.2525 109.812 20.4205 0.107291 -0.981213 -0.158774
-56.1082 109.995 19.4045 0.035747 -0.975636 -0.216463
-56.5898 110.188 18.599 -0.00380628 -0.966648 -0.255033
-57.1623 110.548 17.3946 -0.0233502 -0.958019 -0.285753
-57.8675 111.045 16.0031 -0.0679121 -0.952104 -0.298137
-58.2853 111.36 15.1348 -0.0783659 -0.942408 -0.325154
-58.9087 111.807 13.9203 -0.0435526 -0.950444 -0.307824
-59.4958 112.167 12.8635 -0.00995697 -0.952472 -0.304233
-60.0099 112.658 11.4229 -0.00690801 -0.940356 -0.339556
-60.1448 112.981 10.5769 -0.000196578 -0.933404 -0.358816
-60.0335 113.472 9.34666 0.00653211 -0.925949 -0.377592
-59.6086 113.897 8.31547 0.0459962 -0.922499 -0.383031
-59.1722 114.335 7.33042 0.071168 -0.912451 -0.402248
-58.4232 114.778 6.52743 0.0940043 -0.91275 -0.396594
-57.7987 115.226 5.71909 0.109024 -0.898221 -0.425809
-56.7963 115.861 4.72057 0.140826 -0.881215 -0.451251
-56.1243 116.258 4.14187 0.141591 -0.88509 -0.443359
-55.3173 116.745 3.42758 0.146576 -0.884311 -0.443269
-54.5036 117.063 3.07158 0.149799 -0.88493 -0.440963
-53.3722 117.374 2.83489 0.155213 -0.886261 -0.436405
-52.1867 117.632 2.73645 0.158461 -0.887423 -0.432864
-51.2974 117.716 2.889 0.159223 -0.887392 -0.432646
-50.3928 117.719 3.17834 0.144952 -0.899028 -0.412747
-49.1534 117.804 3.45681 0.146802 -0.911034 -0.384932
-47.7667 117.968 3.62315 0.151511 -0.922451 -0.354758
-46.6166 118.132 3.74431 0.171181 -0.921284 -0.349188
-45.6743 118.232 3.93864 0.174236 -0.936728 -0.303615
-44.7031 118.301 4.28426 0.178866 -0.937863 -0.297246
-43.7255 118.32 4.83942 0.180534 -0.939708 -0.290411
-42.8215 118.293 5.51454 0.185638 -0.941721 -0.280535
-41.8363 118.157 6.65198 0.208795 -0.935587 -0.284748
-41.1292 118 7.73653 0.219414 -0.939689 -0.262379
-40.5562 117.852 8.78889 0.269462 -0.921338 -0.280225
-40.2158 117.705 9.59697 0.268542 -0.920937 -0.282419
-39.9414 117.472 10.6167 0.272954 -0.92461 -0.264906
-39.5957 117.239 11.8069 0.306408 -0.91094 -0.276229
-40.1301 116.704 13.045 0.324297 -0.907551 -0.266106
-41.0961 116.165 13.6558 0.367738 -0.895044 -0.251344
-42.0776 115.497 14.5027 0.364463 -0.89021 -0.2733
-42.8211 114.96 15.1643 0.388768 -0.875133 -0.288083
-43.4996 114.426 15.8551 0.392755 -0.872359 -0.29109
-43.623 114.323 15.9973 0.390969 -0.874511 -0.286964
-46.1621 113.628 14.8222 0.367212 -0.872196 -0.323154
-46.2886 114.037 13.6619 0.347596 -0.86012 -0.373325
-46.4048 114.451 12.5718 0.332562 -0.867761 -0.369314
-46.5089 114.842 11.6079 0.318749 -0.861872 -0.394431
-46.6022 115.188 10.7689 0.30526 -0.872301 -0.381978
-46.7119 115.618 9.74105 0.280749 -0.872899 -0.399033
-46.7935 115.961 8.88575 0.263045 -0.882728 -0.389357
-46.8767 116.335 8.00718 0.247838 -0.887094 -0.38941
-46.9535 116.687 7.14013 0.225614 -0.893993 -0.387136
-47.0415 117.1 6.14486 0.216899 -0.902888 -0.371144
-48.0827 116.794 6.28751 0.208546 -0.894556 -0.39532
-48.0055 116.426 7.16301 0.2115 -0.890177 -0.40355
-47.9038 115.974 8.1799 0.2299 -0.876428 -0.423108
-47.817 115.592 9.05437 0.258352 -0.876693 -0.405789
-47.7249 115.194 9.93229 0.276842 -0.866192 -0.416016
-47.6295 114.82 10.8024 0.293761 -0.86172 -0.413695
-47.5233 114.412 11.7274 0.306297 -0.861901 -0.404116
-47.4159 113.993 12.7733 0.314945 -0.869768 -0.379886
-47.2975 113.56 13.878 0.321977 -0.871183 -0.370636
-47.1481 113.049 15.2856 0.351729 -0.867412 -0.35197
-47.0839 112.814 16.0052 0.360553 -0.876643 -0.318589
-47.9995 111.956 17.4526 0.299016 -0.907868 -0.293878
-48.1008 112.314 16.2887 0.35226 -0.88514 -0.304038
-48.2292 112.788 14.8672 0.342756 -0.869116 -0.35659
-48.3316 113.175 13.8538 0.337025 -0.858128 -0.387337
-48.4342 113.559 12.9247 0.310637 -0.859159 -0.406633
-48.5693 114.102 11.6652 0.281178 -0.869929 -0.405169
-48.7008 114.63 10.4722 0.264239 -0.865792 -0.424949
-48.833 115.201 9.24837 0.262102 -0.863928 -0.430036
-48.9187 115.58 8.43111 0.232642 -0.872252 -0.430179
-49.0096 115.972 7.58118 0.220074 -0.882304 -0.416062
-49.1265 116.508 6.38307 0.217794 -0.887771 -0.405498
-49.1412 116.584 6.20477 0.196213 -0.894215 -0.402343
-50.219 116.529 5.81836 0.194214 -0.889766 -0.413034
-50.1395 116.117 6.71346 0.19661 -0.880667 -0.431011
-50.041 115.653 7.70137 0.216691 -0.871215 -0.440488
-49.9465 115.233 8.57619 0.223322 -0.87072 -0.438147
-49.8364 114.746 9.59621 0.23204 -0.862337 -0.450036
-49.7289 114.268 10.5671 0.257215 -0.862021 -0.436762
-49.6237 113.843 11.4965 0.279107 -0.858776 -0.429654
-49.5173 113.409 12.4208 0.294928 -0.85661 -0.423363
-49.4175 113.01 13.3404 0.288017 -0.876015 -0.386838
-49.334 112.637 14.2925 0.263373 -0.888481 -0.375815
-49.2244 112.189 15.4159 0.267891 -0.882431 -0.386717
-49.1312 111.845 16.4529 0.354113 -0.886366 -0.29826
-49.0612 111.599 17.3333 0.363565 -0.893325 -0.264178
-49.0165 111.402 18.2413 0.299877 -0.926247 -0.228342
-48.9762 111.221 19.047 0.360599 -0.919738 -0.15508
-50.0027 110.651 20.8471 0.283863 -0.956488 -0.0674784
-50.0242 110.77 19.6377 0.275529 -0.950639 -0.14272
-50.0822 111.012 18.4571 0.279651 -0.936216 -0.212827
-50.1294 111.209 17.5539 0.265524 -0.938728 -0.219744
-50.1995 111.504 16.4168 0.250933 -0.92074 -0.298782
-50.3011 111.917 15.2812 0.222661 -0.89177 -0.393914
-50.4486 112.553 13.7588 0.206743 -0.896028 -0.392926
-50.5554 113.055 12.568 0.203932 -0.892622 -0.402042
-50.6486 113.46 11.6645 0.22781 -0.874063 -0.429087
-50.7408 113.861 10.8218 0.222658 -0.870003 -0.439907
-50.849 114.336 9.8497 0.227896 -0.859749 -0.45705
-50.954 114.802 8.93541 0.220176 -0.858669 -0.462829
-51.0811 115.376 7.76833 0.201794 -0.869397 -0.451029
-51.1735 115.829 6.826 0.198583 -0.879895 -0.431683
-51.2566 116.261 5.92435 0.181355 -0.881962 -0.435032
-51.3083 116.538 5.32919 0.180407 -0.885862 -0.427436
-52.3235 116.163 5.67819 0.174977 -0.884817 -0.431836
-52.2342 115.708 6.62041 0.179061 -0.879127 -0.441672
-52.1541 115.303 7.44037 0.186007 -0.869714 -0.457163
-52.0462 114.792 8.4605 0.190427 -0.866679 -0.461092
-51.9002 114.128 9.76629 0.199492 -0.865461 -0.459543
-51.807 113.677 10.6984 0.188017 -0.876093 -0.443972
-51.6908 113.125 11.8176 0.210038 -0.879271 -0.427512
-51.5857 112.625 12.9926 0.206645 -0.898346 -0.387651
-51.4901 112.158 14.0678 0.225685 -0.885863 -0.405355
-51.393 111.713 15.1212 0.226184 -0.892039 -0.39129
-51.2927 111.253 16.3992 0.154952 -0.940368 -0.302816
-51.2117 110.846 17.7731 0.214094 -0.943936 -0.251292
-51.1555 110.613 18.8303 0.254254 -0.948631 -0.188292
-51.109 110.416 20.065 0.256065 -0.957572 -0.132233
-51.1008 110.38 20.4247 0.27395 -0.957021 -0.09519
-52.2533 110.296 19.3991 0.141595 -0.971673 -0.189214
-52.2969 110.5 18.4772 0.104691 -0.970098 -0.218973
-52.3551 110.805 17.3217 0.11954 -0.960107 -0.252794
-52.4061 111.065 16.3772 0.151421 -0.945995 -0.286644
-52.4726 111.403 15.3509 0.162294 -0.913135 -0.373959
-52.5398 111.769 14.442 0.153094 -0.908299 -0.3893
-52.6426 112.299 13.2343 0.189308 -0.89695 -0.399553
-52.7379 112.809 12.0007 0.123369 -0.905756 -0.405445
-52.8315 113.293 11.015 0.17793 -0.870229 -0.459394
-52.9565 113.925 9.73618 0.166376 -0.881887 -0.441128
-53.0524 114.401 8.78778 0.155002 -0.873592 -0.461314
-53.1434 114.847 7.91236 0.156152 -0.875729 -0.456854
-53.2696 115.473 6.66927 0.181877 -0.87415 -0.450314
-53.371 115.976 5.64728 0.170176 -0.876602 -0.450121
-53.3931 116.083 5.43007 0.168307 -0.880702 -0.44276
-54.3817 115.602 6.01192 0.15945 -0.880232 -0.446952
-54.2926 115.175 6.88096 0.160139 -0.879157 -0.448818
-54.188 114.643 7.94199 0.157051 -0.874394 -0.459097
-54.0944 114.174 8.86706 0.154136 -0.875128 -0.458687
-53.9988 113.644 9.93999 0.13264 -0.880131 -0.455824
-53.9033 113.128 10.9611 0.0971686 -0.900079 -0.424753
-53.8148 112.624 12.0863 0.123361 -0.905758 -0.405444
-53.7271 112.115 13.2409 0.135081 -0.901908 -0.410263
-53.6496 111.682 14.2267 0.101361 -0.917911 -0.383622
-53.5935 111.324 15.21 0.0822717 -0.937164 -0.339051
-53.5381 110.956 16.2746 0.0814914 -0.943013 -0.322622
-53.4765 110.604 17.5125 0.137861 -0.958736 -0.248636
-53.4355 110.399 18.3158 0.14429 -0.961291 -0.234735
-54.6452 110.794 16.5989 0.038926 -0.941113 -0.335843
-54.688 111.083 15.7334 0.031805 -0.952136 -0.304015
-54.7384 111.42 14.7015 0.0692752 -0.933727 -0.351219
-54.8095 111.918 13.461 0.00433157 -0.925649 -0.378357
-54.8675 112.315 12.5566 0.0558524 -0.900539 -0.431173
-54.9303 112.7 11.6719 0.0686992 -0.91838 -0.38969
-55.0165 113.197 10.5695 0.0838895 -0.896269 -0.435505
-55.0893 113.629 9.6569 0.0975021 -0.895577 -0.43409
-55.1611 114.034 8.83979 0.125376 -0.892051 -0.434195
-55.2625 114.577 7.73058 0.144567 -0.880342 -0.451772
-55.3273 114.914 7.04129 0.148337 -0.88271 -0.445892
-56.2816 114.179 8.26529 0.0907489 -0.896769 -0.433094
-56.2152 113.796 9.08219 0.0798065 -0.907701 -0.411959
-56.1397 113.359 10.0573 0.0734968 -0.901104 -0.427328
-56.0458 112.813 11.2876 0.0298364 -0.9176 -0.396383
-55.9643 112.254 12.5969 0.0242738 -0.924507 -0.380391
-55.9016 111.794 13.7461 0.0195721 -0.931025 -0.364429
-55.8906 111.696 14.0036 -0.00157018 -0.932937 -0.360036
-57.1044 112.555 11.8243 0.0248652 -0.927693 -0.372515
-57.1877 113.082 10.5372 0.0560054 -0.918014 -0.392574
-57.2453 113.419 9.73141 0.0691481 -0.909627 -0.40963
-45.9597 117.196 6.54403 0.204861 -0.90926 -0.362322
-45.8565 116.728 7.73781 0.256611 -0.892282 -0.371461
-45.7624 116.313 8.82143 0.276361 -0.884649 -0.375527
-45.6722 115.937 9.78105 0.29104 -0.884572 -0.364455
-45.5567 115.502 10.887 0.305259 -0.872303 -0.381974
-45.4337 115.057 12.023 0.332638 -0.872306 -0.358377
-45.3424 114.721 12.9454 0.339559 -0.871413 -0.354034
-45.2764 114.492 13.557 0.360842 -0.862613 -0.35453
-44.3343 115.187 12.7568 0.353268 -0.873332 -0.335401
-44.4315 115.529 11.8105 0.323228 -0.875481 -0.359245
-44.5389 115.925 10.7268 0.314004 -0.881251 -0.353269
-44.6536 116.356 9.56821 0.290232 -0.887522 -0.357868
-44.7598 116.801 8.36125 0.25654 -0.900871 -0.35017
-44.8469 117.185 7.31094 0.237162 -0.903606 -0.356723
-44.8653 117.269 7.08549 0.237161 -0.903606 -0.356722
-43.6855 116.996 8.67517 0.274006 -0.904181 -0.327686
-43.5879 116.597 9.81694 0.288376 -0.893286 -0.34479
-43.4817 116.197 10.9876 0.30368 -0.888895 -0.342992
-43.4176 115.967 11.6434 0.334151 -0.879655 -0.338453
-43.3604 115.769 12.2149 0.334155 -0.879654 -0.33845
