10.0663 140.001 23.6838 0.270394 -0.933942 -0.227293
10.7555 140.312 22.9019 0.174993 -0.960825 -0.214924
11.4481 140.626 21.8941 0.145683 -0.977267 -0.152949
10.5412 140.539 21.4907 0.17434 -0.973379 -0.148793
9.70188 140.332 21.7863 0.211373 -0.964551 -0.157997
9.45973 140.03 22.9288 0.254925 -0.930876 -0.256226
9.73445 139.938 23.4612 0.30014 -0.916349 -0.260967
8.48203 139.399 23.8855 0.357095 -0.891466 -0.278857
8.2827 139.625 22.9006 0.355378 -0.892861 -0.276597
8.35407 139.929 21.8124 0.322275 -0.927353 -0.190094
8.82127 140.28 20.6421 0.268459 -0.953613 -0.136204
9.64648 140.57 20.1919 0.188028 -0.974552 -0.117736
10.8462 140.757 20.258 0.160059 -0.98009 -0.11749
11.7096 140.853 20.5173 0.128951 -0.983197 -0.129213
12.6887 140.918 20.9782 0.0896612 -0.987243 -0.12988
13.5196 140.916 21.4447 0.0728181 -0.988965 -0.129017
13.6881 140.808 22.2155 0.0291605 -0.989672 -0.139417
12.5547 140.622 22.9019 0.121553 -0.984492 -0.126494
11.541 140.282 23.7714 0.176322 -0.964296 -0.197596
10.8072 139.954 24.6266 0.245253 -0.950372 -0.191425
10.2983 139.613 25.4909 0.277203 -0.927744 -0.249899
9.62773 139.282 25.8456 0.367786 -0.882526 -0.293054
8.858 139.302 24.742 0.374889 -0.890411 -0.258121
8.54912 139.359 24.0988 0.366854 -0.890239 -0.269622
7.43439 138.795 24.3195 0.430549 -0.851715 -0.298663
7.89705 138.663 25.357 0.431803 -0.850444 -0.300486
8.50777 138.65 26.4024 0.356303 -0.914066 -0.193732
9.12879 138.708 27.1939 0.340889 -0.914037 -0.219844
9.95616 138.906 27.8687 0.420789 -0.889184 -0.162812
11.0713 139.393 27.4762 0.321604 -0.935895 -0.143404
11.278 139.65 26.5731 0.298332 -0.931571 -0.20778
11.5066 139.919 25.6965 0.261634 -0.943613 -0.198926
12.2276 140.205 24.7802 0.141645 -0.971269 -0.19124
13.0427 140.487 23.9904 0.147516 -0.968285 -0.20165
13.9631 140.634 23.4642 -0.00660198 -0.984403 -0.175803
15.0956 140.736 23.1139 0.0770462 -0.986399 -0.140743
16.1204 140.824 22.7922 0.037323 -0.990909 -0.128964
15.7728 140.938 21.7653 0.017833 -0.993229 -0.1148
15.0855 141.044 21.0412 0.0474456 -0.985648 -0.162007
13.9426 141.128 20.2604 0.0688837 -0.981622 -0.175174
12.9938 141.12 19.7419 0.109159 -0.979927 -0.166588
11.9498 141.046 19.3018 0.158245 -0.977528 -0.139245
10.9697 140.933 18.9962 0.163726 -0.977662 -0.131351
9.86671 140.769 18.8588 0.15517 -0.980866 -0.117522
8.89078 140.54 18.965 0.225773 -0.968424 -0.105745
8.00811 140.271 19.4685 0.239292 -0.962961 -0.12428
7.45244 140.011 20.2521 0.22158 -0.954865 -0.197665
7.22494 139.7 21.3852 0.220579 -0.948078 -0.229113
7.12255 139.383 22.2228 0.309676 -0.911511 -0.270646
7.17202 139.016 23.3007 0.387835 -0.852346 -0.344849
7.22486 138.944 23.5858 0.429897 -0.853029 -0.295856
7.35436 138.838 24.0803 0.429897 -0.853029 -0.295856
