12.3129 141.942 22.6479 0.0619815 -0.991404 -0.11509
10.9689 141.832 22.4605 0.129672 -0.982265 -0.135431
10.3967 141.64 23.255 0.215214 -0.963821 -0.15725
10.39 141.458 24.3209 0.204239 -0.967612 -0.147017
11.3135 141.644 24.3278 0.112344 -0.982806 -0.14567
11.962 141.807 23.6063 0.113705 -0.985595 -0.125053
12.4224 141.936 22.7643 0.0623903 -0.992015 -0.109609
12.9041 142.12 21.4839 0.0476044 -0.992259 -0.113629
11.9786 142.084 21.1966 0.0814212 -0.988798 -0.123693
10.9714 141.988 21.1647 0.143747 -0.985655 -0.0866971
9.92739 141.776 21.5967 0.164356 -0.982038 -0.0926781
9.22768 141.458 22.6533 0.254869 -0.960516 -0.111579
9.07147 141.21 23.8961 0.299174 -0.930113 -0.213035
9.37197 141.092 24.9811 0.314252 -0.936518 -0.1555
9.92076 141.04 26.2167 0.265727 -0.954287 -0.136843
10.5425 141.103 27.0197 0.28796 -0.953497 -0.08359
11.2285 141.31 26.6045 0.2033 -0.96788 -0.14791
11.85 141.541 25.536 0.138595 -0.987842 -0.0704306
12.6274 141.73 24.52 0.0390888 -0.991373 -0.125105
13.3668 141.843 23.8592 0.0152654 -0.990148 -0.136646
14.1862 141.91 23.2831 -0.0393539 -0.98549 -0.165111
14.5168 142.045 22.3252 -0.00954109 -0.991229 -0.131623
13.4877 142.111 21.7524 0.0336528 -0.993722 -0.106694
13.118 142.119 21.5669 0.033653 -0.993722 -0.106694
13.6607 142.286 20.4153 0.0338364 -0.987462 -0.154186
12.6775 142.289 20.0955 0.0701997 -0.988252 -0.135754
11.4499 142.164 19.9339 0.12862 -0.986704 -0.0993562
10.3955 142.014 20.0003 0.147975 -0.982042 -0.117032
9.25514 141.749 20.4854 0.245285 -0.96209 -0.116835
8.55564 141.444 21.3001 0.268031 -0.954325 -0.131865
8.08078 141.137 22.2411 0.318898 -0.935266 -0.15356
7.88027 140.93 23.1073 0.352598 -0.92287 -0.153556
7.98601 140.668 24.6914 0.416707 -0.889212 -0.188493
8.39898 140.574 25.7622 0.369504 -0.901129 -0.22679
9.00366 140.587 27.1356 0.370287 -0.919969 -0.122627
9.63106 140.744 27.8898 0.329204 -0.940509 -0.0804096
10.3952 140.908 28.4962 0.261095 -0.961118 -0.0898994
11.2311 141.094 28.7789 0.210416 -0.97108 -0.108735
12.073 141.35 28.1149 0.0188737 -0.991248 -0.129787
12.3532 141.445 27.2399 0.0144013 -0.994754 -0.101276
12.7092 141.561 26.3897 0.0659484 -0.994568 -0.0805367
13.4074 141.679 25.3921 0.0556059 -0.995903 -0.0713072
14.2568 141.749 24.57 -0.0164081 -0.998435 -0.0534604
15.1591 141.766 24.1605 0.0318387 -0.992709 -0.1007
16.083 141.854 23.9347 -0.0218437 -0.987132 -0.136733
16.9428 141.81 23.581 -0.100816 -0.988391 -0.113438
16.9064 141.922 22.5723 -0.110541 -0.988342 -0.104272
16.107 142.057 21.8332 -0.0523364 -0.987382 -0.149458
14.9674 142.198 21.0636 -0.0112125 -0.992418 -0.122393
14.2585 142.253 20.7349 -0.00234541 -0.988674 -0.149431
14.0175 142.272 20.585 0.0220759 -0.988479 -0.149191
