10.8907 142.246 24.6703 0.102722 -0.988015 -0.10046
11.5741 142.297 25.0192 0.0975141 -0.994233 -0.0446297
12.1998 142.431 24.3463 0.0181289 -0.991394 -0.129649
12.7809 142.536 23.5863 0.0150912 -0.992175 -0.123939
12.3483 142.592 22.8471 0.0352879 -0.995496 -0.0879927
11.4229 142.498 22.8708 0.146743 -0.985292 -0.0875614
10.7132 142.296 23.9681 0.191784 -0.9788 -0.0719064
10.7625 142.256 24.5181 0.126797 -0.983712 -0.120934
9.59871 141.959 24.9072 0.279887 -0.951576 -0.127147
9.9123 141.93 25.8113 0.279124 -0.952099 -0.124868
10.4169 141.985 26.5649 0.193296 -0.976712 -0.0931145
11.2494 142.057 27.3052 0.1688 -0.981782 -0.0779682
12.0014 142.241 26.6566 0.0724505 -0.995192 -0.0659043
12.6288 142.354 25.5875 0.048959 -0.997339 -0.0469347
13.3134 142.401 24.7299 0.0216954 -0.995236 -0.0821773
13.9869 142.477 24.0319 -0.0249142 -0.992462 -0.119992
14.9823 142.527 23.2247 -0.0473343 -0.992986 -0.108347
14.8009 142.626 22.4798 -0.029373 -0.992169 -0.120661
13.9211 142.701 22.0029 -0.0258189 -0.993779 -0.108336
12.9224 142.727 21.6792 0.0418428 -0.994523 -0.0957791
11.7494 142.662 21.5414 0.0920779 -0.99339 -0.0685353
10.5432 142.509 21.8643 0.155944 -0.984306 -0.0824614
9.8114 142.299 22.7107 0.209539 -0.967445 -0.127855
9.50501 142.059 23.9527 0.281246 -0.951023 -0.127338
9.5164 142.013 24.3195 0.289213 -0.949579 -0.120498
8.33451 141.62 24.4607 0.343976 -0.928239 -0.141467
8.32956 141.755 23.4571 0.32435 -0.937532 -0.12582
8.45189 141.924 22.5071 0.319502 -0.940058 -0.119206
8.90613 142.17 21.5619 0.252205 -0.962339 -0.0995879
9.6366 142.444 20.879 0.202833 -0.972729 -0.0985842
10.5606 142.623 20.4523 0.161092 -0.982266 -0.094016
11.641 142.777 20.2775 0.0836457 -0.988768 -0.123858
12.9196 142.854 20.4556 0.0386208 -0.991131 -0.124589
14.2571 142.83 20.7782 0.0157623 -0.990125 -0.139296
15.2008 142.751 21.2513 -0.0236707 -0.993625 -0.110219
16.1475 142.629 21.947 -0.112682 -0.987947 -0.106059
16.9696 142.424 22.9408 -0.123834 -0.986204 -0.109443
17.0208 142.337 23.7607 -0.0941814 -0.991265 -0.0878704
15.9931 142.346 24.4072 -0.070813 -0.994168 -0.0803819
15.0941 142.375 24.7172 -0.0486529 -0.997097 -0.058569
14.2642 142.354 25.3785 -0.0088114 -0.997575 -0.0690341
13.6109 142.322 26.0983 -0.0262118 -0.997933 -0.058672
13.2019 142.239 26.9958 0.00177744 -0.9937 -0.112057
12.9521 142.127 28.0952 -0.0120485 -0.993417 -0.11215
12.3509 142.015 28.8132 0.0291225 -0.988894 -0.145395
11.4393 141.952 29.0177 0.110681 -0.979546 -0.149001
10.3385 141.812 28.2248 0.218853 -0.97175 -0.0883443
9.54378 141.651 27.3228 0.283809 -0.95451 -0.0914461
9.02533 141.566 26.5478 0.295601 -0.945958 -0.133351
8.51992 141.558 25.3503 0.347324 -0.929271 -0.125203
8.45106 141.574 25.0711 0.348402 -0.927271 -0.137058
8.3967 141.582 24.8752 0.348411 -0.927269 -0.137049
