-37.7683 92.1051 -11.4692 0.0330625 -0.990314 0.134849
-38.0054 92.2762 -10.1103 0.0938783 -0.99272 0.071828
-38.2147 92.3539 -9.03161 0.0758732 -0.993376 0.0862988
-38.4181 92.4023 -7.96239 0.0968302 -0.993937 0.0231173
-38.7048 92.3573 -6.9674 0.132719 -0.991132 -0.00657346
-39.0682 92.232 -5.4527 0.178647 -0.98072 -0.0792104
-39.386 91.9877 -3.55644 0.214773 -0.969454 -0.118451
-39.5531 91.854 -2.52872 0.255249 -0.957007 -0.129461
-39.6048 91.6018 -0.832234 0.347801 -0.924006 -0.143709
-39.3878 91.4715 0.140655 0.436728 -0.890722 -0.126027
-38.7823 91.4825 1.34745 0.405669 -0.868763 -0.284047
-37.9294 91.6314 2.20147 0.433224 -0.858388 -0.274751
-36.5818 91.9625 2.74202 0.316225 -0.85793 -0.404918
-35.4106 92.2967 2.91476 0.283727 -0.87222 -0.397899
-33.9931 92.8165 2.61677 0.235612 -0.902797 -0.358634
-33.0592 93.241 2.22658 0.262708 -0.899295 -0.349648
-31.6467 93.9567 1.28583 0.240875 -0.922737 -0.299283
-30.5927 94.4214 0.610339 0.248687 -0.926593 -0.282101
-29.646 94.9139 -0.221798 0.223593 -0.937155 -0.267051
-28.6188 95.3427 -1.09143 0.169663 -0.959944 -0.222982
-27.5436 95.6967 -1.76667 0.150204 -0.959387 -0.237883
-26.1626 96.1145 -2.80934 0.113598 -0.966389 -0.230626
-25.3528 96.3014 -3.40364 0.0483867 -0.97926 -0.196744
-23.7268 96.609 -4.51962 0.0493737 -0.978613 -0.199698
-22.8114 96.7058 -5.08975 -0.0343413 -0.982079 -0.185142
-21.411 96.7065 -5.7401 -0.109682 -0.977244 -0.181558
-20.0467 96.5064 -6.44623 -0.259782 -0.960713 -0.0976896
-18.9328 96.2921 -6.70707 -0.390888 -0.860831 -0.271502
-17.5367 95.7017 -6.69904 -0.344055 -0.937 -0.0604797
-16.4295 95.1009 -6.50739 -0.47232 -0.877237 0.0756139
-15.3638 94.6132 -6.08569 -0.448329 -0.88747 0.106764
-14.5988 94.2551 -5.54849 -0.508102 -0.850624 0.135079
-13.106 93.6259 -4.37236 -0.502976 -0.834981 0.223207
-12.3716 93.4468 -3.31376 -0.52206 -0.806985 0.270038
-11.8234 93.4426 -2.3994 -0.549397 -0.78052 0.298039
-11.5073 93.966 -0.612796 -0.503532 -0.813509 0.283001
-11.9914 94.8205 0.921312 -0.380912 -0.833055 0.398983
-12.4714 95.3947 1.78062 -0.330815 -0.831735 0.438672
-13.2812 95.9252 2.52897 -0.256812 -0.918646 0.300228
-14.7362 96.2484 3.13406 0.0110456 -0.983527 0.180424
-15.8601 96.2694 3.38721 0.0219107 -0.988722 0.14811
-16.8613 96.2946 3.73135 0.0270303 -0.988603 0.148099
-18.3426 96.1701 4.06691 0.192496 -0.977631 0.0847534
-19.6367 95.8801 4.14522 0.250666 -0.967541 0.0139346
-20.7361 95.5995 4.59802 0.194182 -0.976091 -0.0963386
-21.6981 95.3138 5.15431 0.209879 -0.966564 -0.147328
-22.7616 94.9094 5.94041 0.220027 -0.957685 -0.185506
-24.0657 94.3985 6.97604 0.223063 -0.955669 -0.192196
-25.0835 93.7929 7.87325 0.339771 -0.892914 -0.2954
-26.0474 93.2335 8.48625 0.376562 -0.872368 -0.306975
-26.9056 92.5123 9.26148 0.398823 -0.849701 -0.344889
-27.462 91.8699 9.9214 0.384811 -0.800404 -0.456042
-28.368 90.8729 11.0352 0.31177 -0.787581 -0.526496
-28.7806 90.1457 11.7563 0.297 -0.75203 -0.588423
-29.0514 89.5554 12.5724 0.192979 -0.809997 -0.552592
-29.1776 88.9472 13.3594 0.143255 -0.822278 -0.547283
-29.3032 88.4092 14.23 0.0933179 -0.83611 -0.539533
-29.4666 87.7973 15.0902 0.0840222 -0.819449 -0.56696
-29.7019 87.2858 16.0921 -0.0493855 -0.880383 -0.471137
-29.9239 86.7871 17.0234 -0.114653 -0.901292 -0.417765
-30.2449 85.9789 18.8041 -0.136536 -0.894423 -0.425529
-30.3896 85.5655 19.7554 -0.147216 -0.898761 -0.412984
-30.5648 84.9909 20.9264 -0.192594 -0.877664 -0.437945
-30.7265 84.5836 21.8642 -0.21444 -0.881834 -0.419981
-30.9433 84.1063 22.7973 -0.221159 -0.842234 -0.491612
-31.2836 83.6236 23.7644 -0.215579 -0.84128 -0.495756
-31.773 83.1527 24.7047 -0.216211 -0.821483 -0.527654
-32.952 82.4737 26.1787 -0.222497 -0.794797 -0.564616
-33.6664 82.0401 27.0275 -0.170307 -0.75511 -0.633091
-34.7852 81.4262 28.0257 -0.178935 -0.732603 -0.656689
-35.5789 81.0798 28.6363 -0.182603 -0.727115 -0.661732
-36.5807 80.6575 29.3832 -0.204544 -0.718444 -0.66483
-37.189 80.2 30.0941 -0.181894 -0.726248 -0.662932
-38.0203 79.262 31.3744 -0.175103 -0.741317 -0.647906
-38.6857 78.6259 32.2954 -0.186837 -0.758817 -0.623927
-39.0747 78.0454 33.1289 -0.181246 -0.786708 -0.590118
-39.4341 77.5012 33.9647 -0.212652 -0.797951 -0.562286
-39.9882 76.9597 35.0376 -0.236084 -0.819961 -0.521125
-40.4807 76.5263 36.0747 -0.195107 -0.865724 -0.455733
-41.0604 76.0008 37.2182 -0.150372 -0.891042 -0.425374
-41.9154 75.6385 38.4564 -0.171504 -0.906855 -0.384969
-42.8093 75.3767 39.6928 -0.155536 -0.940569 -0.301584
-43.5466 75.2632 40.387 -0.142392 -0.941609 -0.305117
-44.4877 75.3147 41.0799 -0.1522 -0.971715 -0.177144
-45.4012 75.329 41.6022 -0.138743 -0.979196 -0.141739
-46.952 75.4867 42.2353 -0.131651 -0.985158 -0.110141
-48.5054 75.7241 42.5743 -0.125951 -0.990736 0.03914
-49.8503 75.8684 42.5863 -0.105923 -0.992281 0.0644881
-50.9835 75.9324 42.322 -0.0694609 -0.99591 0.0577823
-51.9237 75.9518 41.9649 -0.0517803 -0.995059 0.0847162
-53.1275 75.9173 41.2241 -0.0152552 -0.995732 0.0835284
-54.0672 75.912 40.7958 -0.0145951 -0.998683 0.0491367
-55.2633 75.7751 39.4209 0.0891373 -0.994294 0.0586083
-55.9289 75.6514 38.6598 0.114665 -0.990283 0.0773315
-56.526 75.5081 37.8441 0.130204 -0.989883 0.0354737
-57.129 75.436 36.909 0.20355 -0.975236 0.0273719
-57.723 75.1985 35.8938 0.275673 -0.959181 0.0630524
-58.2246 75.0519 35.0288 0.298823 -0.953751 0.0150553
-58.617 74.8981 34.0947 0.351047 -0.934478 -0.0593015
-59.0601 74.7503 32.6741 0.407091 -0.911853 -0.0230558
-59.2334 74.8571 31.078 0.415314 -0.898708 -0.14085
-59.1222 75.0754 29.7183 0.493511 -0.861828 -0.113771
-59.2097 75.2111 28.5863 0.493636 -0.858151 -0.141066
-59.3463 75.2973 27.5838 0.506 -0.839682 -0.189811
-59.2992 75.7871 25.8318 0.546756 -0.813708 -0.197326
-59.4226 76.0683 24.5285 0.561459 -0.794659 -0.230826
-59.5129 76.328 23.3649 0.567153 -0.793393 -0.221057
-59.5969 76.642 22.2562 0.589291 -0.764244 -0.262045
-59.5921 77.0299 20.9848 0.605429 -0.761923 -0.230065
-59.6777 77.4649 19.3595 0.635578 -0.730324 -0.247552
-59.7516 77.8443 18.1084 0.665474 -0.714363 -0.214678
-59.7551 77.8955 17.906 0.678182 -0.709629 -0.191042
-58.499 78.867 18.4536 0.673325 -0.698188 -0.243243
-57.6539 79.6372 18.7146 0.693129 -0.676724 -0.248227
-56.7283 80.4957 18.9585 0.709166 -0.656621 -0.256774
-55.9257 81.314 19.1892 0.724685 -0.63603 -0.265136
-55.1589 82.0362 19.3981 0.688818 -0.661219 -0.297185
-54.2268 82.8666 19.6334 0.639143 -0.710336 -0.29482
-53.4212 83.4633 19.8002 0.60641 -0.731772 -0.311089
-52.6189 84.0786 19.9648 0.563701 -0.781063 -0.268667
-51.6343 84.611 20.0982 0.483724 -0.824973 -0.292286
-50.6083 85.1601 20.2463 0.501304 -0.81818 -0.281559
-49.2657 85.7643 20.4146 0.383967 -0.906109 -0.177583
-47.5315 86.1737 20.5163 0.158295 -0.935004 -0.317347
-46.2803 86.3632 20.582 0.193462 -0.937624 -0.288848
-44.7915 86.5856 20.67 0.129937 -0.966371 -0.221906
-43.6258 86.7048 20.7078 0.0832093 -0.987352 -0.134952
-42.2262 86.7537 20.7098 0.0145343 -0.979695 -0.199964
-40.7031 86.711 20.6962 -0.0556134 -0.981977 -0.180633
-38.8033 86.5793 20.6422 -0.0806335 -0.973489 -0.214048
-37.744 86.5035 20.6035 -0.0815885 -0.968098 -0.236918
-36.665 86.3824 20.5487 -0.128256 -0.954395 -0.269592
-35.579 86.2529 20.4903 -0.125123 -0.95432 -0.271324
-34.5523 86.0878 20.4155 -0.207048 -0.918228 -0.337623
-33.5471 85.8945 20.3247 -0.165731 -0.918501 -0.359011
-32.5509 85.7587 20.2534 -0.192412 -0.892942 -0.40698
-32.0702 85.6743 20.2112 -0.192415 -0.892942 -0.406978
-32.3339 85.3329 21.0671 -0.195895 -0.886612 -0.41898
-33.6639 85.5872 21.2019 -0.219787 -0.897129 -0.383214
-34.9675 85.8299 21.3246 -0.203469 -0.90894 -0.363908
-35.9778 86.0278 21.4218 -0.17124 -0.930017 -0.325185
-37.1889 86.1668 21.4977 -0.127073 -0.948392 -0.290526
-38.3612 86.3281 21.5741 -0.151922 -0.948059 -0.279469
-39.3603 86.4094 21.6248 -0.0851031 -0.973491 -0.212302
-40.3816 86.4939 21.6688 -0.0895648 -0.973472 -0.210546
-42.0354 86.5531 21.7067 0.0258552 -0.973903 -0.225485
-43.4211 86.5001 21.7058 0.0681002 -0.964172 -0.256388
-44.4209 86.4009 21.6914 0.114494 -0.96353 -0.241872
-45.4284 86.2758 21.6462 0.179352 -0.953762 -0.241187
-46.6566 86.0029 21.5528 0.228233 -0.938317 -0.259752
-47.8943 85.7832 21.4859 0.185396 -0.926396 -0.327748
-49.4663 85.4549 21.389 0.218715 -0.908641 -0.355719
-50.5021 84.9011 21.2258 0.518647 -0.811004 -0.270699
-51.5296 84.3311 21.0613 0.4868 -0.822153 -0.295112
-52.733 83.6776 20.8801 0.489864 -0.81931 -0.297934
-53.5598 83.0346 20.6954 0.633159 -0.736747 -0.237305
-54.3414 82.3892 20.5129 0.683445 -0.667877 -0.29469
-55.1203 81.6709 20.3004 0.689558 -0.66182 -0.294116
-56.0336 80.834 20.0458 0.707011 -0.648865 -0.281265
-57.2149 79.7187 19.7181 0.693128 -0.676726 -0.248227
-58.1949 78.8042 19.436 0.67671 -0.683964 -0.272501
-58.5078 78.5437 19.3564 0.653834 -0.706919 -0.269752
-58.4508 78.2462 20.2822 0.655767 -0.706084 -0.267236
-57.0647 79.4903 20.6398 0.697005 -0.66119 -0.277509
-56.1041 80.3673 20.8987 0.690218 -0.655527 -0.306404
-55.305 81.1178 21.1211 0.690289 -0.662417 -0.29104
-54.4259 81.9277 21.3629 0.683445 -0.667879 -0.294687
-53.6714 82.5931 21.5724 0.676541 -0.67328 -0.298306
-52.9071 83.2466 21.7789 0.563702 -0.781064 -0.26866
-51.8301 83.8223 21.9527 0.484662 -0.816421 -0.313943
-50.4968 84.5453 22.1758 0.502957 -0.806003 -0.312079
-49.1269 85.1382 22.3565 0.225006 -0.899953 -0.373439
-47.6627 85.4805 22.4569 0.272922 -0.908234 -0.317215
-46.6066 85.7457 22.5424 0.228421 -0.941216 -0.248872
-45.42 86.0094 22.6342 0.204497 -0.942459 -0.264484
-44.3921 86.1413 22.6701 0.0931032 -0.965756 -0.24217
-43.2198 86.2534 22.687 0.0680999 -0.964172 -0.256388
-41.8962 86.2754 22.6611 -0.00306309 -0.941948 -0.335746
-40.7897 86.233 22.6274 -0.0791564 -0.933539 -0.349628
-39.4278 86.1496 22.5726 -0.105023 -0.918516 -0.38118
-38.1863 86.0078 22.4875 -0.12776 -0.903251 -0.409652
-36.946 85.8577 22.4005 -0.139509 -0.948313 -0.285024
-35.8768 85.6607 22.2909 -0.21481 -0.908396 -0.358709
-34.8555 85.4588 22.1821 -0.22563 -0.885192 -0.406848
-33.547 85.1784 22.0325 -0.235935 -0.88462 -0.402221
-32.4486 84.9677 21.9134 -0.21033 -0.89102 -0.4023
-32.6106 84.5925 22.7559 -0.24798 -0.828365 -0.502312
-34.33 84.9575 22.968 -0.231596 -0.882949 -0.408369
-35.9697 85.2881 23.1597 -0.192408 -0.878798 -0.436684
-37.0059 85.4353 23.2515 -0.170625 -0.867407 -0.467432
-38.0978 85.6017 23.3554 -0.152231 -0.885494 -0.439006
-39.2856 85.7377 23.44 -0.138482 -0.903198 -0.406272
-40.4922 85.8739 23.5286 -0.102919 -0.918849 -0.380952
-42.0512 85.9422 23.5973 0.0181345 -0.931228 -0.363985
-43.1537 85.8924 23.6034 0.0167248 -0.920176 -0.391147
-44.4982 85.8914 23.626 0.0398968 -0.894484 -0.445316
-45.9997 85.6256 23.5536 0.204495 -0.942462 -0.264475
-46.9674 85.3587 23.4738 0.295716 -0.903465 -0.310328
-48.2768 84.9885 23.3689 0.249966 -0.912465 -0.323921
-49.2525 84.7441 23.3043 0.306287 -0.865545 -0.396258
-50.3229 84.2805 23.1536 0.472411 -0.798035 -0.374122
-51.3426 83.7219 22.9666 0.492318 -0.812941 -0.311047
-52.4478 83.0886 22.7599 0.557933 -0.724892 -0.404032
-53.2873 82.4858 22.5602 0.652746 -0.665017 -0.362869
-54.3534 81.6026 22.2611 0.665043 -0.669551 -0.330786
-55.2936 80.7296 21.9897 0.698413 -0.648081 -0.303661
-56.0638 79.9998 21.7758 0.690218 -0.655527 -0.306404
-56.8421 79.2941 21.5721 0.681933 -0.662887 -0.309108
-57.6043 78.6023 21.3869 0.645119 -0.702239 -0.301134
-58.2891 78.0614 21.2464 0.645755 -0.725305 -0.238606
-58.1915 77.7788 22.1723 0.61246 -0.728803 -0.306168
-57.2672 78.5126 22.3632 0.676619 -0.674413 -0.295558
-56.0986 79.5653 22.6365 0.673516 -0.674127 -0.303199
-55.279 80.313 22.8594 0.685256 -0.643471 -0.341129
-54.532 80.9917 23.0797 0.667587 -0.657586 -0.349154
-53.4454 81.8832 23.3803 0.651152 -0.668174 -0.359923
-52.3299 82.681 23.6541 0.557966 -0.724917 -0.403942
-51.4503 83.2458 23.8555 0.503176 -0.752693 -0.42458
-50.3901 83.7538 24.0264 0.442403 -0.782495 -0.438156
-49.3742 84.1935 24.1698 0.359356 -0.809448 -0.46439
-48.2734 84.6068 24.3012 0.356375 -0.80721 -0.470542
-47.1582 84.9344 24.3907 0.25843 -0.876069 -0.407084
-45.6197 85.2439 24.4534 0.100245 -0.889612 -0.445579
-44.6256 85.3827 24.4863 0.118114 -0.862329 -0.49238
-43.2186 85.5087 24.5092 0.0398995 -0.894483 -0.445319
-42.0149 85.5084 24.4717 -0.0288399 -0.850511 -0.525166
-40.7895 85.4969 24.4231 -0.0288493 -0.850511 -0.525166
-39.3647 85.3477 24.3148 -0.135425 -0.89958 -0.41523
-38.1559 85.1404 24.1855 -0.157865 -0.840905 -0.517645
-37.1394 85.0037 24.0975 -0.16289 -0.837664 -0.521331
-36.1183 84.8495 23.995 -0.17877 -0.836477 -0.518023
-35.0208 84.6576 23.8722 -0.240641 -0.820947 -0.517821
-33.8427 84.3885 23.7085 -0.258275 -0.825973 -0.501061
-32.7441 84.1453 23.5594 -0.24962 -0.828741 -0.500878
-33.1119 83.7419 24.3932 -0.259828 -0.800416 -0.540207
-34.1863 83.9845 24.5506 -0.243176 -0.796908 -0.552994
-35.1682 84.1732 24.6731 -0.222858 -0.815413 -0.534262
-36.5145 84.4151 24.8332 -0.173346 -0.835449 -0.521513
-38.0274 84.6274 24.9796 -0.162894 -0.837667 -0.521326
-39.1187 84.8079 25.1069 -0.192451 -0.799394 -0.56915
-40.8083 84.9828 25.2567 -0.0501739 -0.828388 -0.557903
-42.0504 84.9918 25.3104 -0.0578367 -0.867449 -0.494153
-43.0506 85.0518 25.3834 -0.0867144 -0.882575 -0.462106
-44.3422 84.9313 25.3618 0.121017 -0.873661 -0.471245
-45.5295 84.801 25.3492 0.0807821 -0.864556 -0.496001
-46.7206 84.6281 25.3278 0.293498 -0.845185 -0.446678
-48.1299 84.1471 25.1806 0.327472 -0.811134 -0.484587
-49.5368 83.6254 25.0219 0.336333 -0.823263 -0.457294
-50.7063 83.1061 24.8489 0.446228 -0.777284 -0.44352
-52.2564 82.2446 24.5388 0.557888 -0.725121 -0.403683
-53.5642 81.3187 24.2107 0.64155 -0.668884 -0.375511
-54.5463 80.5212 23.9386 0.667588 -0.657582 -0.34916
-55.8496 79.3719 23.5915 0.668232 -0.675679 -0.311326
-56.67 78.6467 23.3954 0.670372 -0.673788 -0.310823
-57.5425 77.907 23.2024 0.589634 -0.763057 -0.264719
-58.1083 77.5045 23.0971 0.591356 -0.762737 -0.261785
-58.0346 77.2393 24.0259 0.587908 -0.763367 -0.26765
-56.5916 78.3431 24.3117 0.645326 -0.718572 -0.259248
-55.5845 79.1946 24.5452 0.655321 -0.672967 -0.34303
-54.4398 80.132 24.8309 0.641357 -0.669709 -0.374368
-53.61 80.8013 25.0542 0.641314 -0.669417 -0.374963
-52.2864 81.7469 25.3921 0.55777 -0.725306 -0.403514
-51.0543 82.4819 25.6836 0.504405 -0.753477 -0.421721
-50.0659 82.9857 25.8655 0.398182 -0.819365 -0.412422
-48.3364 83.5623 26.0183 0.336332 -0.823263 -0.457295
-46.9216 84.0387 26.1604 0.320471 -0.805447 -0.498551
-45.9135 84.2552 26.2063 0.122352 -0.834086 -0.537895
-44.8454 84.3703 26.2114 0.1091 -0.863641 -0.492161
-43.2514 84.5864 26.2782 0.115834 -0.834566 -0.538593
-42.1082 84.4869 26.1594 -0.143011 -0.800773 -0.581644
-40.8244 84.4024 26.0508 -0.0770555 -0.808772 -0.583053
-39.0493 84.2333 25.8904 -0.192451 -0.799394 -0.56915
-37.9039 84.0505 25.741 -0.182484 -0.789973 -0.585356
-36.7736 83.9014 25.6287 -0.169921 -0.783428 -0.597802
-35.6501 83.7247 25.505 -0.228628 -0.791934 -0.566189
-34.6719 83.5365 25.3732 -0.227519 -0.792487 -0.565862
-33.7792 83.366 25.2549 -0.226411 -0.793041 -0.56553
-34.7568 83.01 26.1455 -0.226309 -0.793325 -0.565172
-36.3002 83.2534 26.3292 -0.176891 -0.779202 -0.601293
-37.4836 83.4192 26.4625 -0.169924 -0.783431 -0.597797
-38.5927 83.5906 26.6098 -0.199567 -0.772532 -0.602799
-39.6828 83.7561 26.7586 -0.184209 -0.769003 -0.612128
-40.8562 83.8361 26.8539 -0.0827025 -0.812882 -0.576526
-41.8774 83.8867 26.929 -0.112912 -0.807213 -0.57936
-43.1772 83.9796 27.0527 -0.101689 -0.780785 -0.616469
-44.1828 83.9107 27.0543 0.0938988 -0.803954 -0.587231
-45.7623 83.7374 27.0424 0.106685 -0.818873 -0.563973
-47.1299 83.4474 26.9818 0.314431 -0.811971 -0.491769
-48.261 83.0812 26.8807 0.308351 -0.818393 -0.484926
-49.3417 82.7409 26.7931 0.295243 -0.820771 -0.489046
-50.8747 82.0425 26.5729 0.521024 -0.698212 -0.490953
-51.9618 81.399 26.3138 0.525396 -0.72665 -0.44265
-52.865 80.8815 26.1138 0.570301 -0.703309 -0.424396
-53.8099 80.1585 25.862 0.630449 -0.666893 -0.397225
-54.6411 79.4857 25.6419 0.630414 -0.694507 -0.346753
-55.7418 78.6485 25.3938 0.618194 -0.718532 -0.318666
-56.9719 77.702 25.1421 0.63207 -0.718959 -0.28911
-57.9537 76.9902 24.9624 0.56932 -0.789171 -0.230401
-58.0869 76.6273 25.876 0.556511 -0.791833 -0.251586
-57.1343 77.2293 26.0216 0.571456 -0.774341 -0.271725
-55.9986 78.0566 26.2304 0.608814 -0.736528 -0.294741
-54.8824 78.8997 26.4646 0.596594 -0.7153 -0.363897
-53.7239 79.7297 26.7334 0.597077 -0.714936 -0.363821
-52.6495 80.5124 27.0149 0.570299 -0.703313 -0.424394
-51.3218 81.2177 27.2836 0.475084 -0.73774 -0.479619
-50.2823 81.7746 27.4966 0.38308 -0.724793 -0.572648
-48.8353 82.395 27.6793 0.340181 -0.775102 -0.532441
-47.6766 82.7423 27.7618 0.242297 -0.749699 -0.615827
-46.707 83.004 27.8247 0.20135 -0.754546 -0.624595
-44.8889 83.29 27.8573 0.0904456 -0.820292 -0.564748
-43.3823 83.3902 27.8452 -0.0424006 -0.784497 -0.618682
-42.2336 83.3256 27.7447 -0.0951112 -0.794476 -0.599801
-40.8811 83.2506 27.6359 -0.0911669 -0.794408 -0.600504
-39.3651 83.1036 27.4759 -0.168794 -0.76521 -0.621259
-38.2041 82.9386 27.3167 -0.203851 -0.769795 -0.604865
-37.1474 82.7722 27.1646 -0.208132 -0.767028 -0.606918
-35.9576 82.6106 27.0226 -0.186548 -0.754507 -0.629221
-35.8438 82.5934 27.0074 -0.197299 -0.746319 -0.635673
-36.6425 82.1004 27.8272 -0.198963 -0.723395 -0.661146
-37.813 82.2763 27.9957 -0.20386 -0.72287 -0.660227
-38.8774 82.4253 28.1499 -0.177898 -0.719513 -0.671308
-40.5953 82.6347 28.3739 -0.178455 -0.722134 -0.668338
-41.714 82.7113 28.4793 -0.0929764 -0.795233 -0.599133
-43.0294 82.778 28.5973 -0.0423979 -0.7845 -0.618677
-44.8634 82.6975 28.6432 0.082494 -0.751319 -0.654763
-45.8541 82.5274 28.6119 0.160049 -0.75805 -0.632254
-47.7078 82.1089 28.5205 0.242294 -0.7497 -0.615828
-48.8199 81.8102 28.4607 0.315239 -0.748878 -0.582929
-49.8217 81.3806 28.3204 0.392772 -0.735726 -0.551759
-50.8148 80.9506 28.2005 0.399777 -0.774819 -0.489727
-52.1688 80.2694 27.9466 0.468699 -0.761443 -0.447801
-53.2622 79.6022 27.6991 0.567786 -0.702717 -0.428728
-54.309 78.874 27.4552 0.58621 -0.738113 -0.333987
-55.4656 78.0886 27.2304 0.578024 -0.757465 -0.303537
-56.4717 77.3842 27.0566 0.5901 -0.75457 -0.287065
-57.5716 76.6365 26.8763 0.535754 -0.804628 -0.256012
-57.8511 76.4669 26.8375 0.527905 -0.814893 -0.239302
-57.6622 76.3063 27.8011 0.532219 -0.814231 -0.231884
-56.2282 77.2146 28.0043 0.552521 -0.802864 -0.223897
-55.2952 77.8503 28.1496 0.578025 -0.757465 -0.303537
-53.94 78.7198 28.4025 0.540612 -0.760657 -0.35936
-52.736 79.4472 28.6499 0.552163 -0.734394 -0.39469
-51.6326 80.05 28.8602 0.451744 -0.756574 -0.472782
-50.6727 80.4957 29.0099 0.346482 -0.790493 -0.505045
-49.6472 80.8792 29.1133 0.369967 -0.76381 -0.528885
-48.1922 81.3723 29.2463 0.235451 -0.75667 -0.609929
-46.922 81.7052 29.3301 0.228575 -0.775038 -0.589126
-45.8375 81.8859 29.3555 0.142831 -0.744176 -0.652535
-44.8145 82.0513 29.3908 0.0824933 -0.751316 -0.654767
-43.8138 82.1029 29.3646 0.0170849 -0.750983 -0.660101
-42.3789 82.1145 29.2885 -0.0992414 -0.738418 -0.667
-41.0539 82.0347 29.1497 -0.113664 -0.746132 -0.656024
-39.88 81.8959 28.9812 -0.178449 -0.722137 -0.668337
-38.3141 81.7037 28.7696 -0.180471 -0.718126 -0.672105
-38.1073 81.6789 28.7406 -0.192183 -0.720563 -0.666225
-38.6609 81.0989 29.5094 -0.180686 -0.718701 -0.671432
-40.0797 81.2696 29.7113 -0.184644 -0.718151 -0.670944
-41.0855 81.3871 29.8623 -0.183115 -0.720765 -0.668556
-42.2879 81.4556 29.9873 -0.0847799 -0.730418 -0.677718
-43.9083 81.4536 30.0909 0.00376191 -0.760991 -0.648751
-45.1879 81.3901 30.1345 0.0876694 -0.786777 -0.61098
-46.3358 81.2319 30.1171 0.119498 -0.803202 -0.583598
-47.3584 81.0219 30.0597 0.228575 -0.775038 -0.589126
-48.3327 80.7601 29.9918 0.249056 -0.776747 -0.578476
-49.9616 80.2566 29.8651 0.331965 -0.777038 -0.5348
-50.9533 79.886 29.7718 0.399777 -0.77482 -0.489727
-52.2927 79.2306 29.5686 0.442465 -0.770722 -0.45849
-53.6307 78.4925 29.3192 0.492341 -0.76748 -0.410578
-54.7508 77.8223 29.1224 0.535007 -0.776916 -0.331917
-55.8889 77.1792 28.9685 0.519604 -0.809244 -0.274108
-56.7922 76.5922 28.844 0.544529 -0.808228 -0.224179
-57.5366 76.1276 28.7488 0.507931 -0.840826 -0.187132
-57.7306 75.8603 29.6779 0.475909 -0.864077 -0.16396
-56.7827 76.3624 29.7683 0.448154 -0.872662 -0.193958
-55.8702 76.836 29.8591 0.480467 -0.831062 -0.280156
-54.7499 77.4516 29.9916 0.51015 -0.795179 -0.327778
-53.8478 77.9502 30.1333 0.475539 -0.785355 -0.396334
-52.806 78.4976 30.2986 0.492342 -0.76748 -0.410577
-51.5865 79.0976 30.4694 0.440548 -0.769129 -0.462988
-50.3518 79.5878 30.5946 0.323313 -0.785471 -0.527734
-49.1183 80.0027 30.697 0.237268 -0.785632 -0.57139
-47.9974 80.2935 30.7627 0.243166 -0.781215 -0.574955
-46.9889 80.5251 30.8285 0.207975 -0.772914 -0.599458
-45.3977 80.7662 30.8689 0.0556685 -0.768746 -0.637127
-43.9836 80.8526 30.8292 -0.0286971 -0.759003 -0.650454
-42.8584 80.839 30.7477 -0.081848 -0.746595 -0.660224
-41.2347 80.7624 30.5844 -0.157774 -0.724527 -0.670945
-39.9091 80.6011 30.3798 -0.187517 -0.721713 -0.666309
-38.773 80.4685 30.2222 -0.17222 -0.729175 -0.662302
-39.4512 79.9173 31.019 -0.176979 -0.736917 -0.652404
-41.03 80.1001 31.2515 -0.157773 -0.724531 -0.670942
-42.6638 80.2067 31.4386 -0.103451 -0.735047 -0.670077
-43.7985 80.2255 31.5174 -0.0574737 -0.755036 -0.653159
-44.9406 80.2084 31.5854 0.0281145 -0.757133 -0.652656
-45.9499 80.1212 31.6043 0.0821211 -0.765189 -0.638547
-47.3441 79.8903 31.542 0.193925 -0.790925 -0.580372
-48.3351 79.6814 31.4926 0.24857 -0.799199 -0.54726
-49.4815 79.3705 31.4259 0.234823 -0.810198 -0.537064
-50.5189 79.0266 31.3492 0.3146 -0.793753 -0.52056
-51.945 78.4513 31.2019 0.409142 -0.802273 -0.434698
-52.8692 78.0799 31.1065 0.37656 -0.833103 -0.405145
-53.9724 77.5113 30.9526 0.483198 -0.803695 -0.347267
-54.9039 77.1003 30.8538 0.436012 -0.862333 -0.25744
-55.9916 76.5227 30.7389 0.475074 -0.847608 -0.236361
-57.1195 75.9912 30.6547 0.422027 -0.882139 -0.209104
-57.188 75.9572 30.6496 0.473832 -0.86231 -0.178618
-57.6895 75.5012 31.5204 0.444914 -0.881191 -0.159859
-56.6764 75.9835 31.5815 0.422027 -0.882139 -0.209104
-55.671 76.4483 31.6498 0.448815 -0.865387 -0.222869
-54.6225 76.9444 31.7455 0.395995 -0.875177 -0.277944
-53.4139 77.4544 31.8615 0.440562 -0.841281 -0.313292
-52.471 77.8439 31.9624 0.376918 -0.833496 -0.404002
-51.1021 78.3431 32.0776 0.303853 -0.830277 -0.467241
-49.8818 78.7786 32.1804 0.329615 -0.808424 -0.487651
-48.6565 79.08 32.2248 0.234818 -0.810197 -0.537068
-47.6042 79.3062 32.2734 0.160911 -0.785863 -0.597099
-46.5685 79.4644 32.3011 0.0973974 -0.795508 -0.598064
-45.4388 79.5654 32.296 -0.00654449 -0.769553 -0.638549
-44.0391 79.6197 32.2389 -0.0280381 -0.748891 -0.662099
-42.6158 79.5878 32.1366 -0.0675828 -0.748365 -0.659836
-41.6241 79.5175 32.0244 -0.137528 -0.757239 -0.638495
-40.0598 79.3625 31.8108 -0.187282 -0.760138 -0.622186
-39.9357 79.3471 31.7923 -0.181164 -0.748654 -0.637727
-40.5217 78.8235 32.6083 -0.162806 -0.758704 -0.630763
-42.1046 78.9546 32.7955 -0.137872 -0.756998 -0.638707
-43.3653 79.0182 32.9023 -0.0914116 -0.796345 -0.597895
-44.4636 79.035 32.9697 -0.0144997 -0.795683 -0.605539
-46.1578 78.9505 33.0225 0.0512374 -0.775347 -0.629454
-47.452 78.7845 33.0011 0.136383 -0.814528 -0.563864
-49.0451 78.4956 32.9812 0.228305 -0.826904 -0.513912
-50.0914 78.2357 32.9388 0.275762 -0.816019 -0.508005
-51.4892 77.8095 32.8544 0.27761 -0.850838 -0.446103
-52.6504 77.3787 32.7548 0.33641 -0.865094 -0.372075
-54.504 76.7032 32.6179 0.389361 -0.869097 -0.305071
-55.7108 76.2575 32.5478 0.368809 -0.913595 -0.171242
-56.9897 75.6845 32.4792 0.411231 -0.902883 -0.125268
-57.2699 75.559 32.4643 0.387217 -0.914828 -0.114684
-56.8827 75.6061 33.3964 0.387214 -0.91483 -0.114683
-55.2707 76.1995 33.4548 0.324902 -0.920628 -0.216524
-53.7697 76.7182 33.5321 0.304257 -0.919774 -0.247878
-52.1184 77.2342 33.6268 0.248582 -0.916587 -0.313169
-50.7342 77.6391 33.701 0.291692 -0.86566 -0.406877
-49.431 77.9244 33.7288 0.192549 -0.853636 -0.483974
-48.4591 78.1645 33.7744 0.170207 -0.835491 -0.522479
-47.4489 78.2987 33.7738 0.102736 -0.837102 -0.537313
-46.1115 78.4243 33.751 0.033898 -0.849453 -0.526575
-45.0221 78.4857 33.722 0.000191286 -0.838866 -0.544338
-43.5959 78.4705 33.6458 -0.0366356 -0.808284 -0.587653
-42.2084 78.4066 33.5441 -0.0891489 -0.798292 -0.595636
-41.1506 78.295 33.4114 -0.167625 -0.794776 -0.583295
-41.1409 77.7613 34.1717 -0.125788 -0.836856 -0.532775
-42.2055 77.8578 34.2792 -0.0987085 -0.805349 -0.584525
-43.3795 77.9422 34.3813 -0.108242 -0.812196 -0.573255
-44.5443 77.9727 34.4494 -0.0335137 -0.826969 -0.561248
-45.5969 77.9752 34.5086 0.000191303 -0.838866 -0.544338
-46.8552 77.8739 34.525 0.093944 -0.832935 -0.545338
-48.4353 77.6877 34.5371 0.102734 -0.837103 -0.537313
-49.5133 77.5012 34.5212 0.156232 -0.877904 -0.452631
-50.542 77.321 34.5158 0.224543 -0.874035 -0.430863
-52.4393 76.863 34.452 0.194904 -0.920604 -0.338379
-53.4073 76.5647 34.4023 0.278938 -0.919076 -0.278377
-54.7752 76.1641 34.354 0.304254 -0.919777 -0.247871
-55.8596 75.8238 34.3226 0.263187 -0.962486 -0.0659727
-56.7233 75.5883 34.3136 0.30387 -0.950268 -0.0682188
-55.8521 75.7641 35.2235 0.24478 -0.96539 -0.0900253
-54.8426 75.9995 35.2289 0.223019 -0.968192 -0.113431
-53.1985 76.3694 35.2563 0.250455 -0.947989 -0.196442
-52.1116 76.6274 35.2815 0.19775 -0.924724 -0.32524
-50.7922 76.9025 35.3108 0.169208 -0.930456 -0.324993
-49.2404 77.1929 35.3405 0.185562 -0.911346 -0.367444
-48.1939 77.3327 35.3403 0.0789429 -0.908106 -0.411231
-47.0683 77.4239 35.3138 0.0642477 -0.911364 -0.406556
-46.0152 77.4909 35.2926 -0.0130392 -0.884953 -0.465497
-44.6278 77.4879 35.2313 -0.0221437 -0.883648 -0.467628
-43.5931 77.4627 35.171 -0.0872686 -0.865449 -0.493339
-42.5334 77.4013 35.0919 -0.0869848 -0.865374 -0.493519
-42.0774 77.3746 35.0584 -0.12197 -0.859363 -0.496607
-42.2262 76.9258 35.8715 -0.121973 -0.859364 -0.496604
-43.8817 77.0261 35.9885 -0.0875493 -0.865522 -0.49316
-45.2937 77.0662 36.0622 -0.0249142 -0.884947 -0.465025
-46.8433 77.0576 36.1176 -0.0011652 -0.884834 -0.465904
-47.8639 76.9978 36.1432 0.0789399 -0.908107 -0.41123
-49.3873 76.8334 36.158 0.13978 -0.909218 -0.392154
-50.8403 76.5955 36.1381 0.137668 -0.931183 -0.337558
-52.0158 76.3674 36.1168 0.147424 -0.956639 -0.251213
-53.5381 76.1733 36.1201 0.160151 -0.968588 -0.190234
-54.6677 75.9365 36.1106 0.223019 -0.968192 -0.113431
-55.9461 75.6376 36.1106 0.211407 -0.974568 -0.0743249
-55.2949 75.737 36.9916 0.196278 -0.979941 -0.0345178
-53.9329 75.9384 36.9837 0.125639 -0.984961 -0.118605
-52.8029 76.1251 36.9843 0.126758 -0.973664 -0.189502
-51.8011 76.2221 36.9767 0.0943109 -0.977858 -0.186814
-50.7663 76.352 36.9805 0.153475 -0.967903 -0.199019
-49.4671 76.5085 36.9808 0.0774011 -0.955404 -0.284976
-47.9705 76.6676 36.9677 0.0651227 -0.946939 -0.314746
-46.698 76.6837 36.9232 -0.0166714 -0.948143 -0.317406
-45.3145 76.6766 36.874 0.0042162 -0.920528 -0.390654
-44.0699 76.6331 36.8132 -0.113773 -0.910153 -0.398342
-43.5139 76.5821 36.7709 -0.113774 -0.910153 -0.398342
-43.08 76.1912 37.5846 -0.0952637 -0.924604 -0.368826
-44.7388 76.3314 37.6935 -0.0548776 -0.916959 -0.395189
-46.2052 76.3801 37.7487 -0.0590602 -0.938109 -0.341267
-47.5866 76.3853 37.7923 0.0315726 -0.941025 -0.336862
-48.5871 76.3431 37.8164 0.0651226 -0.946939 -0.314746
-49.6057 76.2555 37.8263 0.0561963 -0.959025 -0.277692
-50.6865 76.1873 37.8432 0.105039 -0.965366 -0.23882
-51.8396 76.0545 37.8423 0.0954028 -0.978083 -0.185072
-53.1756 75.9666 37.8552 0.0696177 -0.994799 -0.0743558
-54.1807 75.8749 37.8661 0.0902918 -0.994843 -0.046198
-54.6453 75.8163 37.8711 0.180228 -0.982243 -0.052129
-53.5261 75.8589 38.7335 0.0488461 -0.993541 -0.102422
-52.0928 75.9429 38.7174 0.0702374 -0.992024 -0.104669
-50.7851 76.0307 38.7045 0.0528677 -0.992426 -0.110887
-49.3097 76.0973 38.68 0.0141874 -0.990567 -0.136293
-48.1713 76.1186 38.6534 0.0387728 -0.981438 -0.187821
-46.712 76.1157 38.6135 -0.0818779 -0.954269 -0.287518
-45.5999 76.0635 38.5723 -0.055818 -0.951703 -0.301903
-43.9502 75.9273 38.4867 -0.133991 -0.945719 -0.296079
-43.8082 75.9101 38.4775 -0.114738 -0.936007 -0.332755
-44.6042 75.7362 39.3931 -0.0980562 -0.94841 -0.301502
-45.932 75.8083 39.4381 -0.0589051 -0.95078 -0.304217
-47.3405 75.9339 39.4985 -0.107867 -0.95598 -0.272886
-48.3935 75.9432 39.524 0.0120425 -0.984305 -0.176063
-49.4923 75.9549 39.5519 -0.0147015 -0.986327 -0.164145
-50.544 75.9466 39.5719 0.052874 -0.992426 -0.11088
-52.0676 75.8483 39.5894 0.0507051 -0.997958 -0.0388493
-52.6582 75.8324 39.5964 -0.0145953 -0.998685 0.0491368
-51.3476 75.9074 40.4582 0.0384382 -0.99861 0.0360645
-50.3246 75.8897 40.4426 -0.0273892 -0.998668 -0.0437344
-49.1867 75.8562 40.4175 -0.0303154 -0.998614 -0.0430305
-48.0835 75.8099 40.3887 -0.0972383 -0.990788 -0.0942501
-46.296 75.6541 40.3275 -0.0819038 -0.982949 -0.164631
-46.152 75.643 40.3222 -0.0959362 -0.981554 -0.165372
-58.0144 79.6422 17.6929 0.692564 -0.684458 -0.227756
-57.1647 80.4159 17.9447 0.707683 -0.672967 -0.215175
-56.3762 81.2212 18.1633 0.726487 -0.651298 -0.219153
-55.5828 82.0348 18.3757 0.704183 -0.680469 -0.202702
-54.8161 82.7233 18.5552 0.680169 -0.708947 -0.186449
-53.9665 83.4545 18.758 0.597837 -0.748364 -0.287302
-53.0763 84.083 18.9241 0.588728 -0.764264 -0.26325
-52.0416 84.6168 19.0618 0.454697 -0.868516 -0.197309
-51.0347 85.1658 19.2049 0.490041 -0.856512 -0.162007
-50.0196 85.6789 19.342 0.418435 -0.890658 -0.177875
-49.0359 86.0756 19.4444 0.384435 -0.899071 -0.209476
-48.0577 86.3546 19.5107 0.256222 -0.955386 -0.146927
-46.7901 86.5507 19.5745 0.126566 -0.972763 -0.194198
-45.1203 86.6988 19.6456 0.0925807 -0.982595 -0.161045
-43.8343 86.826 19.6923 0.0832089 -0.987351 -0.134959
-42.4744 86.9075 19.715 0.0587462 -0.990599 -0.123541
-41.0203 86.886 19.7202 -0.0683962 -0.989106 -0.130348
-39.3281 86.8319 19.7093 0.0109106 -0.98715 -0.159426
-38.1972 86.7664 19.6855 -0.081592 -0.968098 -0.236916
-37.1465 86.6802 19.6526 -0.0867168 -0.968257 -0.234432
-36.0733 86.568 19.6101 -0.125123 -0.95432 -0.271325
-35.0121 86.4463 19.5614 -0.121987 -0.954233 -0.273054
-33.9732 86.2951 19.4965 -0.16573 -0.918501 -0.359011
-32.4964 86.1288 19.4155 -0.158357 -0.905543 -0.393593
-31.7414 85.9987 19.3522 -0.183069 -0.891132 -0.415175
-31.6999 86.3532 18.5139 -0.131139 -0.935145 -0.329098
-32.79 86.482 18.5754 -0.123673 -0.935434 -0.331162
-34.5016 86.6188 18.6414 -0.086091 -0.962429 -0.257526
-35.5607 86.744 18.6847 -0.123489 -0.964551 -0.233222
-36.6331 86.8183 18.7131 -0.0698798 -0.983991 -0.163947
-37.6696 86.9138 18.7381 -0.0943336 -0.984545 -0.147555
-39.4497 86.9801 18.7558 -0.00226377 -0.994517 -0.104553
-40.6778 86.9901 18.7513 -0.0495767 -0.992484 -0.111882
-41.8791 87.0279 18.743 -0.0307263 -0.99516 -0.0933361
-43.1304 86.9877 18.7153 0.0559853 -0.991633 -0.116321
-44.9192 86.879 18.6623 0.0732492 -0.989782 -0.122339
-45.9246 86.7902 18.6259 0.0940453 -0.982474 -0.160937
-47.5655 86.5897 18.5493 0.196493 -0.980353 -0.0172497
-49.2839 86.1827 18.4359 0.221815 -0.974526 -0.0331319
-50.2743 85.7197 18.3073 0.451501 -0.880264 -0.145882
-51.1815 85.2743 18.1874 0.47091 -0.868638 -0.153986
-52.14 84.8333 18.0653 0.418158 -0.878223 -0.232096
-53.0761 84.4159 17.9581 0.506174 -0.825701 -0.24901
-54.41 83.3397 17.6888 0.653466 -0.736333 -0.175489
-55.1952 82.6375 17.4979 0.680737 -0.708539 -0.185928
-56.1112 81.8167 17.2722 0.704182 -0.680469 -0.202704
-56.8793 81.0337 17.0588 0.723375 -0.653538 -0.222749
-57.5821 80.3267 16.851 0.707682 -0.672967 -0.215178
-58.2994 79.6647 16.6558 0.697569 -0.688961 -0.196797
-58.3065 79.9222 15.6942 0.689378 -0.703371 -0.173285
-57.3716 80.8103 15.9447 0.727722 -0.668548 -0.153176
-56.6589 81.5392 16.149 0.719078 -0.679549 -0.145395
-55.7387 82.3921 16.4012 0.683131 -0.713092 -0.157581
-54.8064 83.2333 16.6364 0.662134 -0.736355 -0.139138
-53.5037 84.2399 16.8731 0.618882 -0.783712 -0.0527365
-52.5579 84.8764 17.0195 0.414893 -0.8889 -0.194216
-51.633 85.283 17.1343 0.38931 -0.90268 -0.183321
-50.5853 85.6764 17.2535 0.404385 -0.904947 -0.132454
-49.6331 86.1384 17.3737 0.444055 -0.891242 -0.0922095
-48.5857 86.3793 17.4752 0.211844 -0.976228 -0.0458328
-46.9011 86.7118 17.591 0.171594 -0.984616 -0.0329584
-45.8723 86.8999 17.6426 0.124909 -0.990634 -0.0551452
-44.0642 87.005 17.7095 0.0661087 -0.994241 -0.0843481
-43.0008 87.0865 17.7382 0.0778523 -0.993417 -0.0840343
-41.6317 87.11 17.7761 -0.0313475 -0.995333 -0.0912648
-40.3837 87.0816 17.7962 0.000276255 -0.994762 -0.102217
-39.0917 87.0788 17.8088 -0.0169676 -0.995069 -0.0977224
-37.3593 87.0243 17.8024 -0.0630522 -0.990851 -0.119326
-36.3123 86.9728 17.7897 -0.0453684 -0.982585 -0.180189
-35.2778 86.9278 17.7747 -0.0845248 -0.974696 -0.206939
-34.1472 86.8624 17.7507 -0.0485211 -0.95839 -0.281309
-33.0127 86.812 17.7267 -0.0861905 -0.947939 -0.306567
-31.8423 86.6922 17.6724 -0.0799197 -0.906021 -0.415618
-31.4153 86.6621 17.6559 -0.0799177 -0.906023 -0.415614
-31.5672 87.0524 16.8342 -0.0650558 -0.919145 -0.38851
-32.6726 87.1021 16.8595 -0.0114397 -0.935016 -0.354421
-34.6379 87.1418 16.8763 -0.0483259 -0.959119 -0.278848
-35.6816 87.1146 16.8735 0.0376831 -0.970859 -0.236671
-36.6954 87.151 16.8787 -0.0148494 -0.988269 -0.151999
-37.6998 87.1362 16.8726 -0.00592491 -0.992596 -0.121322
-38.9208 87.1701 16.869 -0.00616907 -0.99575 -0.0918904
-40.0953 87.1702 16.8553 -0.0122976 -0.997937 -0.06301
-41.1192 87.1799 16.8374 -0.0155397 -0.995186 -0.096762
-42.1609 87.1903 16.8114 -0.00444434 -0.997789 -0.066306
-43.3208 87.1426 16.767 0.0814848 -0.993815 -0.0754445
-44.7651 87.0296 16.7038 0.0715925 -0.99539 -0.0638234
-45.8249 86.9607 16.6576 0.124909 -0.990634 -0.0551452
-46.8474 86.7746 16.5904 0.174842 -0.982553 -0.0633985
-48.3569 86.4889 16.4718 0.223528 -0.971632 -0.0772399
-49.6395 86.2033 16.3526 0.217712 -0.974071 -0.0615443
-50.9238 85.7366 16.2192 0.36335 -0.915591 -0.17225
-52.055 85.3084 16.0784 0.392563 -0.919674 0.00969025
-53.4962 84.3141 15.8584 0.549255 -0.833768 -0.0561267
-54.4511 83.661 15.7089 0.573967 -0.806097 -0.144118
-55.2715 83.0121 15.5574 0.640258 -0.758647 -0.120514
-56.0373 82.3347 15.3662 0.696834 -0.701879 -0.147609
-56.8041 81.5904 15.1425 0.710249 -0.690376 -0.137575
-57.5196 80.8797 14.9383 0.708824 -0.686224 -0.163292
-58.1715 80.2783 14.7725 0.694352 -0.701353 -0.16118
-57.9602 80.6765 13.8677 0.684514 -0.718075 -0.125732
-57.2111 81.3373 14.0639 0.687872 -0.719343 -0.0968369
-56.4666 82.0729 14.2792 0.711486 -0.698979 -0.0722182
-55.7017 82.7913 14.4812 0.639494 -0.767791 -0.0392954
-54.528 83.7538 14.703 0.595628 -0.802855 -0.0255058
-53.2714 84.5282 14.8881 0.522695 -0.849931 -0.066388
-51.5084 85.5272 15.1449 0.42637 -0.903757 0.0378345
-50.3507 85.9776 15.2796 0.337253 -0.941398 -0.00542482
-49.3884 86.2908 15.366 0.265714 -0.964024 -0.00728647
-47.7821 86.6977 15.5085 0.195616 -0.977722 -0.0761152
-46.7919 86.8599 15.5951 0.167545 -0.983013 -0.0749282
-45.6242 87.0223 15.6868 0.0932776 -0.99564 -0.000409015
-43.9249 87.1576 15.7869 0.0807956 -0.994357 -0.0687405
-42.5232 87.2313 15.8422 0.0159096 -0.999737 -0.0165247
-41.5104 87.218 15.8747 0.00141605 -0.999503 -0.0314956
-40.3924 87.2338 15.9073 0.00143854 -0.998743 -0.0501102
-39.2235 87.2338 15.9269 0.0149072 -0.997271 -0.0723026
-38.1275 87.2498 15.9422 0.0508068 -0.99422 -0.0945833
-37.0257 87.274 15.958 0.0198174 -0.98679 -0.160791
-35.3818 87.3466 15.9838 0.0333572 -0.965198 -0.259385
-34.3128 87.3825 15.9922 -0.0053269 -0.966112 -0.258067
-32.9035 87.4132 16.0018 0.0272572 -0.937348 -0.347327
-31.8494 87.394 15.9922 -0.0501185 -0.931232 -0.360964
-31.3247 87.3703 15.9805 -0.0145963 -0.915065 -0.403041
-31.4089 87.7712 15.1672 0.0209743 -0.895885 -0.443791
-32.4881 87.7342 15.1518 0.0748998 -0.930731 -0.357954
-33.9937 87.6761 15.1301 0.0411192 -0.948792 -0.313214
-35.7434 87.5728 15.0954 0.0744512 -0.967506 -0.24164
-37.111 87.4201 15.0505 0.0677195 -0.978971 -0.192431
-38.2592 87.3358 15.0181 0.082872 -0.991114 -0.104043
-39.2596 87.3098 14.9901 0.0186844 -0.996204 -0.0850169
-40.9415 87.2637 14.943 0.0308965 -0.996924 -0.0720338
-42.214 87.2518 14.901 0.0159096 -0.999737 -0.0165247
-44.125 87.1561 14.7976 0.0519013 -0.998637 0.00554644
-45.1406 87.0665 14.7358 0.100123 -0.994964 0.00466392
-46.3199 86.9363 14.6401 0.137394 -0.990513 -0.00251359
-47.8585 86.7252 14.5057 0.203354 -0.979025 -0.0125556
-49.0683 86.3863 14.3987 0.268509 -0.963187 -0.0131911
-50.0368 86.0767 14.3079 0.313173 -0.947266 -0.0678965
-51.8888 85.3063 14.0983 0.435507 -0.900109 -0.0117677
-52.9875 84.7794 13.9502 0.503114 -0.864211 -0.00399997
-53.8858 84.1891 13.812 0.551211 -0.834302 -0.0103415
-54.7763 83.6026 13.6627 0.595626 -0.802856 -0.0255144
-56.0192 82.5784 13.424 0.640844 -0.76673 -0.0379942
-56.7846 81.8582 13.224 0.687872 -0.719342 -0.096842
-57.5083 81.2395 13.0345 0.663171 -0.738572 -0.121309
-57.2443 81.6012 12.1597 0.657868 -0.750439 -0.0636444
-56.3275 82.3635 12.3783 0.619775 -0.784188 -0.0304658
-55.5077 83.0376 12.5487 0.636679 -0.771023 -0.0127618
-54.6591 83.7149 12.707 0.585268 -0.810431 -0.0257494
-53.5603 84.4516 12.8992 0.56219 -0.825523 -0.04954
-52.1393 85.2165 13.0805 0.398186 -0.913853 -0.079502
-50.8921 85.7838 13.2326 0.404989 -0.914319 0.00196849
-49.5808 86.2945 13.3719 0.281017 -0.958068 -0.0559989
-48.4064 86.5912 13.4812 0.259925 -0.965113 -0.0315749
-47.354 86.7993 13.5771 0.134426 -0.990906 -0.00593897
-46.2513 86.9483 13.6684 0.135909 -0.990712 -0.0042282
-45.2221 87.0558 13.741 0.104306 -0.994427 -0.0153544
-43.4564 87.1927 13.8609 0.0559279 -0.998332 -0.0143601
-42.3854 87.2518 13.9275 0.077272 -0.996676 -0.0257939
-41.202 87.3233 13.9915 0.0333853 -0.997281 -0.0656895
-40.1514 87.3539 14.0333 0.0305824 -0.996936 -0.071993
-38.6638 87.4246 14.0806 0.105799 -0.968741 -0.224382
-37.2567 87.6084 14.1441 0.137242 -0.965539 -0.221133
-36.2375 87.7254 14.1838 0.114864 -0.967523 -0.225179
-34.7097 87.8991 14.2431 0.0806046 -0.941406 -0.327502
-33.0459 88.0445 14.2981 0.108418 -0.909442 -0.401448
-31.3354 88.1554 14.3438 0.0407346 -0.913233 -0.405395
-31.2646 88.563 13.5306 0.126222 -0.852586 -0.507114
-32.2829 88.4891 13.4969 0.074621 -0.911863 -0.403655
-34.052 88.2601 13.4032 0.148685 -0.922575 -0.356016
-35.2561 88.1243 13.3502 0.179303 -0.94374 -0.277858
-36.5669 87.899 13.2699 0.14722 -0.956528 -0.251753
-37.8049 87.7473 13.2118 0.131992 -0.964716 -0.227819
-38.8149 87.621 13.1611 0.105797 -0.968743 -0.224374
-40.5261 87.4064 13.0731 0.102456 -0.989768 -0.0993095
-41.6961 87.3544 13.0105 0.0985673 -0.994434 -0.0372109
-42.9231 87.2361 12.9216 0.077272 -0.996676 -0.0257939
-43.9272 87.1759 12.8538 0.0705326 -0.997501 -0.0041636
-45.3698 87.0553 12.7719 0.117205 -0.993104 -0.00258644
-46.4695 86.9104 12.6926 0.129367 -0.991544 0.010255
-47.5321 86.7707 12.5947 0.151739 -0.987901 0.0320584
-48.5934 86.5509 12.4896 0.235811 -0.971292 0.0313695
-50.0934 86.137 12.3327 0.35433 -0.934239 0.0406048
-51.0147 85.7292 12.2275 0.404838 -0.914388 -0.000789265
-52.4836 85.1498 12.0666 0.387641 -0.921076 0.036784
-53.8111 84.3414 11.8891 0.545931 -0.836843 -0.0406576
-54.9455 83.4983 11.6842 0.607568 -0.794266 -0.00192683
-55.7862 82.8247 11.5183 0.619776 -0.784187 -0.030468
-56.6129 82.2097 11.3521 0.602386 -0.796752 -0.0481417
-56.7294 82.123 11.33 0.630558 -0.774125 -0.0559297
-56.2066 82.5644 10.4778 0.596446 -0.802376 -0.0211096
-55.2131 83.2907 10.6629 0.592899 -0.80527 -0.0031881
-54.319 83.9704 10.8207 0.60404 -0.796891 0.0100012
-53.3091 84.5782 10.9764 0.486685 -0.871332 0.0625931
-52.4089 85.0858 11.0812 0.411623 -0.906895 0.0900484
-51.0125 85.7362 11.2478 0.387636 -0.921078 0.0367923
-49.9247 86.1081 11.3746 0.302169 -0.949737 0.0818182
-48.8967 86.4449 11.4869 0.26924 -0.961406 0.0566455
-47.8283 86.6635 11.5939 0.173951 -0.983282 0.0538302
-46.6899 86.8715 11.7141 0.151731 -0.987902 0.0320594
-45.6395 87.0073 11.7969 0.113621 -0.992888 0.0355394
-44.4029 87.1366 11.8758 0.0706137 -0.99737 0.0163239
-43.0772 87.2828 11.9518 0.140346 -0.986447 -0.0849984
-42.0581 87.3672 12.0232 0.089369 -0.99034 -0.106015
-41.0403 87.4537 12.0949 0.0660149 -0.99649 -0.0514811
-40.0003 87.6271 12.1703 0.181638 -0.963755 -0.195408
-38.9862 87.8044 12.2385 0.206368 -0.957701 -0.200552
-37.5099 88.0287 12.3276 0.144161 -0.946532 -0.288608
-36.4392 88.2285 12.406 0.199091 -0.919512 -0.338911
-35.4288 88.3863 12.4661 0.164849 -0.916945 -0.363368
-34.4134 88.5517 12.5315 0.175085 -0.903621 -0.390915
-33.1632 88.7336 12.607 0.155503 -0.900967 -0.405064
-32.0721 88.9134 12.6868 0.173574 -0.880641 -0.440844
-31.0666 89.0447 12.7515 0.144017 -0.879553 -0.453481
-30.5506 89.1104 12.7879 0.135186 -0.866494 -0.480533
-30.6761 89.5196 11.9634 0.224282 -0.826866 -0.515743
-31.7155 89.3811 11.893 0.173573 -0.880642 -0.440843
-33.1176 89.1178 11.77 0.179297 -0.891246 -0.416573
-34.1585 88.9524 11.6996 0.194574 -0.905737 -0.376539
-35.1699 88.767 11.6229 0.17974 -0.911478 -0.370001
-36.3271 88.5532 11.5368 0.232985 -0.920442 -0.313853
-37.385 88.3177 11.4423 0.188788 -0.934565 -0.301576
-38.8504 88.0329 11.334 0.230959 -0.951002 -0.205557
-39.9647 87.8209 11.2478 0.190994 -0.964301 -0.183425
-40.98 87.6244 11.1671 0.180672 -0.968197 -0.173069
-42.7108 87.4136 11.0388 0.140344 -0.986447 -0.0850068
-44.1516 87.1391 10.942 0.131103 -0.991084 -0.0237607
-45.2105 87.0451 10.8764 0.0791324 -0.993439 -0.0825682
-46.7206 86.8684 10.7434 0.179908 -0.983178 -0.031546
-47.8454 86.662 10.6224 0.183831 -0.982386 -0.0335286
-48.905 86.3994 10.5149 0.285835 -0.957873 0.0278823
-50.0878 86.0215 10.3818 0.302175 -0.953029 0.0206155
-51.0582 85.6811 10.2673 0.387252 -0.921362 0.0335756
-52.465 84.9831 10.1018 0.445317 -0.895022 0.0250834
-53.4559 84.4473 9.98002 0.472983 -0.879875 0.0459082
-54.5673 83.7695 9.81399 0.592902 -0.805268 -0.00318498
-55.6499 82.9992 9.62749 0.581548 -0.813347 -0.0163785
-55.7001 82.9635 9.61899 0.589023 -0.807899 -0.0187423
-55.1507 83.3651 8.75818 0.564691 -0.824972 0.023342
-53.7597 84.2518 8.97473 0.486567 -0.873174 0.0286182
-52.8201 84.7722 9.09735 0.465297 -0.884782 0.0256604
-51.5367 85.421 9.24519 0.445318 -0.895021 0.0250823
-50.5007 85.8327 9.36478 0.330669 -0.942628 0.0459444
-49.5247 86.1805 9.47685 0.316488 -0.948012 0.0332815
-48.5322 86.4698 9.58488 0.269393 -0.962389 0.0351372
-47.5436 86.7504 9.68852 0.226966 -0.973902 0.000803648
-46.5403 86.929 9.79658 0.175981 -0.983949 -0.0295665
-44.8954 87.1475 9.94641 0.0932441 -0.991261 -0.0933116
-43.8926 87.2491 10.0147 0.149362 -0.985258 -0.0834093
-42.8817 87.4416 10.0883 0.236745 -0.966041 -0.103522
-41.8206 87.6635 10.1782 0.160067 -0.970938 -0.177927
-40.5913 87.8638 10.274 0.214809 -0.953545 -0.21121
-39.4635 88.1122 10.372 0.253873 -0.932668 -0.256279
-37.9915 88.4731 10.5085 0.239635 -0.922148 -0.303675
-36.7216 88.7775 10.628 0.231494 -0.911424 -0.340172
-35.6519 89.0128 10.7254 0.241324 -0.907345 -0.34422
-34.6364 89.2258 10.8149 0.194828 -0.898264 -0.393908
-33.6236 89.4112 10.8931 0.214607 -0.890307 -0.401619
-32.2513 89.6836 11.0168 0.202769 -0.88016 -0.429189
-30.7187 89.9989 11.1764 0.232408 -0.841416 -0.487858
-30.4353 90.0564 11.2074 0.224282 -0.826866 -0.515742
-30.3322 90.522 10.405 0.252735 -0.84433 -0.472474
-31.5264 90.2583 10.2733 0.237157 -0.855479 -0.46034
-32.6131 90.0188 10.1586 0.220038 -0.868119 -0.444918
-34.0818 89.6975 10.0135 0.214607 -0.890303 -0.401628
-35.0991 89.4776 9.91881 0.251127 -0.903147 -0.348224
-36.1183 89.234 9.81541 0.241324 -0.907345 -0.34422
-37.178 88.9835 9.71213 0.270073 -0.909587 -0.315771
-38.1852 88.7198 9.60905 0.282643 -0.90671 -0.313034
-39.7314 88.2932 9.4478 0.253867 -0.932668 -0.256284
-41.4346 87.8971 9.2882 0.245359 -0.940842 -0.233697
-42.551 87.6757 9.19267 0.281503 -0.948692 -0.144014
-43.6218 87.3928 9.0933 0.17271 -0.964478 -0.199883
-45.0163 87.2641 8.99888 0.165447 -0.977345 -0.131997
-45.9969 87.0691 8.8939 0.174985 -0.98278 -0.0593533
-47.6859 86.7395 8.71169 0.248439 -0.967835 -0.039679
-48.7191 86.4499 8.59864 0.274757 -0.960112 -0.0518921
-49.7751 86.0983 8.48448 0.34029 -0.940091 -0.0207898
-50.7521 85.7471 8.37247 0.364281 -0.931287 0.00197608
-51.705 85.3158 8.26644 0.455151 -0.890349 0.0107666
-52.8329 84.7377 8.13854 0.45714 -0.88929 0.0136475
-53.7071 84.2434 8.02698 0.490943 -0.870488 0.0350107
-54.4577 83.8157 7.91743 0.528324 -0.84854 0.0292105
-53.8045 84.1663 7.05905 0.503851 -0.86373 0.0102547
-52.3144 84.989 7.24112 0.459121 -0.88822 0.0165296
-50.9075 85.6554 7.39359 0.387844 -0.921393 0.0247468
-49.9539 86.0552 7.50424 0.331006 -0.943465 -0.0175684
-48.2149 86.6434 7.68926 0.298366 -0.953876 -0.0331368
-47.0457 86.9102 7.82286 0.221891 -0.974686 -0.0274333
-45.9595 87.1332 7.9424 0.201277 -0.976953 -0.0710713
-44.9023 87.3712 8.05633 0.227395 -0.970281 -0.0827372
-43.9139 87.5377 8.14187 0.172708 -0.964477 -0.199891
-42.6921 87.8236 8.25811 0.24914 -0.938458 -0.239218
-41.0399 88.244 8.42414 0.258776 -0.916689 -0.304492
-39.9958 88.5043 8.52756 0.277171 -0.910088 -0.308086
-38.9287 88.8119 8.64657 0.293978 -0.90294 -0.313491
-37.8393 89.1128 8.76466 0.271262 -0.910356 -0.312521
-36.4546 89.4852 8.91543 0.287263 -0.894517 -0.342519
-35.4343 89.7464 9.02736 0.255556 -0.888227 -0.381765
-34.3758 90.0029 9.13919 0.25861 -0.887195 -0.382107
-32.7291 90.3895 9.31366 0.245506 -0.875528 -0.416146
-31.6719 90.6423 9.43227 0.260115 -0.867365 -0.424285
-30.468 90.9589 9.58069 0.277781 -0.844557 -0.457779
-29.2517 91.2623 9.72418 0.295964 -0.828619 -0.475179
-28.8559 91.839 8.94984 0.337477 -0.842681 -0.419522
-29.8522 91.549 8.82247 0.288631 -0.857045 -0.42681
-31.1493 91.1902 8.66064 0.277565 -0.858504 -0.431194
-32.2269 90.9205 8.53805 0.274766 -0.866992 -0.415726
-33.703 90.5364 8.36418 0.268153 -0.876531 -0.399735
-35.007 90.2158 8.22142 0.271486 -0.891663 -0.362259
-36.3888 89.8354 8.05601 0.287231 -0.894527 -0.342519
-37.4915 89.5306 7.92712 0.287291 -0.894508 -0.342519
-38.4491 89.2562 7.81574 0.300858 -0.90085 -0.312976
-39.5332 88.944 7.69166 0.295457 -0.903125 -0.311562
-40.8865 88.5788 7.54639 0.275527 -0.917863 -0.285678
-42.0522 88.2475 7.41069 0.292103 -0.918455 -0.266675
-43.2497 87.9418 7.28558 0.256143 -0.931006 -0.260035
-44.2774 87.6533 7.17333 0.269346 -0.941182 -0.204032
-45.3315 87.418 7.06553 0.232346 -0.954004 -0.189452
-46.433 87.136 6.93601 0.250161 -0.958392 -0.137495
-47.5298 86.9058 6.80968 0.217319 -0.968494 -0.121626
-48.5686 86.5816 6.69487 0.327148 -0.942984 -0.0612723
-49.8287 86.1267 6.55846 0.368703 -0.929317 -0.0206868
-50.9676 85.6491 6.42008 0.39811 -0.916914 -0.0278842
-51.8989 85.2015 6.31743 0.468876 -0.883242 -0.00621774
-53.1366 84.5452 6.20585 0.467107 -0.884149 -0.00958215
-53.1638 84.5302 6.20309 0.501549 -0.865101 -0.00701254
-52.8469 84.7114 5.26096 0.465321 -0.885048 -0.0129311
-51.267 85.5078 5.41824 0.435881 -0.899744 -0.0216312
-49.8954 86.1219 5.58744 0.379576 -0.923775 -0.0506199
-48.8584 86.552 5.71119 0.35673 -0.930708 -0.0807887
-47.3323 87.0667 5.88085 0.273667 -0.95741 -0.0920471
-46.2933 87.3278 6.00806 0.282635 -0.946919 -0.153173
-45.1838 87.6371 6.14349 0.257617 -0.950924 -0.171394
-44.105 87.9246 6.26329 0.30588 -0.926715 -0.21826
-42.9823 88.264 6.39551 0.28116 -0.929352 -0.239278
-41.5534 88.6537 6.55814 0.297264 -0.913096 -0.279088
-40.4513 88.9778 6.69226 0.306238 -0.906206 -0.291563
-39.074 89.3838 6.85579 0.295851 -0.902652 -0.312556
-37.6323 89.8077 7.03077 0.305864 -0.899021 -0.313383
-36.6512 90.0965 7.15411 0.287263 -0.894517 -0.34252
-35.6834 90.3694 7.2734 0.295475 -0.88252 -0.365859
-34.7156 90.643 7.39502 0.293024 -0.88333 -0.365876
-33.7304 90.9144 7.51687 0.268153 -0.87653 -0.399736
-32.3285 91.2794 7.6809 0.284535 -0.8718 -0.398753
-31.162 91.5966 7.82255 0.294024 -0.867547 -0.401138
-29.745 91.9941 7.99302 0.287055 -0.859058 -0.423815
-28.6304 92.3357 8.13907 0.33352 -0.842374 -0.423284
-28.101 92.5095 8.21028 0.337478 -0.84268 -0.419523
-27.0538 93.2275 7.47502 0.290056 -0.904201 -0.31351
-28.0239 92.9105 7.35613 0.306952 -0.87804 -0.367187
-29.1884 92.5619 7.21614 0.306248 -0.877582 -0.368866
-30.2901 92.241 7.08576 0.301534 -0.865445 -0.400102
-31.4825 91.8994 6.93941 0.286493 -0.869599 -0.402144
