-48.8199 88.1688 15.7826 0.179065 -0.98169 -0.0649623
-47.7415 88.3585 15.8877 0.144605 -0.988625 -0.041346
-46.6107 88.4908 15.973 0.123788 -0.992279 -0.00764397
-45.5388 88.624 16.0478 0.0929622 -0.995626 0.00936271
-44.3448 88.6847 16.1236 0.0279149 -0.999601 0.00425762
-43.3102 88.7137 16.1612 0.041187 -0.999151 -4.38448e-05
-42.0479 88.7731 16.1924 0.0428345 -0.998905 -0.01881
-40.8356 88.8069 16.2204 0.0225802 -0.999601 -0.0169688
-39.197 88.8195 16.2456 0.0169389 -0.995488 -0.0933592
-37.8186 88.8572 16.2611 0.0119597 -0.988366 -0.151626
-36.536 88.8424 16.261 -0.0114087 -0.983096 -0.182736
-35.3981 88.8007 16.2521 -0.00715058 -0.977294 -0.211765
-34.2537 88.8168 16.2523 -0.0447257 -0.962218 -0.268581
-32.9034 88.7605 16.2294 -0.000514593 -0.949332 -0.314274
-31.8728 88.7936 16.2422 -0.0175419 -0.91489 -0.403323
-31.4596 88.7708 16.2317 -0.060613 -0.89292 -0.446116
-31.4759 89.1273 15.4031 0.0256037 -0.933042 -0.358855
-32.8285 89.0888 15.3848 0.0436897 -0.932448 -0.358654
-33.8799 89.047 15.3656 -0.000519344 -0.949331 -0.314279
-35.0163 89.0277 15.3583 0.024454 -0.971395 -0.236208
-36.1344 89.0019 15.3487 -0.00715774 -0.977294 -0.211768
-37.3305 88.9864 15.3392 0.0353095 -0.992112 -0.120282
-38.3924 88.9506 15.3223 0.0302668 -0.992357 -0.11963
-40.0427 88.8788 15.29 0.0544168 -0.995801 -0.0736161
-41.6774 88.8115 15.2462 0.0677992 -0.996806 -0.0421981
-42.7199 88.7501 15.2133 0.0544512 -0.998507 -0.00434555
-44.169 88.6855 15.1526 0.0449829 -0.99887 0.0153149
-45.3347 88.6106 15.0622 0.0620262 -0.997726 0.0263692
-46.5173 88.5102 14.9682 0.116841 -0.99307 -0.0126503
-47.7125 88.3796 14.8815 0.109886 -0.993787 -0.0176555
-48.8245 88.2339 14.7864 0.216513 -0.975149 -0.0469752
-49.8672 87.9579 14.6796 0.264267 -0.964381 0.0115218
-51.0901 87.5801 14.5492 0.361927 -0.932176 -0.00749718
-52.066 87.202 14.4426 0.389626 -0.920193 0.0378948
-53.5057 86.4019 14.2325 0.514288 -0.853602 0.0828908
-54.5219 85.7423 14.0583 0.619673 -0.784843 0.005273
-55.4219 84.9893 13.8496 0.62964 -0.772981 -0.0778019
-56.4165 84.2027 13.6149 0.669815 -0.736541 -0.0941052
-57.2795 83.3743 13.397 0.699835 -0.704316 -0.11904
-57.4626 83.2011 13.3452 0.699835 -0.704315 -0.119039
-57.1141 83.6598 12.4816 0.70239 -0.706737 -0.0846849
-56.1998 84.433 12.7049 0.634001 -0.773261 -0.0104813
-55.1922 85.2281 12.951 0.622983 -0.781858 -0.0242924
-54.3515 85.8574 13.113 0.523776 -0.851465 -0.0258222
-52.6406 86.8394 13.3698 0.465946 -0.880897 0.0831606
-51.0216 87.6 13.5495 0.426146 -0.902799 0.0579098
-49.8752 87.9221 13.6765 0.240458 -0.967848 0.0738224
-48.8449 88.187 13.7929 0.217733 -0.972752 0.0796556
-46.8612 88.482 13.961 0.109022 -0.994025 -0.00538715
-45.6092 88.5802 14.0457 0.0615622 -0.998096 0.00373228
-44.2384 88.6652 14.1559 0.0740832 -0.997219 -0.00815923
-43.2055 88.7321 14.2256 0.0531028 -0.998434 -0.0175894
-41.9613 88.8025 14.2785 0.0569701 -0.998311 -0.0113732
-40.9641 88.8885 14.315 0.0924914 -0.995647 -0.0115301
-39.3706 88.9922 14.3686 0.0658361 -0.995051 -0.0744306
-38.3048 89.0906 14.4004 0.0760401 -0.978361 -0.192428
-37.0316 89.1567 14.4323 0.0559315 -0.976582 -0.207749
-35.6877 89.2697 14.4733 0.0755258 -0.965065 -0.250891
-34.5359 89.303 14.4911 0.0558693 -0.947535 -0.314731
-33.0407 89.3951 14.5337 0.049974 -0.938939 -0.340435
-31.7237 89.4687 14.5684 0.0350419 -0.910061 -0.412991
-31.2485 89.4831 14.5769 0.035038 -0.910062 -0.412989
-31.3496 89.8521 13.7551 0.0824707 -0.896918 -0.434439
-32.6838 89.7571 13.7078 0.101894 -0.918868 -0.381182
-33.8131 89.6606 13.6617 0.0853581 -0.941997 -0.324587
-34.9445 89.5703 13.6193 0.108077 -0.943165 -0.314261
-36.2524 89.4599 13.5717 0.100978 -0.963057 -0.249648
-37.2986 89.3349 13.5227 0.0912228 -0.969334 -0.22819
-38.5389 89.2334 13.4824 0.0960993 -0.979511 -0.176983
-39.6002 89.1291 13.4389 0.126195 -0.979365 -0.157856
-40.6714 88.9785 13.3852 0.140686 -0.980573 -0.136693
-41.7733 88.8286 13.3269 0.168655 -0.979753 -0.10789
-43.5615 88.7385 13.2199 0.0492444 -0.998503 -0.02381
-44.6003 88.6541 13.1447 0.0865731 -0.996044 -0.0200571
-45.6058 88.5768 13.0696 0.0720139 -0.997369 0.00829739
-47.2829 88.432 12.9648 0.148823 -0.987702 0.0479317
-48.5166 88.169 12.8383 0.194887 -0.977097 0.085442
-49.8864 87.842 12.6619 0.244228 -0.966568 0.0780968
-51.126 87.5127 12.535 0.343716 -0.937294 0.0577945
-52.5784 86.81 12.3837 0.427779 -0.903692 0.0185809
-54.0306 86.0829 12.1859 0.523779 -0.851463 -0.0258207
-55.0794 85.3471 12.0153 0.598994 -0.800659 -0.0123118
-55.9215 84.6638 11.8035 0.644767 -0.764372 0.00333531
-56.6056 84.0859 11.621 0.64377 -0.765212 0.00340161
-56.0274 84.5301 10.8246 0.6297 -0.772839 0.0787269
-54.8846 85.4082 11.0691 0.542102 -0.831559 0.120977
-53.9028 86.0824 11.2225 0.51145 -0.849062 0.132339
-52.4862 86.8336 11.4089 0.427784 -0.90369 0.0185796
-51.0906 87.45 11.5552 0.31167 -0.946941 0.0785156
-50.1182 87.707 11.6645 0.249077 -0.966802 0.0570436
-48.7153 88.0556 11.8257 0.206619 -0.977155 0.0497595
-47.3452 88.36 11.9826 0.210149 -0.975931 0.0582844
-46.2488 88.4888 12.0741 0.0869027 -0.995515 0.0373837
-44.9729 88.6336 12.1526 0.0943331 -0.995539 -0.00187262
-43.5814 88.7608 12.2452 0.0679208 -0.99745 -0.0219372
-41.8833 88.8949 12.3691 0.0937546 -0.99223 -0.0817881
-40.8626 89.0835 12.4353 0.168655 -0.979753 -0.10789
-39.8002 89.2302 12.5031 0.14763 -0.979462 -0.137333
-38.7484 89.3837 12.5664 0.135642 -0.968359 -0.209479
-37.7108 89.5016 12.6142 0.120226 -0.966372 -0.227311
-36.3945 89.667 12.6781 0.161254 -0.954123 -0.252284
-35.2815 89.8151 12.7399 0.12889 -0.941462 -0.311508
-34.1416 89.9296 12.7913 0.130392 -0.92656 -0.352823
-32.4527 90.1106 12.8758 0.106632 -0.927804 -0.357505
-31.268 90.2922 12.9676 0.171545 -0.869931 -0.462376
-30.9878 90.7465 12.1823 0.214135 -0.876676 -0.430796
-32.1136 90.5415 12.0775 0.178144 -0.884262 -0.431677
-33.188 90.366 11.9937 0.142605 -0.907454 -0.395209
-34.7701 90.169 11.9045 0.162613 -0.931538 -0.32526
-36.0885 89.9746 11.8215 0.143872 -0.94901 -0.2805
-37.3191 89.759 11.7394 0.161258 -0.954124 -0.252277
-38.6926 89.5715 11.6596 0.150979 -0.969804 -0.191533
-40.038 89.357 11.566 0.189695 -0.965995 -0.175695
-41.142 89.1257 11.4824 0.217493 -0.962675 -0.161104
-42.4725 88.9227 11.3845 0.092046 -0.991811 -0.0885403
-43.7634 88.7627 11.2865 0.142633 -0.989175 -0.0344718
-44.9171 88.6406 11.2135 0.100542 -0.99485 -0.0128572
-45.9739 88.513 11.1397 0.125356 -0.992096 0.0055602
-46.9774 88.384 11.0596 0.206624 -0.977154 0.0497569
-47.9824 88.1706 10.9446 0.203077 -0.978294 0.0412277
-49.0092 87.952 10.8166 0.229416 -0.972235 0.0461198
-50.4601 87.5596 10.6595 0.252338 -0.96613 0.0540169
-51.5532 87.1536 10.5492 0.374285 -0.921348 0.105019
-52.945 86.4785 10.3729 0.484809 -0.866732 0.117199
-53.9098 85.9266 10.25 0.51145 -0.84906 0.132347
-55.1371 85.1071 10.0437 0.53648 -0.836257 0.113419
-55.5473 84.8349 9.97619 0.584107 -0.805951 0.0962379
-54.7917 85.2393 9.16996 0.55244 -0.830976 0.0654894
-53.909 85.8366 9.30357 0.507513 -0.858996 0.0674967
-53.0308 86.3034 9.41741 0.461164 -0.884604 0.0693102
-51.4493 87.0876 9.59952 0.387238 -0.917505 0.090722
-50.5246 87.501 9.6998 0.326815 -0.943375 0.0568817
-49.0721 87.8842 9.84798 0.253499 -0.966335 0.0439901
-47.9227 88.1606 9.98149 0.232786 -0.972521 -0.00377344
-46.4461 88.4638 10.1493 0.153787 -0.988095 0.00415632
-45.2467 88.6252 10.2569 0.117851 -0.99278 -0.0223236
-44.1918 88.7399 10.3214 0.108047 -0.993895 -0.022333
-42.7902 88.9787 10.4266 0.135348 -0.988539 -0.0668681
-41.5078 89.2028 10.5303 0.216641 -0.962768 -0.161692
-40.2511 89.4651 10.6297 0.208797 -0.964956 -0.158948
-38.9615 89.7125 10.7334 0.160727 -0.968156 -0.19194
-37.7724 89.9238 10.821 0.211221 -0.940654 -0.265623
-36.2475 90.2087 10.9325 0.189716 -0.943366 -0.272155
-35.0264 90.4226 11.0226 0.18846 -0.92794 -0.321574
-34.0275 90.5655 11.0862 0.175323 -0.916326 -0.360013
-32.9866 90.771 11.1779 0.191077 -0.898214 -0.395856
-32.0009 90.9443 11.2604 0.21711 -0.883795 -0.414452
-30.8972 91.1722 11.3749 0.2156 -0.870066 -0.443285
-30.5187 91.693 10.6066 0.297454 -0.834985 -0.462948
-31.6657 91.4287 10.4763 0.242871 -0.86829 -0.432535
-32.7745 91.1774 10.3581 0.217109 -0.883795 -0.414452
-33.7586 90.9831 10.2707 0.221538 -0.908147 -0.355233
-34.8736 90.744 10.1677 0.218814 -0.919175 -0.327472
-35.9299 90.5511 10.084 0.194437 -0.93193 -0.306105
-37.4152 90.2458 9.96293 0.206043 -0.935653 -0.286529
-38.826 89.9528 9.84297 0.230966 -0.942878 -0.240073
-40.2321 89.6522 9.7158 0.212142 -0.952612 -0.218004
-41.4569 89.3834 9.61411 0.216505 -0.957866 -0.188729
-43.0472 89.0498 9.47965 0.192389 -0.966165 -0.171789
-44.0584 88.886 9.4059 0.181532 -0.971514 -0.152337
-45.1487 88.6949 9.32531 0.202334 -0.971807 -0.121047
-46.2704 88.4872 9.20541 0.153788 -0.988095 0.00415292
-47.6657 88.2257 9.04527 0.236414 -0.97165 0.00238117
-48.7224 87.9635 8.93954 0.256856 -0.966393 0.0104417
-49.7798 87.6613 8.82791 0.26253 -0.964608 0.0246786
-51.145 87.1436 8.67516 0.400051 -0.913304 0.0763917
-52.2222 86.6667 8.56656 0.449221 -0.892105 0.0484704
-53.1175 86.1837 8.46735 0.461164 -0.884604 0.0693102
-54.3582 85.4589 8.30052 0.545311 -0.836628 0.0518522
-53.8044 85.7621 7.4355 0.502218 -0.863368 0.0487148
-52.4571 86.4953 7.5885 0.449218 -0.892107 0.0484639
-51.4788 86.9605 7.67789 0.408908 -0.911416 0.0459851
-50.0537 87.5721 7.84453 0.330976 -0.943292 0.0256049
-48.8175 87.9242 7.98757 0.273223 -0.961887 0.0110995
-47.6804 88.2298 8.10181 0.263406 -0.964026 -0.0356448
-46.5526 88.5098 8.22497 0.211732 -0.975621 -0.0577374
-45.5422 88.6963 8.33108 0.206212 -0.974583 -0.0875464
-43.8895 89.0609 8.49157 0.202333 -0.971807 -0.121047
-42.8197 89.278 8.58089 0.217306 -0.957777 -0.188258
-41.8241 89.4869 8.66738 0.216907 -0.957821 -0.188497
-40.7573 89.7368 8.75797 0.243957 -0.948389 -0.20259
-39.38 90.0483 8.88516 0.244192 -0.940811 -0.235045
-37.9007 90.3784 9.02407 0.239675 -0.936777 -0.254959
-36.644 90.6961 9.15151 0.240736 -0.927764 -0.285133
-35.3506 90.9638 9.26392 0.242932 -0.905305 -0.348436
-34.3614 91.1916 9.36168 0.232249 -0.906784 -0.351856
-32.7383 91.5651 9.52525 0.261558 -0.883677 -0.388203
-31.4424 91.8761 9.66807 0.262414 -0.878936 -0.398259
-30.3039 92.1936 9.81744 0.292844 -0.849227 -0.439382
-30.147 92.6686 9.00401 0.310214 -0.851422 -0.422904
-31.2564 92.3163 8.84963 0.327395 -0.853132 -0.406176
-32.4974 91.9967 8.70896 0.282257 -0.875247 -0.392778
-34.1336 91.5772 8.52703 0.273103 -0.888146 -0.369611
-35.3554 91.2938 8.40367 0.242833 -0.905106 -0.34902
-36.4466 91.026 8.28999 0.277667 -0.903251 -0.327169
-37.4092 90.7746 8.1871 0.271303 -0.906092 -0.324642
-38.3812 90.5151 8.08219 0.27027 -0.918328 -0.289184
-39.3794 90.2891 7.98403 0.237897 -0.931965 -0.27358
-40.4104 90.0348 7.88161 0.25756 -0.933823 -0.248267
-42.0885 89.6195 7.72632 0.244605 -0.946935 -0.208523
-43.1226 89.4037 7.63266 0.217367 -0.955931 -0.197352
-44.2204 89.1155 7.52114 0.248577 -0.957375 -0.147118
-45.5444 88.7923 7.38796 0.25336 -0.956978 -0.141429
-46.5724 88.5341 7.28152 0.233691 -0.97185 -0.0299252
-47.8891 88.2081 7.14514 0.27888 -0.960115 -0.0201255
-49.0628 87.8474 7.01112 0.294219 -0.955727 -0.00460266
-50.368 87.3952 6.8508 0.387772 -0.920831 0.0412605
-51.3791 86.9549 6.72466 0.410482 -0.910546 0.0490948
-52.3047 86.5142 6.64234 0.43763 -0.897593 0.0529759
-53.3214 85.9794 6.53545 0.474486 -0.879241 0.0423943
-52.5757 86.3089 5.6483 0.448864 -0.891468 0.0616962
-51.6114 86.7972 5.7409 0.410482 -0.910546 0.0490968
-50.6616 87.2198 5.85516 0.421326 -0.905767 -0.0454981
-49.7036 87.6589 5.98473 0.392576 -0.918879 -0.0392971
-48.6966 87.9998 6.11252 0.313259 -0.945011 -0.0939356
-47.6786 88.3254 6.23176 0.310498 -0.945987 -0.0932702
-46.3985 88.7001 6.3711 0.270444 -0.952653 -0.13897
-45.1269 89.0311 6.49881 0.258133 -0.956527 -0.135733
-43.5337 89.4475 6.65941 0.273839 -0.949411 -0.153723
-42.5654 89.71 6.76276 0.245757 -0.953284 -0.175649
-40.9539 90.1396 6.92841 0.274626 -0.924714 -0.263601
-39.9171 90.4176 7.0347 0.27528 -0.926041 -0.258205
-38.8983 90.6607 7.13648 0.270275 -0.918329 -0.289179
-37.8729 90.9623 7.25976 0.302242 -0.903336 -0.304359
-36.8996 91.2206 7.36811 0.277667 -0.903251 -0.327168
-35.8961 91.4945 7.48467 0.284018 -0.900358 -0.32968
-34.7734 91.7596 7.60086 0.260605 -0.896583 -0.358083
-33.7636 92.0279 7.71742 0.273103 -0.888146 -0.369611
-32.1364 92.4655 7.90549 0.294952 -0.877061 -0.379166
-30.8664 92.8399 8.06429 0.322788 -0.861238 -0.392527
-29.7865 93.1743 8.20384 0.317728 -0.86926 -0.378729
-28.9402 93.448 8.31415 0.342689 -0.871265 -0.351372
-27.8477 94.1826 7.57683 0.345677 -0.876744 -0.334405
-29.0515 93.778 7.43379 0.317357 -0.869411 -0.378694
-30.7491 93.2475 7.2274 0.318094 -0.869108 -0.37877
-31.9282 92.8933 7.08163 0.296202 -0.875569 -0.381632
-32.951 92.6005 6.95947 0.295574 -0.876317 -0.380401
-34.2751 92.2443 6.80607 0.278252 -0.88764 -0.366975
-35.3393 91.9622 6.68164 0.260605 -0.896583 -0.358083
-36.3088 91.7013 6.56726 0.282515 -0.89302 -0.350286
-37.3482 91.4185 6.44401 0.301219 -0.890213 -0.341742
-38.3762 91.1168 6.31761 0.303135 -0.889316 -0.342384
-39.3615 90.8239 6.19782 0.31556 -0.893739 -0.318829
-41.0679 90.3661 6.01413 0.272701 -0.925369 -0.263299
-42.1792 90.0572 5.89536 0.317741 -0.9193 -0.232225
-43.5477 89.6464 5.73935 0.28255 -0.934591 -0.216113
-44.6711 89.3184 5.6207 0.289098 -0.936411 -0.198889
-46.021 88.9463 5.48644 0.286408 -0.940188 -0.184439
-47.0714 88.6075 5.36481 0.307734 -0.946955 -0.092604
-48.5141 88.1511 5.19956 0.338611 -0.938778 -0.0635459
-49.839 87.6402 5.02201 0.36342 -0.931039 -0.0330553
-50.8527 87.1796 4.88426 0.421326 -0.905767 -0.0454981
-51.9077 86.6732 4.75894 0.444495 -0.89526 -0.030568
-52.0209 86.6165 4.74813 0.450289 -0.892282 -0.0327373
-51.3399 86.9786 3.8705 0.438678 -0.898195 -0.0284054
-50.3558 87.4552 4.00029 0.430038 -0.902054 -0.0369574
-49.3175 87.875 4.142 0.386376 -0.917921 -0.0901947
-48.1305 88.3853 4.30662 0.387736 -0.910491 -0.143759
-46.5212 88.9613 4.50768 0.340471 -0.923175 -0.178405
-45.1499 89.373 4.65485 0.312317 -0.928997 -0.198551
-44.1593 89.6751 4.76027 0.30245 -0.922263 -0.240738
-42.4701 90.1974 4.94832 0.317225 -0.915441 -0.247662
-41.3907 90.5372 5.07512 0.328684 -0.908264 -0.258889
-40.402 90.831 5.19098 0.302877 -0.897955 -0.319284
-39.427 91.1181 5.30847 0.31556 -0.893739 -0.318829
-37.7606 91.6321 5.52399 0.301223 -0.890214 -0.341736
-36.4936 91.9899 5.68259 0.282512 -0.893021 -0.350286
-35.0852 92.3738 5.85592 0.28407 -0.890398 -0.355663
-34.0861 92.6388 5.97433 0.278786 -0.891156 -0.357939
-32.8327 92.9876 6.12312 0.315718 -0.883099 -0.347072
-31.813 93.2951 6.24917 0.30479 -0.872219 -0.382541
-30.2398 93.7696 6.43627 0.307592 -0.892819 -0.329031
-28.8794 94.1843 6.58629 0.307717 -0.890544 -0.335024
-27.8805 94.4859 6.68865 0.316668 -0.891884 -0.3229
-26.9346 94.8048 6.78921 0.333104 -0.889476 -0.31285
-25.6793 95.4705 6.00381 0.272807 -0.923821 -0.268571
-26.6817 95.1813 5.92861 0.292531 -0.918031 -0.267664
-28.0165 94.7697 5.80368 0.300112 -0.893957 -0.332827
-29.355 94.3659 5.66696 0.310135 -0.890511 -0.332875
-30.6201 93.9747 5.52451 0.312551 -0.890469 -0.330723
-32.2624 93.4945 5.33694 0.295159 -0.896152 -0.331351
-33.5341 93.1248 5.18466 0.275319 -0.893028 -0.35595
-33.935 93.0193 5.13935 0.275322 -0.893026 -0.355952
-32.1666 93.8403 4.48884 0.293699 -0.893421 -0.339913
-31.1535 94.1317 4.60127 0.298892 -0.895653 -0.329346
-30.0736 94.4595 4.72296 0.305238 -0.903204 -0.30175
-29.0779 94.7608 4.82851 0.29684 -0.906446 -0.300404
-27.6415 95.1782 4.96176 0.293507 -0.90971 -0.293736
-26.5047 95.493 5.05276 0.283651 -0.917374 -0.279226
-25.2729 95.8413 5.14126 0.261468 -0.93416 -0.242857
-25.1775 95.8652 5.14703 0.249894 -0.94366 -0.216929
-23.77 96.4028 4.32338 0.222133 -0.951341 -0.213558
-24.9082 96.1392 4.26562 0.249893 -0.943661 -0.216926
-26.2021 95.8418 4.19454 0.236857 -0.935468 -0.262294
-27.676 95.4495 4.08336 0.270696 -0.921377 -0.278906
-28.9252 95.0912 3.9705 0.28841 -0.909612 -0.299041
-30.2269 94.7037 3.83701 0.300781 -0.902795 -0.307395
-31.2165 94.4154 3.73121 0.284342 -0.906391 -0.312417
-31.6489 94.3012 3.68712 0.272328 -0.910297 -0.311763
-30.5647 94.9038 2.94024 0.296307 -0.90234 -0.313026
-29.5111 95.2005 3.0451 0.271003 -0.925792 -0.263564
-27.8386 95.6457 3.18804 0.270537 -0.929115 -0.2521
-26.6272 95.982 3.28368 0.27203 -0.926593 -0.259664
-25.5578 96.2145 3.34487 0.206849 -0.943936 -0.257291
-23.8265 96.5783 3.42811 0.207356 -0.959565 -0.190363
-22.8189 96.7839 3.46646 0.165337 -0.967043 -0.193629
-21.7257 97.1289 2.60667 0.147597 -0.975213 -0.16485
-22.8829 96.9512 2.57618 0.186389 -0.963525 -0.19204
-24.1521 96.699 2.52415 0.194535 -0.957332 -0.213708
-25.4315 96.4384 2.46314 0.210071 -0.954779 -0.210397
-27.1208 96.0597 2.36195 0.248464 -0.948357 -0.197191
-28.7823 95.6374 2.23248 0.263352 -0.928181 -0.262916
-29.6531 95.4117 2.15712 0.271002 -0.92579 -0.263572
-28.1518 96.0346 1.40874 0.256395 -0.934587 -0.246596
-27.0776 96.2808 1.48403 0.227131 -0.941887 -0.247508
-25.8774 96.5406 1.55419 0.20716 -0.953477 -0.219012
-24.4449 96.8392 1.6294 0.202307 -0.956086 -0.212065
-22.8095 97.1276 1.69103 0.151455 -0.972658 -0.176061
-21.7418 97.2767 1.71829 0.144042 -0.974661 -0.171139
-21.2384 97.3507 1.73094 0.151799 -0.974633 -0.164464
-19.5351 97.6835 0.874824 0.114052 -0.987848 -0.10559
-21.1426 97.4961 0.845717 0.111222 -0.983905 -0.139856
-22.7223 97.3009 0.808702 0.151451 -0.972658 -0.176068
-24.3005 97.0507 0.753426 0.161862 -0.969368 -0.184736
-25.8544 96.7549 0.678545 0.20422 -0.952099 -0.227601
-27.0272 96.5122 0.611987 0.21051 -0.95109 -0.226082
-27.5703 96.4 0.578333 0.218839 -0.946586 -0.23682
-26.7671 96.7747 -0.247017 0.209831 -0.950618 -0.228685
-25.0051 97.1028 -0.158049 0.166327 -0.968768 -0.183912
-23.7401 97.3065 -0.108617 0.157394 -0.969946 -0.185556
-22.6211 97.4746 -0.0708734 0.117927 -0.976849 -0.178491
-21.0285 97.6347 -0.0385749 0.111222 -0.983905 -0.139856
-19.4478 97.7669 -0.0134652 0.0337657 -0.996681 -0.0740716
-17.8208 97.814 0.00268197 0.0336068 -0.999433 0.0022416
-16.8565 97.8282 0.0143723 0.0147707 -0.999889 0.00211972
-11.6464 96.8795 -0.61383 -0.346062 -0.890145 0.296451
-12.9635 97.2334 -0.727293 -0.191062 -0.962871 0.190722
-14.116 97.476 -0.791331 -0.211839 -0.9638 0.161909
-15.1552 97.6163 -0.828191 -0.190335 -0.977944 0.0860092
-16.189 97.8141 -0.867026 -0.0918958 -0.994152 0.0567233
-17.5342 97.8035 -0.884829 -0.0229483 -0.999713 0.00693683
-18.5565 97.8418 -0.894814 0.00754451 -0.996994 -0.0771155
-19.738 97.8133 -0.908889 0.0599681 -0.995674 -0.0709757
-20.9613 97.7729 -0.921115 0.0318965 -0.987528 -0.154177
-22.0129 97.6921 -0.938814 0.0893433 -0.979105 -0.182678
-23.2682 97.5386 -0.972356 0.146412 -0.973773 -0.174155
-24.8917 97.2963 -1.0319 0.158909 -0.966632 -0.200924
-25.8667 97.1415 -1.07434 0.185553 -0.962654 -0.197148
-24.1417 97.581 -1.87989 0.147819 -0.971445 -0.18559
-22.57 97.7994 -1.82858 0.124735 -0.977763 -0.168585
-21.5246 97.8739 -1.81045 0.0659112 -0.985921 -0.153675
-20.3583 97.909 -1.79987 -0.00215522 -0.98799 -0.154501
-19.2524 97.9056 -1.79331 0.0289503 -0.993185 -0.112892
-18.1005 97.8455 -1.78383 -0.0534102 -0.998489 -0.0129607
-16.9551 97.7841 -1.77262 -0.0229483 -0.999713 0.00693683
-15.6692 97.6355 -1.74762 -0.190339 -0.977943 0.0860102
-14.3711 97.3814 -1.70037 -0.244224 -0.959254 0.142076
-12.9194 97.0369 -1.6246 -0.230333 -0.945555 0.229938
-11.6395 96.6015 -1.50083 -0.371145 -0.901458 0.222766
-10.5922 96.2189 -1.36991 -0.37165 -0.868743 0.327355
-10.5427 95.8973 -2.26913 -0.456634 -0.852119 0.255694
-11.704 96.3882 -2.42248 -0.385791 -0.887197 0.253075
-12.7806 96.7851 -2.5213 -0.256683 -0.948377 0.186263
-14.3223 97.231 -2.60723 -0.282369 -0.948722 0.142105
-15.5201 97.4873 -2.64408 -0.205698 -0.968284 0.141828
-16.5494 97.7475 -2.66835 -0.226607 -0.973708 0.0232873
-17.7353 97.8769 -2.67929 -0.0653642 -0.994783 -0.0783254
-18.9701 97.9585 -2.68563 -0.0579814 -0.995414 -0.076087
-20.0719 98.0054 -2.68506 -0.0153146 -0.995203 -0.0966274
-21.2984 98.0283 -2.68783 0.0215226 -0.991425 -0.128893
-22.3998 97.9529 -2.70541 0.108959 -0.982537 -0.150829
-23.1079 97.877 -2.72277 0.108961 -0.982537 -0.150825
-22.1406 98.1156 -3.57797 0.08675 -0.984212 -0.154276
-20.8903 98.1084 -3.57396 -0.0170709 -0.992832 -0.118297
-19.4764 98.0505 -3.57855 -0.0505902 -0.995985 -0.0738489
-17.8915 97.958 -3.57849 -0.121384 -0.992346 -0.0227056
-16.485 97.7055 -3.57379 -0.176644 -0.98372 0.0330533
-15.4106 97.4081 -3.55802 -0.275958 -0.961075 0.0134561
-14.4408 97.1288 -3.52864 -0.336461 -0.936264 0.101018
-12.7705 96.6068 -3.44884 -0.30056 -0.935231 0.187103
-11.8096 96.193 -3.36046 -0.420497 -0.888332 0.184523
-10.6814 95.6855 -3.2226 -0.460943 -0.846646 0.265936
-11.2189 95.6872 -4.24497 -0.441393 -0.866645 0.232591
-12.6225 96.3662 -4.37851 -0.431113 -0.877843 0.208645
-14.3658 97.0016 -4.45659 -0.343642 -0.933743 0.100172
-15.882 97.5305 -4.48553 -0.303038 -0.951228 0.0577332
-17.1143 97.7877 -4.49152 -0.190858 -0.980911 -0.0372371
-18.3359 98.0428 -4.48154 -0.180756 -0.979098 -0.0932463
-19.5581 98.1562 -4.46777 -0.0712423 -0.989887 -0.122669
-20.5453 98.226 -4.45789 -0.0419514 -0.990656 -0.12977
-19.1914 98.227 -5.36514 -0.0780754 -0.991194 -0.106954
-18.0922 98.0767 -5.38717 -0.157269 -0.984383 -0.0790941
-16.9169 97.847 -5.40469 -0.262101 -0.963994 -0.0449406
-15.6923 97.4162 -5.41161 -0.362209 -0.932049 0.00939376
-14.3336 96.8883 -5.39799 -0.346153 -0.936524 0.0556913
-12.6832 96.1895 -5.33348 -0.390454 -0.900085 0.193372
-12.6393 96.1688 -5.33102 -0.466016 -0.865232 0.184939
-15.0325 97.1198 -6.36204 -0.41379 -0.906411 0.084834
-16.5786 97.7159 -6.33972 -0.325021 -0.945706 0.00108509
-17.4938 98.0374 -6.31425 -0.249764 -0.968024 -0.0233848
-39.3772 93.5327 -11.8476 0.00311062 -0.997444 0.0713836
-40.5883 93.555 -11.8534 -0.0291375 -0.99826 0.0512638
-41.6018 93.5682 -11.8594 -0.0132112 -0.999071 0.0410313
-42.7152 93.6295 -11.8669 -0.0454169 -0.998968 -0.000283913
-44.0781 93.6946 -11.8738 -0.050982 -0.998697 -0.0022576
-45.1285 93.7297 -11.8787 -0.0643701 -0.996942 -0.0443122
-45.977 93.8217 -11.8797 -0.107606 -0.992903 -0.0506422
-45.8792 93.8407 -12.7684 -0.101149 -0.99451 -0.0268116
-44.2902 93.6937 -12.7591 -0.0328062 -0.997432 0.0636716
-43.2028 93.6519 -12.7523 -0.0481941 -0.998837 -0.00127798
-42.1373 93.5768 -12.7432 -0.0730694 -0.997197 0.0160799
-40.6501 93.5037 -12.7308 -0.0450494 -0.997091 0.0614757
-39.3465 93.4701 -12.7239 0.00310555 -0.997444 0.0713826
-39.2683 93.3897 -13.5984 -0.012606 -0.989057 0.146994
-40.4469 93.4045 -13.6019 -0.0183367 -0.984703 0.173275
-41.8241 93.4769 -13.6158 -0.0795155 -0.987591 0.135427
-42.9465 93.544 -13.6275 -0.0695161 -0.990659 0.11731
-44.0394 93.6291 -13.6413 -0.0556976 -0.994451 0.089244
-45.3872 93.748 -13.6551 -0.146086 -0.988663 0.0346958
-45.6822 93.7915 -13.658 -0.146086 -0.988663 0.0346958
-45.3851 93.6607 -14.542 -0.119342 -0.985283 0.122375
-43.7727 93.501 -14.5172 -0.0701343 -0.98663 0.147114
-42.6981 93.4232 -14.5008 -0.0695166 -0.990659 0.11731
-41.4658 93.3087 -14.4787 -0.0984841 -0.983639 0.150845
-40.4408 93.2522 -14.4668 -0.0213459 -0.98427 0.175377
-39.3425 93.226 -14.461 -0.0243634 -0.983824 0.177472
-39.122 93.2246 -14.4606 0.00116131 -0.98213 0.188201
-39.0492 93.0633 -15.3226 -0.0175911 -0.976707 0.213856
-40.7355 93.081 -15.3269 -0.0566782 -0.970034 0.236267
-42.2718 93.2166 -15.3582 -0.0856848 -0.974707 0.206408
-43.3343 93.3337 -15.3846 -0.118156 -0.973167 0.197445
-44.7464 93.4662 -15.4158 -0.125846 -0.983551 0.129577
-45.1035 93.5109 -15.4235 -0.125849 -0.98355 0.129581
-44.8029 93.2635 -16.2818 -0.0762027 -0.95336 0.292057
-43.2546 93.1307 -16.2446 -0.0712902 -0.931913 0.355606
-42.2409 93.0318 -16.2183 -0.10194 -0.974074 0.20196
-40.5974 92.8715 -16.1782 -0.10244 -0.969637 0.22206
-39.556 92.8497 -16.1721 -0.0107937 -0.968202 0.249936
-39.4752 92.8488 -16.1719 -0.0161633 -0.967198 0.253508
-40.0803 92.6362 -17.0218 -0.0161637 -0.9672 0.2535
-41.2004 92.694 -17.0357 -0.0397115 -0.927999 0.370461
-42.2367 92.735 -17.0442 -0.0607004 -0.926498 0.371371
-43.3686 92.8231 -17.0736 -0.0764883 -0.9283 0.363879
-44.4349 92.9303 -17.1115 -0.12634 -0.931469 0.341181
-44.5588 92.9453 -17.1165 -0.126339 -0.931469 0.34118
-44.2243 92.5462 -17.9141 -0.116124 -0.903585 0.412371
-43.1325 92.4707 -17.8847 -0.0697775 -0.918903 0.388262
-41.7066 92.3882 -17.856 -0.0454537 -0.923244 0.381515
-40.3094 92.3188 -17.8361 -0.0221016 -0.921401 0.387985
-39.3721 92.3194 -17.8408 -0.0284158 -0.935249 0.352847
-39.5491 91.9865 -18.6511 0.00700491 -0.923669 0.383128
-41.3697 92.0267 -18.658 -0.0511905 -0.918324 0.392506
-42.4522 92.0171 -18.6437 -0.0393901 -0.866577 0.497487
-43.5555 92.1202 -18.6923 -0.102312 -0.855212 0.508079
-44.4533 91.7058 -19.4675 -0.0523687 -0.820837 0.568756
-43.3973 91.6553 -19.4431 -0.0774138 -0.838797 0.538912
-41.8424 91.6018 -19.4226 0.0236962 -0.874301 0.484805
-40.6351 91.6116 -19.4363 0.0286266 -0.842498 0.537938
-39.7538 91.6113 -19.4427 -0.0201556 -0.886205 0.462854
-39.9585 91.1715 -20.2012 0.05359 -0.844306 0.533175
-41.3193 91.1348 -20.1702 0.00364415 -0.840143 0.542353
-42.8329 91.1124 -20.1441 -0.0112384 -0.801959 0.597273
-43.8791 91.172 -20.1778 -0.0648069 -0.795161 0.602926
-44.1965 91.1896 -20.1887 -0.0586017 -0.8082 0.585985
-44.1085 90.6516 -20.8889 -0.0346479 -0.772154 0.63449
-42.9736 90.5893 -20.8491 -0.0112377 -0.801956 0.597278
-41.2457 90.6433 -20.8993 0.0296823 -0.7883 0.614574
-40.7963 90.6534 -20.9089 0.041 -0.781161 0.622981
-41.251 90.081 -21.5765 0.0169681 -0.769347 0.638605
-42.8329 90.064 -21.555 0.0315266 -0.744805 0.666538
-44.0073 90.0644 -21.5485 -0.00753785 -0.727751 0.685799
-46.1633 93.7894 -10.9934 -0.0750435 -0.993594 -0.0844955
-44.7459 93.6881 -10.9941 -0.0210172 -0.999061 -0.0378899
-43.6731 93.6626 -10.9895 -0.034842 -0.998355 -0.0455272
-42.2881 93.6019 -10.9838 -0.0369892 -0.998574 -0.0384929
-41.0791 93.5804 -10.9773 -0.014988 -0.999067 -0.0404942
-40.0675 93.5782 -10.9721 0.0325213 -0.999456 -0.00549659
-39.8602 93.5792 -10.0914 0.0370035 -0.999287 -0.00749426
-40.8766 93.5416 -10.0969 0.011013 -0.999651 -0.0240076
-42.6059 93.5817 -10.1048 -0.0304204 -0.998961 -0.0339238
-44.0802 93.6309 -10.1101 -0.0261303 -0.998506 -0.0479997
-45.2346 93.6366 -10.1164 0.0030088 -0.990151 -0.139974
-46.2995 93.6977 -10.1147 -0.0749699 -0.981855 -0.174185
-46.6458 93.7237 -10.112 -0.0749664 -0.981856 -0.174183
-46.0276 93.5229 -9.24601 -0.0412263 -0.987008 -0.155291
-44.9082 93.514 -9.24219 0.00300625 -0.99015 -0.139981
-43.7304 93.5287 -9.23334 0.0193338 -0.990533 -0.135907
-42.5041 93.5274 -9.22503 -0.018232 -0.992402 -0.12168
-41.4516 93.5075 -9.22041 0.0162388 -0.99552 -0.0931416
-40.4024 93.5475 -9.21315 0.0367976 -0.997648 -0.0578334
-40.305 93.551 -9.21258 0.0368013 -0.997648 -0.0578351
-40.8256 93.4809 -8.33461 0.0367976 -0.997648 -0.0578334
-41.9118 93.4276 -8.34569 0.0506738 -0.996635 -0.0644221
-43.091 93.4313 -8.35285 0.00349862 -0.992166 -0.124879
-44.3645 93.4005 -8.36551 0.0467383 -0.986033 -0.159858
-45.4214 93.3857 -8.37348 -0.010311 -0.976639 -0.214638
-46.5049 93.3918 -8.3771 -0.0217834 -0.96317 -0.268011
-45.8726 93.1892 -7.51735 0.0314119 -0.967462 -0.251058
-44.4491 93.2258 -7.50214 0.0681783 -0.979128 -0.191469
-43.0287 93.3198 -7.47714 0.0467321 -0.986032 -0.159863
-41.7306 93.3796 -7.46089 0.0506741 -0.996635 -0.0644259
-41.5284 93.3897 -7.45883 0.050674 -0.996635 -0.0644259
-40.9311 93.2928 -6.57636 0.0936195 -0.986151 -0.136902
-42.3255 93.2111 -6.59426 0.0598189 -0.98394 -0.168175
-43.3589 93.1087 -6.61899 0.0858425 -0.974771 -0.206042
-44.8082 93.0213 -6.64607 0.0870657 -0.967854 -0.235961
-45.9109 92.9578 -6.6681 0.0242828 -0.956813 -0.289687
-46.1763 92.952 -6.67121 0.0242836 -0.956814 -0.289683
-46.4948 92.6752 -5.83692 0.0891595 -0.934696 -0.344084
-45.1524 92.7585 -5.80395 0.111224 -0.960712 -0.254285
-44.0984 92.8712 -5.76873 0.0870578 -0.967854 -0.235965
-43.013 92.9718 -5.73955 0.108817 -0.97484 -0.194538
-41.988 93.081 -5.71339 0.0843516 -0.97978 -0.181428
-41.1051 93.1762 -5.69525 0.127218 -0.986265 -0.105345
-41.4996 93.0004 -4.82174 0.135583 -0.979011 -0.152168
-43.2305 92.7675 -4.87493 0.108469 -0.972712 -0.205099
-44.4769 92.5888 -4.92758 0.10794 -0.953859 -0.280182
-45.5252 92.4813 -4.96564 0.138005 -0.943763 -0.300444
-46.4867 92.3638 -5.01124 0.0856749 -0.925897 -0.367933
-46.5355 92.0333 -4.19111 0.126919 -0.930168 -0.344498
-44.8717 92.2974 -4.0877 0.138005 -0.943763 -0.300443
-43.8333 92.4538 -4.03639 0.173051 -0.953009 -0.24865
-42.8032 92.628 -3.98731 0.14087 -0.963638 -0.227064
-41.9267 92.7712 -3.95405 0.172866 -0.966945 -0.187445
-42.0408 92.5799 -3.07265 0.172867 -0.966945 -0.187441
-43.1609 92.3213 -3.13924 0.204026 -0.945474 -0.253877
-44.2838 92.1344 -3.19725 0.197372 -0.937082 -0.287962
-45.2933 91.927 -3.27098 0.166929 -0.925698 -0.339438
-46.3417 91.763 -3.33916 0.206652 -0.908599 -0.362965
-46.7365 91.3147 -2.55711 0.245874 -0.889298 -0.38561
-45.7256 91.5495 -2.45403 0.206655 -0.908601 -0.362958
-44.7162 91.7611 -2.37186 0.222888 -0.92679 -0.302294
-43.7157 91.9778 -2.29832 0.197372 -0.937082 -0.287962
-42.565 92.2424 -2.2205 0.236104 -0.943119 -0.234053
-42.5064 92.2562 -2.21693 0.236104 -0.943119 -0.234053
-42.065 92.1204 -1.30381 0.268431 -0.936361 -0.226215
-43.2158 91.8518 -1.38197 0.236171 -0.937729 -0.254732
-44.2165 91.5785 -1.47098 0.278013 -0.921102 -0.272544
-45.2174 91.3598 -1.55231 0.258719 -0.906838 -0.332731
-46.1971 91.0809 -1.66663 0.27018 -0.890622 -0.365779
-47.1481 90.8623 -1.76944 0.278436 -0.873311 -0.399752
-47.4634 90.3689 -0.981944 0.310032 -0.864717 -0.395151
-45.8528 90.8466 -0.769766 0.294001 -0.896367 -0.331799
-44.7252 91.1735 -0.642195 0.296085 -0.903045 -0.311197
-43.0164 91.6478 -0.481067 0.279689 -0.915557 -0.289015
-41.919 91.9729 -0.384032 0.300193 -0.933255 -0.197279
-41.7051 91.7912 0.534853 0.30826 -0.914561 -0.261827
-43.3365 91.2733 0.372593 0.321143 -0.90869 -0.266738
-44.6169 90.8987 0.241274 0.31081 -0.896083 -0.31691
-45.6253 90.5903 0.124311 0.302423 -0.896283 -0.324372
-47.0623 90.119 -0.0715479 0.360419 -0.863811 -0.352036
-47.8246 89.8731 -0.180448 0.36164 -0.843246 -0.397684
-48.1566 89.3657 0.634257 0.391711 -0.858189 -0.331775
-47.2275 89.7188 0.780588 0.359927 -0.874883 -0.324086
-45.778 90.2395 0.986572 0.335698 -0.888358 -0.313252
-44.8082 90.5357 1.09881 0.310257 -0.901058 -0.303044
-43.8427 90.8411 1.20823 0.324754 -0.90137 -0.286473
-42.2556 91.3547 1.38017 0.324253 -0.902235 -0.28431
-41.9708 91.4477 1.41131 0.341889 -0.89378 -0.290293
-41.0103 91.4974 2.41939 0.363263 -0.884127 -0.293868
-41.9767 91.165 2.30616 0.325579 -0.902204 -0.282891
-43.1001 90.7987 2.18151 0.324254 -0.902234 -0.284311
-44.1026 90.4725 2.06834 0.326581 -0.900474 -0.287213
-45.0843 90.153 1.95395 0.318444 -0.900822 -0.295149
-46.0974 89.7991 1.82204 0.360834 -0.874851 -0.323162
-47.1078 89.4342 1.68184 0.360382 -0.874869 -0.323619
-48.0644 89.0598 1.53836 0.392872 -0.858185 -0.33041
-49.041 88.67 1.38944 0.391716 -0.858186 -0.331778
-49.5065 88.2266 2.24908 0.424525 -0.881062 -0.208586
-47.853 88.8709 2.48103 0.389281 -0.885849 -0.252451
-46.8959 89.2497 2.61796 0.373024 -0.893731 -0.249195
-45.895 89.6119 2.75245 0.358774 -0.901052 -0.243695
-44.8462 89.9545 2.87779 0.324648 -0.904918 -0.275186
-43.8668 90.2735 2.99041 0.321254 -0.904363 -0.280933
-42.6119 90.6725 3.12925 0.326342 -0.899764 -0.289699
-41.2744 91.1175 3.28572 0.336218 -0.902058 -0.270646
-40.2424 91.4651 3.41739 0.362254 -0.876163 -0.317979
-38.7357 91.657 4.51533 0.337215 -0.87917 -0.33667
-40.0364 91.2542 4.3476 0.31776 -0.900984 -0.295392
-41.3247 90.83 4.18162 0.336218 -0.902056 -0.270651
-42.3539 90.4794 4.05511 0.328684 -0.908264 -0.258889
-43.668 90.0658 3.90831 0.315216 -0.915771 -0.249002
-45.1937 89.5799 3.73812 0.330135 -0.917265 -0.22279
-46.4596 89.1606 3.58874 0.312311 -0.928998 -0.198558
-47.3984 88.8071 3.46142 0.367466 -0.919367 -0.140473
-48.9086 88.2046 3.2557 0.389379 -0.90054 -0.19342
-49.8838 87.8368 3.12784 0.424523 -0.881062 -0.208589
-50.7738 87.3815 2.98799 0.437954 -0.886646 -0.148511
-58.332 81.5602 16.8385 0.757943 -0.611363 -0.227501
-57.5922 82.3925 17.1142 0.763968 -0.602986 -0.229698
-56.888 83.1954 17.3624 0.73104 -0.64747 -0.215319
-56.1162 83.901 17.5795 0.691196 -0.692503 -0.206607
-55.3305 84.6434 17.808 0.700285 -0.697894 -0.150149
-54.0588 85.7524 18.1313 0.630649 -0.75491 -0.17998
-52.9968 86.4446 18.3285 0.55432 -0.807175 -0.202972
-52.0851 86.9801 18.4731 0.397051 -0.891421 -0.218448
-51.0122 87.3216 18.5827 0.31455 -0.934161 -0.168529
-49.9523 87.7213 18.7017 0.329257 -0.939164 -0.0977795
-48.87 88.0292 18.8009 0.278757 -0.95801 -0.0671688
-47.8112 88.2321 18.8772 0.193217 -0.974096 -0.117493
-46.65 88.401 18.9487 0.0722931 -0.987937 -0.136946
-45.2917 88.4977 19.0229 0.118306 -0.986215 -0.115686
-43.8971 88.6621 19.0694 0.0326929 -0.997581 -0.0613486
-42.6778 88.6151 19.0787 -0.0244514 -0.995393 -0.0927102
-41.5098 88.6086 19.0756 -0.00131797 -0.994803 -0.101807
-40.4256 88.6078 19.0695 -0.0105541 -0.995424 -0.094975
-39.2731 88.5534 19.0626 -0.0723268 -0.977305 -0.199109
-37.9258 88.4552 19.048 -0.0948948 -0.977586 -0.187937
-36.7943 88.3299 19.0119 -0.113884 -0.977839 -0.175672
-35.7163 88.2055 18.9678 -0.145052 -0.958164 -0.24674
-34.2548 88.0532 18.9 -0.111471 -0.959292 -0.259486
-33.2011 87.9021 18.8351 -0.170577 -0.93496 -0.311053
-32.1684 87.7689 18.7693 -0.141486 -0.931944 -0.333861
-32.2617 87.4731 19.6344 -0.178903 -0.915771 -0.359662
-33.3624 87.6642 19.7212 -0.199428 -0.936695 -0.287805
-34.876 87.8802 19.8222 -0.118323 -0.961101 -0.249568
-36.4399 88.0936 19.9156 -0.171671 -0.954528 -0.243731
-37.8876 88.2613 19.9801 -0.07586 -0.976831 -0.200116
-39.484 88.376 20.0097 -0.0913837 -0.979518 -0.179426
-40.5314 88.4889 20.0401 -0.0574396 -0.98795 -0.143722
-41.9175 88.4937 20.0499 -0.00701055 -0.992049 -0.125653
-43.4624 88.5349 20.0502 -0.0399757 -0.989179 -0.141164
-44.5666 88.488 20.0305 0.114511 -0.980414 -0.160233
-45.9161 88.334 19.9876 0.0851449 -0.989953 -0.112882
-47.0925 88.2324 19.9333 0.170075 -0.970708 -0.169707
-48.1892 88.02 19.8666 0.187228 -0.955388 -0.22843
-49.3306 87.8137 19.794 0.255115 -0.930742 -0.261985
-50.327 87.429 19.6865 0.378485 -0.916711 -0.128022
-51.2649 87.057 19.5781 0.346775 -0.926137 -0.148383
-52.4255 86.4901 19.4105 0.47513 -0.838762 -0.26595
-53.3623 85.9606 19.255 0.571361 -0.792914 -0.211742
-54.2384 85.3515 19.0679 0.588078 -0.778201 -0.220378
-55.0145 84.731 18.8749 0.700286 -0.697894 -0.150144
-55.8386 83.8943 18.6067 0.728503 -0.665821 -0.16114
-56.6223 83.1571 18.3795 0.731041 -0.647468 -0.215324
-57.2932 82.3854 18.1451 0.768187 -0.600043 -0.223242
-57.9919 81.5909 17.8891 0.757943 -0.611365 -0.2275
-58.4255 81.1216 17.7329 0.751832 -0.619676 -0.225279
-58.3536 80.8236 18.7061 0.752721 -0.609381 -0.249128
-57.4517 81.8201 19.0067 0.771873 -0.578122 -0.26455
-56.5592 82.8665 19.324 0.760752 -0.583003 -0.285242
-55.7142 83.7421 19.6023 0.721919 -0.639847 -0.263493
-54.9551 84.4957 19.8521 0.710451 -0.648061 -0.274365
-53.7397 85.4126 20.1599 0.587432 -0.776255 -0.228805
-52.7845 85.9738 20.3325 0.485658 -0.822096 -0.297144
-51.7968 86.481 20.4861 0.472483 -0.832374 -0.28968
-50.8976 86.9221 20.62 0.455226 -0.837365 -0.302637
-49.9683 87.282 20.7252 0.345626 -0.896577 -0.276934
-48.9535 87.6119 20.8245 0.321384 -0.900192 -0.293883
-47.9181 87.8282 20.8909 0.214235 -0.953691 -0.211132
-46.9223 88.0669 20.9579 0.241021 -0.951012 -0.193612
-45.8367 88.2002 21.0031 0.0981146 -0.984586 -0.14479
-44.3745 88.3096 21.0196 0.0666793 -0.984246 -0.16375
-43.2462 88.3865 21.0289 0.0187158 -0.984959 -0.171771
-41.9564 88.3716 21.0307 -0.00968459 -0.992247 -0.123905
-40.8424 88.3641 21.0224 -0.0574433 -0.987949 -0.143723
-39.7014 88.2427 20.9796 -0.123768 -0.972687 -0.196372
-38.4039 88.099 20.9224 -0.0789243 -0.970864 -0.226263
-37.2951 88.0133 20.8854 -0.0825519 -0.971709 -0.221284
-35.6143 87.7289 20.7627 -0.176707 -0.956474 -0.232234
-33.8122 87.441 20.6239 -0.174974 -0.921554 -0.346585
-32.7569 87.2477 20.5361 -0.216113 -0.915907 -0.338244
-32.3483 87.1596 20.493 -0.232339 -0.909529 -0.344638
-33.1625 87.0075 21.4345 -0.243836 -0.865685 -0.437188
-34.3615 87.2117 21.5408 -0.182559 -0.927906 -0.325058
-35.5338 87.4049 21.6477 -0.208373 -0.923475 -0.32214
-37.1167 87.7555 21.7997 -0.241114 -0.92006 -0.308795
-38.5379 87.883 21.8724 -0.0752821 -0.969981 -0.231236
-39.6079 87.9996 21.9301 -0.136971 -0.962824 -0.232828
-40.8558 88.1353 21.9891 -0.0448149 -0.952422 -0.301469
-42.7723 88.0933 22.0002 0.0220533 -0.951672 -0.306324
-44.0965 88.1603 22.0302 0.00319567 -0.975255 -0.221062
-45.3527 88.0684 22.0269 0.0752795 -0.983049 -0.167173
-46.5062 87.9306 21.9952 0.21289 -0.915874 -0.34037
-47.4968 87.6887 21.9253 0.246033 -0.914068 -0.322408
-48.5339 87.4472 21.8569 0.266328 -0.926213 -0.266831
-49.55 87.114 21.7617 0.322553 -0.919484 -0.224743
-50.5415 86.7656 21.6566 0.431977 -0.869205 -0.240581
-52.1669 85.9589 21.4065 0.492396 -0.837953 -0.235332
-53.133 85.4192 21.2398 0.49867 -0.811543 -0.304508
-54.1162 84.8587 21.0727 0.64552 -0.718867 -0.25794
-55.2646 83.793 20.7105 0.71045 -0.648065 -0.274358
-56.1993 82.7843 20.3653 0.752267 -0.584055 -0.304916
-56.8724 82.0488 20.1278 0.749192 -0.587551 -0.305769
-58.0587 80.7444 19.7233 0.744759 -0.611013 -0.268323
-58.1271 80.6707 19.7007 0.745447 -0.608293 -0.272558
-57.981 80.4154 20.6702 0.738822 -0.610961 -0.284374
-57.0829 81.357 20.9659 0.746561 -0.59667 -0.294332
-56.1789 82.3273 21.2918 0.747896 -0.592129 -0.300058
-54.9411 83.5752 21.7178 0.718147 -0.588715 -0.371053
-54.2089 84.2521 21.947 0.665381 -0.637014 -0.389206
-53.4234 84.9393 22.1652 0.589708 -0.73637 -0.33167
-52.4653 85.4797 22.334 0.523325 -0.813972 -0.25215
-51.5933 85.9881 22.5029 0.492396 -0.837953 -0.235332
-50.6591 86.4177 22.6373 0.402772 -0.876783 -0.26273
-49.7391 86.8044 22.7573 0.363101 -0.899224 -0.244038
-48.7239 87.0818 22.8307 0.208777 -0.928331 -0.307594
-47.7303 87.2871 22.8856 0.227455 -0.921409 -0.315071
-46.1712 87.6151 22.9713 0.179434 -0.916381 -0.35784
-45.1129 87.7647 23.0015 0.0967055 -0.930964 -0.352072
-43.7309 87.8226 22.992 -0.0277472 -0.934448 -0.355017
-42.6835 87.8015 22.9655 -0.0440727 -0.947673 -0.316185
-41.5519 87.8062 22.9555 0.0127723 -0.949295 -0.314127
-40.2396 87.7889 22.9166 -0.102246 -0.952229 -0.287761
-39.1664 87.6925 22.8542 -0.154051 -0.924506 -0.34865
-38.1151 87.5873 22.783 -0.115752 -0.946881 -0.300031
-36.9557 87.4219 22.6958 -0.248155 -0.921573 -0.298533
-35.8601 87.1661 22.5748 -0.241114 -0.92006 -0.308795
-34.3774 86.8656 22.4112 -0.255592 -0.85968 -0.442294
-33.3215 86.6202 22.2781 -0.247494 -0.862098 -0.442193
-32.4379 86.4276 22.1762 -0.23938 -0.864452 -0.442063
-32.5817 86.0392 23.0112 -0.246671 -0.852073 -0.461654
-34.0409 86.3616 23.1963 -0.257384 -0.861267 -0.438147
-35.287 86.6516 23.364 -0.261652 -0.862579 -0.433009
-36.726 87.0001 23.5585 -0.268995 -0.859708 -0.434216
-38.0124 87.1835 23.6661 -0.0523457 -0.898805 -0.435212
-39.5793 87.3568 23.796 -0.204754 -0.890164 -0.407042
-41.2838 87.4767 23.9026 0.0305134 -0.934265 -0.355271
-42.6481 87.4499 23.9161 -0.0139843 -0.939443 -0.342419
-44.0545 87.4634 23.9627 0.023749 -0.93095 -0.364375
-45.6284 87.3571 23.9542 0.121722 -0.932889 -0.338971
-47.0425 87.0945 23.894 0.220002 -0.902319 -0.370702
-48.2888 86.8044 23.8214 0.221685 -0.883541 -0.412566
-49.2991 86.5757 23.7684 0.298488 -0.852508 -0.429109
-50.7786 85.9662 23.5812 0.39952 -0.81417 -0.421321
-51.7541 85.5117 23.4268 0.511517 -0.77295 -0.375366
-52.6544 85.0026 23.2483 0.550691 -0.728523 -0.407424
-53.5391 84.2979 23.007 0.661973 -0.632542 -0.402097
-54.4748 83.4826 22.749 0.647654 -0.658876 -0.382659
-55.2388 82.7583 22.5004 0.708809 -0.621979 -0.332765
-55.9502 82.0706 22.2703 0.718287 -0.611711 -0.331471
-56.9549 81.0398 21.9335 0.737245 -0.599122 -0.312285
-57.7248 80.2376 21.672 0.732025 -0.613621 -0.295986
-57.573 79.9434 22.6327 0.714795 -0.617662 -0.327967
-56.7591 80.7578 22.8881 0.726348 -0.605031 -0.326124
-55.9464 81.5901 23.1541 0.72699 -0.603178 -0.328118
-55.0954 82.4188 23.4276 0.703704 -0.622369 -0.342721
-54.2808 83.1686 23.6799 0.632503 -0.68437 -0.362736
-53.496 83.7866 23.8823 0.64765 -0.658878 -0.382661
-52.6196 84.4711 24.1218 0.587359 -0.680792 -0.437643
-51.3014 85.2452 24.4074 0.431645 -0.805568 -0.405886
-49.7699 85.8998 24.6166 0.373162 -0.815392 -0.44259
-48.4493 86.3336 24.7434 0.220761 -0.88339 -0.413385
-47.3094 86.5924 24.7966 0.236582 -0.879386 -0.413169
-45.804 86.9801 24.8982 0.249657 -0.873054 -0.418865
-44.6314 87.0524 24.8991 0.0457628 -0.920071 -0.389069
-42.9578 87.0933 24.87 0.0147926 -0.902024 -0.431432
-41.8621 87.1026 24.8368 0.00826583 -0.937107 -0.348945
-40.4265 86.9959 24.7408 -0.136339 -0.851684 -0.506011
-38.8489 86.821 24.6004 -0.172512 -0.872486 -0.457174
-37.7173 86.6914 24.497 -0.141993 -0.85763 -0.494277
-36.4396 86.4989 24.3735 -0.266555 -0.861019 -0.433122
-35.0152 86.1674 24.1643 -0.261646 -0.862582 -0.433005
-33.9023 85.9037 24.0003 -0.287624 -0.839896 -0.460269
-32.8897 85.6684 23.857 -0.24263 -0.85008 -0.467435
-33.3877 85.3263 24.7254 -0.271179 -0.79237 -0.546454
-34.6473 85.611 24.9125 -0.250587 -0.780654 -0.572525
-36.0316 85.8958 25.1117 -0.24489 -0.776522 -0.580553
-37.2186 86.1336 25.2796 -0.139997 -0.84216 -0.520737
-38.8212 86.3173 25.4318 -0.148058 -0.846104 -0.512042
-40.1919 86.4699 25.5608 -0.148515 -0.849007 -0.50708
-41.2724 86.5881 25.6659 -0.140305 -0.856455 -0.496788
-42.4715 86.6742 25.7629 -0.0869302 -0.855629 -0.510238
-43.7012 86.6519 25.7954 -0.0285547 -0.908396 -0.417135
-44.8227 86.6529 25.8214 0.0906125 -0.900334 -0.425662
-45.9456 86.4934 25.7956 0.135109 -0.877227 -0.460671
-47.0779 86.217 25.723 0.248191 -0.869542 -0.426964
-48.2924 85.9266 25.6543 0.224476 -0.867195 -0.444504
-49.2618 85.5854 25.5555 0.382311 -0.792213 -0.475643
-50.2503 85.1888 25.4346 0.376457 -0.791764 -0.48103
-51.3241 84.7762 25.314 0.396749 -0.803834 -0.443217
-52.2685 84.2085 25.1074 0.603957 -0.697561 -0.385544
-53.5068 83.3006 24.7736 0.628396 -0.683275 -0.371826
-54.3508 82.6424 24.5504 0.668882 -0.654131 -0.353142
-55.3753 81.6575 24.2187 0.70673 -0.61487 -0.349954
-56.1823 80.8561 23.9661 0.715204 -0.605842 -0.348481
-57.0315 80.0065 23.6938 0.706164 -0.643558 -0.295238
-57.3928 79.6729 23.5848 0.696252 -0.668284 -0.261972
-57.2562 79.4173 24.5591 0.682034 -0.670337 -0.292367
-56.4302 80.1651 24.7934 0.693299 -0.660275 -0.288745
-55.5903 80.9454 25.0258 0.704868 -0.633614 -0.318894
-54.8069 81.6895 25.2694 0.681743 -0.61256 -0.399996
-53.7724 82.5917 25.5863 0.649929 -0.640947 -0.408387
-52.9147 83.2711 25.8284 0.61434 -0.694124 -0.375205
-51.5634 84.1502 26.1511 0.44868 -0.743055 -0.496544
-50.0364 84.7508 26.322 0.365135 -0.786127 -0.498679
-48.9862 85.1853 26.4574 0.388149 -0.792605 -0.470231
-48.0107 85.5342 26.5621 0.237442 -0.867845 -0.436425
-46.3694 85.9549 26.6686 0.248199 -0.869541 -0.42696
-45.1161 86.1059 26.6921 0.0917999 -0.845154 -0.526582
-43.9621 86.1715 26.6799 0.0176777 -0.843726 -0.536484
-42.5832 86.1677 26.6313 -0.0657279 -0.82975 -0.554252
-41.3995 86.1012 26.5412 -0.113661 -0.856366 -0.503704
-39.9324 85.9392 26.3781 -0.15454 -0.850318 -0.503068
-38.5571 85.7822 26.2336 -0.153624 -0.84453 -0.513
-37.3889 85.6446 26.1163 -0.210459 -0.81321 -0.542583
-35.9068 85.3061 25.8477 -0.262295 -0.777996 -0.570897
-34.5627 85.038 25.6486 -0.240025 -0.779226 -0.57896
-34.1475 84.9561 25.5866 -0.250588 -0.780658 -0.57252
-35.2118 84.5976 26.4827 -0.236195 -0.762304 -0.602582
-36.2537 84.8031 26.65 -0.277006 -0.744027 -0.608023
-37.7433 85.0827 26.8918 -0.18773 -0.73015 -0.656993
-38.9401 85.2466 27.0407 -0.203679 -0.738272 -0.643016
-39.9703 85.392 27.1854 -0.166421 -0.767345 -0.619262
-41.0097 85.506 27.3234 -0.178687 -0.77082 -0.61148
-42.1301 85.5574 27.4174 -0.0443228 -0.801336 -0.59657
-43.2606 85.5794 27.4766 -0.0564441 -0.801572 -0.595228
-44.4427 85.6087 27.5492 -0.0194085 -0.823754 -0.566616
-45.6915 85.4908 27.5332 0.1661 -0.792405 -0.586946
-46.6763 85.3108 27.4975 0.195162 -0.795455 -0.573728
-47.9121 85.0155 27.4238 0.26201 -0.779653 -0.568764
-49.5453 84.4071 27.2331 0.391574 -0.772312 -0.500204
-50.5367 84.0166 27.1131 0.365236 -0.786148 -0.498572
-51.97 83.3199 26.8878 0.532131 -0.684003 -0.498975
-53.3582 82.3792 26.5532 0.601767 -0.627843 -0.493649
-54.4495 81.4605 26.2291 0.670994 -0.635948 -0.381232
-55.2484 80.7877 25.9979 0.656802 -0.661155 -0.362609
-56.2492 79.9367 25.7505 0.674264 -0.662529 -0.326226
-57.0166 79.2317 25.5437 0.675687 -0.679907 -0.284908
-57.2958 78.9888 25.4735 0.669219 -0.689347 -0.277391
-57.2971 78.6608 26.4193 0.672518 -0.708107 -0.215185
-56.5125 79.2837 26.5741 0.627299 -0.71995 -0.296932
-55.2736 80.2877 26.8663 0.648663 -0.685115 -0.331442
-54.3853 81.0211 27.1126 0.644964 -0.653791 -0.3957
-53.2884 81.8125 27.3653 0.564191 -0.706406 -0.42741
-51.8955 82.7657 27.7023 0.533316 -0.673848 -0.511373
-50.6178 83.4394 27.9366 0.371366 -0.764249 -0.527267
-49.4164 83.9176 28.0897 0.363201 -0.762281 -0.535736
-48.4528 84.2318 28.1762 0.299515 -0.760182 -0.576554
-47.4865 84.5367 28.2762 0.262011 -0.779653 -0.568763
-46.229 84.7839 28.3354 0.15596 -0.780818 -0.604979
-45.1363 84.9628 28.3703 0.124621 -0.765699 -0.631011
-43.8046 84.9958 28.3154 -0.0568554 -0.803055 -0.593187
-42.6521 84.968 28.2477 -0.0370342 -0.79159 -0.609929
-41.4748 84.9588 28.1724 -0.118025 -0.789865 -0.601817
-40.3821 84.819 28.006 -0.178688 -0.770819 -0.611481
-39.3622 84.6898 27.8497 -0.225321 -0.743703 -0.629393
-38.3587 84.53 27.6793 -0.203675 -0.738275 -0.643013
-37.3684 84.393 27.5448 -0.193562 -0.727921 -0.657773
-36.2311 84.218 27.3805 -0.232256 -0.727893 -0.645158
-35.8288 84.1414 27.3123 -0.246388 -0.762601 -0.598107
-36.4822 83.5966 28.0816 -0.217283 -0.690552 -0.689874
-37.4693 83.7445 28.2316 -0.206056 -0.692929 -0.690935
-38.7939 83.9553 28.4638 -0.234471 -0.704173 -0.670197
-39.7896 84.114 28.6454 -0.227997 -0.702512 -0.674162
-41.0191 84.2768 28.844 -0.192135 -0.717394 -0.669649
-42.0798 84.3697 28.9714 -0.0700518 -0.74899 -0.658867
-43.4872 84.3997 29.0751 -0.0876184 -0.787128 -0.610534
-44.7669 84.3658 29.1421 0.103447 -0.762202 -0.63902
-46.4095 84.1274 29.1037 0.132955 -0.785094 -0.604938
-47.8304 83.8541 29.0471 0.272475 -0.779615 -0.563878
-49.0978 83.46 28.9282 0.295497 -0.786741 -0.54196
-50.0645 83.1 28.8091 0.354983 -0.760204 -0.54413
-51.6131 82.3448 28.544 0.530816 -0.67322 -0.51479
-53.0248 81.4842 28.2559 0.54963 -0.703056 -0.451241
-54.0208 80.8146 28.0478 0.605358 -0.680976 -0.412084
-55.523 79.7107 27.6833 0.585313 -0.727217 -0.358558
-56.5694 78.8835 27.4536 0.611993 -0.733992 -0.294482
-57.0434 78.5234 27.366 0.611996 -0.73399 -0.294481
-57.4445 77.9328 28.2026 0.594651 -0.774458 -0.215882
-56.1092 78.897 28.4218 0.570607 -0.77914 -0.259516
-55.0771 79.6067 28.6336 0.587966 -0.738697 -0.329579
-54.1172 80.2736 28.8515 0.54532 -0.751138 -0.372044
-53.1154 80.891 29.0275 0.534634 -0.69915 -0.474717
-52.2435 81.4416 29.1985 0.525598 -0.705287 -0.475727
-51.2595 82.0124 29.413 0.471837 -0.703984 -0.530826
-50.0129 82.5484 29.5954 0.362397 -0.728985 -0.580732
-48.9258 82.9628 29.7437 0.325414 -0.773884 -0.543332
-47.5598 83.3351 29.8467 0.249161 -0.771661 -0.585199
-46.5111 83.539 29.886 0.120084 -0.800811 -0.586755
-45.2524 83.6858 29.8834 0.104067 -0.768814 -0.630948
-43.8219 83.7838 29.8418 -0.0731308 -0.721948 -0.688072
-42.781 83.7452 29.7404 -0.106563 -0.726326 -0.679039
-41.2423 83.6483 29.5815 -0.151325 -0.715977 -0.681526
-39.7658 83.4423 29.3318 -0.221518 -0.700805 -0.678087
-38.0655 83.1814 29.0254 -0.231604 -0.7055 -0.669798
-37.8045 83.14 28.9788 -0.231602 -0.7055 -0.669799
-38.2827 82.5383 29.7452 -0.238436 -0.68163 -0.691758
-39.2899 82.6936 29.9303 -0.22574 -0.680777 -0.696839
-40.3211 82.8447 30.1133 -0.223495 -0.682096 -0.696272
-41.3144 82.9809 30.2782 -0.159324 -0.688797 -0.707231
-42.7754 83.0825 30.4421 -0.123748 -0.712739 -0.690427
-44.0527 83.1049 30.5521 -0.0532032 -0.713199 -0.698939
-45.1939 83.0816 30.6293 0.0896591 -0.773152 -0.627851
