-58.6571 80.4382 26.8533 0.750529 -0.628379 -0.202217
-58.6914 80.1005 27.9501 0.74066 -0.650843 -0.165784
-58.7129 79.8106 29.4914 0.683512 -0.713802 -0.11987
-58.7248 79.5275 30.7326 0.615136 -0.765293 -0.188434
-58.3024 79.6487 31.6304 0.564875 -0.820854 -0.0843527
-57.6243 79.756 33.3562 0.482422 -0.85074 -0.208592
-56.8297 79.9575 34.7212 0.381743 -0.907214 -0.164673
-56.1864 79.9912 35.6937 0.330309 -0.929795 -0.160894
-55.4514 80.1223 36.5919 0.336899 -0.931103 -0.139807
-54.6693 80.2025 37.2711 0.237392 -0.961297 -0.135956
-53.7324 80.3485 37.9154 0.135953 -0.980785 -0.139919
-52.5028 80.4106 38.6828 0.121616 -0.981515 -0.146697
-51.233 80.2983 39.6062 -0.00584436 -0.988298 -0.152423
-50.0205 80.1779 40.1546 -0.029022 -0.984753 -0.171257
-48.4441 79.9919 40.4832 -0.0925367 -0.96911 -0.226233
-46.4456 79.7878 40.3682 -0.172159 -0.934444 -0.31171
-45.224 79.6748 40.0185 -0.216974 -0.915204 -0.335504
-43.855 79.6291 39.2896 -0.242602 -0.866397 -0.436463
-42.9226 79.5864 38.6088 -0.337995 -0.795406 -0.49477
-42.2216 79.8343 37.9006 -0.311221 -0.757922 -0.57332
-41.5932 80.2495 36.9684 -0.338404 -0.729273 -0.593367
-41.0607 80.6606 36.2174 -0.336467 -0.704936 -0.624384
-40.463 81.1719 35.2599 -0.389586 -0.655658 -0.643811
-39.9709 81.6977 34.5022 -0.401264 -0.609614 -0.683636
-39.517 82.3318 33.7438 -0.343387 -0.582102 -0.736688
-38.9062 82.9843 32.9673 -0.333452 -0.558853 -0.759012
-38.1936 83.5201 32.2823 -0.305444 -0.582215 -0.753479
-37.2421 84.3025 31.3067 -0.293922 -0.570213 -0.767077
-36.5352 84.8452 30.6423 -0.287001 -0.56936 -0.770364
-35.7767 85.4023 29.9251 -0.298377 -0.583926 -0.754985
-35.1509 86.0758 29.1766 -0.28047 -0.613304 -0.737407
-34.1936 87.0453 27.9409 -0.271796 -0.692273 -0.663671
-33.1831 87.8022 26.5286 -0.283959 -0.750072 -0.597293
-32.589 88.2155 25.5642 -0.389332 -0.813625 -0.431782
-31.8548 88.7051 24.0711 -0.337905 -0.833745 -0.436097
-31.3181 89.1329 22.6643 -0.331074 -0.873575 -0.356277
-31.0352 89.4777 21.6015 -0.317507 -0.873904 -0.368077
-30.7181 90.0526 19.7727 -0.261488 -0.906302 -0.330861
-30.5832 90.7161 17.9368 -0.180254 -0.920601 -0.34298
-30.6078 91.0527 16.9005 -0.123362 -0.925189 -0.352602
-30.8147 91.8278 15.0427 -0.0674306 -0.931283 -0.358002
-31.1276 92.2594 14.023 -0.0569758 -0.899108 -0.4303
-31.1905 92.7475 13.1415 0.0449629 -0.889839 -0.436567
-31.1942 93.2959 11.8799 0.159554 -0.90053 -0.404297
-31.2193 94.3725 9.99644 0.306344 -0.800647 -0.514895
-30.7514 94.8943 9.29118 0.364263 -0.864249 -0.346199
-29.7488 95.6491 8.46238 0.399858 -0.857014 -0.325024
-28.7115 96.1632 8.11833 0.335227 -0.897208 -0.287472
-27.461 96.8119 7.55547 0.333617 -0.899103 -0.283354
-25.6458 97.7554 6.70566 0.335875 -0.904401 -0.262634
-24.7805 98.1812 6.29104 0.345276 -0.905154 -0.247335
-24.013 98.6319 5.77057 0.361684 -0.899418 -0.245422
-22.9573 99.0947 5.25791 0.29747 -0.934255 -0.195981
-21.8265 99.5351 4.7545 0.275461 -0.940242 -0.200164
-20.8249 99.9175 4.33731 0.256829 -0.94778 -0.18757
-19.6974 100.411 3.00676 0.192371 -0.96569 -0.174367
-18.5083 100.823 1.89764 0.17184 -0.972561 -0.156662
-17.5712 101.099 0.723668 0.085313 -0.99166 -0.0911727
-16.8769 101.22 -0.211438 0.0535794 -0.994564 -0.0892878
-16.098 101.314 -0.858134 0.0302503 -0.995818 -0.083789
-15.1911 101.376 -1.48277 -0.000427832 -0.998018 -0.0549932
-14.3097 101.381 -2.0309 -0.0108586 -0.999596 -0.0262846
-13.4189 101.253 -2.50807 -0.15406 -0.98801 -0.0101204
-12.4823 101.111 -2.85664 -0.20421 -0.977539 -0.00954764
-10.7433 100.611 -3.28324 -0.273843 -0.960981 0.0331948
-9.14741 100.116 -3.20507 -0.307572 -0.944895 0.103574
-7.95178 99.7795 -3.16174 -0.272845 -0.953596 0.127319
-6.62494 99.2836 -3.12515 -0.334165 -0.91298 0.224061
-5.31081 98.8838 -3.10909 -0.283383 -0.920704 0.268325
-4.39804 98.4321 -3.10952 -0.421872 -0.837588 0.347089
-3.59506 97.7951 -3.59844 -0.487926 -0.769911 0.411046
-3.41999 97.2429 -4.47543 -0.538741 -0.763756 0.355577
-3.95856 97.0293 -5.81351 -0.546068 -0.778428 0.309612
-4.79712 97.2896 -6.8743 -0.572294 -0.779655 0.254112
-5.60711 97.645 -7.77118 -0.567798 -0.801206 0.185305
-6.61408 98.1319 -8.58247 -0.53994 -0.823054 0.176203
-7.47072 98.6318 -9.1498 -0.544107 -0.828236 0.131077
-8.34644 99.107 -9.59536 -0.521587 -0.843986 0.125035
-10.1193 100.233 -10.264 -0.627637 -0.750139 -0.0775711
-10.8358 100.99 -10.329 -0.630889 -0.736238 -0.228661
-12.3216 101.96 -10.6098 -0.418772 -0.849356 -0.321287
-13.2832 102.265 -10.4086 -0.315431 -0.904745 -0.286074
-14.953 102.469 -9.67648 -0.187706 -0.946295 -0.258785
-16.0393 102.536 -9.03886 -0.115368 -0.965162 -0.234845
-17.4771 102.588 -8.46267 -0.0956949 -0.971013 -0.214325
-19.1119 102.238 -7.15931 0.0593552 -0.972038 -0.227199
-19.9547 102.07 -6.5871 0.0500993 -0.976258 -0.210738
-20.8561 101.858 -5.95885 0.0816752 -0.973351 -0.214279
-21.6959 101.656 -5.36115 0.0820265 -0.973136 -0.215123
-22.7285 101.312 -4.67362 0.16801 -0.959055 -0.228003
-23.9543 100.896 -3.82221 0.205361 -0.952768 -0.22374
-24.7826 100.566 -3.16343 0.21351 -0.946307 -0.241704
-26.0934 99.9503 -2.17301 0.258246 -0.933708 -0.247708
-26.9822 99.5058 -1.40395 0.269782 -0.931431 -0.244242
-27.6582 99.1335 -0.724367 0.262865 -0.932485 -0.24772
-28.7232 98.5732 0.210404 0.265904 -0.929259 -0.256461
-29.872 97.9342 1.2205 0.279774 -0.918311 -0.280056
-30.6035 97.4767 1.94056 0.294778 -0.912996 -0.282036
-31.8064 96.7096 3.08958 0.315011 -0.901594 -0.296409
-32.5509 96.2551 3.67064 0.31273 -0.900864 -0.301067
-33.26 95.6813 4.65819 0.308341 -0.902471 -0.300762
-33.9386 95.1983 5.44968 0.287813 -0.906425 -0.308286
-34.9903 94.4902 6.51265 0.275129 -0.905677 -0.322515
-36.1738 93.9328 7.12485 0.258614 -0.913001 -0.315512
-37.1491 93.7209 6.97201 0.243822 -0.923189 -0.297105
-38.3798 93.4649 6.68755 0.271961 -0.927368 -0.256954
-39.5901 93.3113 6.06677 0.234012 -0.939035 -0.251896
-40.4619 93.2846 5.37435 0.242688 -0.935222 -0.257805
-41.3503 93.3575 4.24694 0.24388 -0.936751 -0.251036
-42.2189 93.4805 2.74793 0.300339 -0.915448 -0.267148
-42.5528 93.7439 1.54143 0.308142 -0.908095 -0.283569
-42.524 94.146 0.0811945 0.298017 -0.933025 -0.201619
-42.4922 94.3886 -0.994451 0.279328 -0.939633 -0.196591
-42.3343 94.6181 -2.04684 0.180233 -0.965008 -0.19046
-41.7427 94.9285 -3.46561 0.113781 -0.979454 -0.156939
-41.22 95.2348 -4.79725 0.0630268 -0.984837 -0.161631
-40.8675 95.4341 -5.81866 0.0955064 -0.983932 -0.140894
-40.2522 95.6786 -7.31948 0.029787 -0.987101 -0.1573
-39.8388 95.8618 -8.47098 0.0249491 -0.990342 -0.135518
-39.5122 96.0012 -9.52042 0.0316871 -0.992041 -0.121866
-39.1692 96.0882 -10.6244 -0.0141854 -0.995852 -0.089103
-38.8824 96.1849 -11.649 -0.0356681 -0.996216 -0.0729728
-38.6112 96.2225 -12.7054 -0.0545482 -0.996932 -0.0561433
-38.1686 96.2886 -14.0859 -0.0467301 -0.996533 -0.0688411
-37.788 96.2203 -15.7892 -0.0466316 -0.997403 0.0548808
-37.6201 96.1153 -16.8233 -0.0447556 -0.993119 0.108221
-37.4656 95.9815 -17.9872 -0.0447574 -0.993119 0.108218
-37.4062 95.7904 -18.9972 0.0034997 -0.978043 0.208003
-37.3791 95.5503 -20.0653 0.0214811 -0.965709 0.255063
-37.3595 95.2173 -21.1133 0.0125432 -0.931869 0.362578
-37.4984 94.8265 -22.1127 0.0442415 -0.912123 0.403718
-37.7558 94.3485 -23.0278 0.0747769 -0.891009 0.447772
-37.9173 93.7115 -24.0815 0.0914573 -0.838395 0.537247
-38.1154 93.1292 -24.9422 0.0981591 -0.818919 0.564766
-38.5497 92.4997 -25.7307 0.111612 -0.793737 0.597603
-39.6582 91.3333 -26.8991 0.118717 -0.733312 0.669447
-40.3261 90.7661 -27.3877 0.126533 -0.72838 0.673389
-41.1417 90.2953 -27.7225 0.122609 -0.69177 0.711625
-42.5854 89.6135 -28.1879 0.0846814 -0.685824 0.722824
-43.6251 89.5286 -28.1301 0.094499 -0.668894 0.737318
-44.7377 89.7783 -27.8203 0.0587971 -0.664213 0.743658
-45.2504 90.4233 -27.1419 0.0523026 -0.694214 0.717866
-45.3035 91.2191 -26.3685 0.0522995 -0.694212 0.717868
-45.2724 91.9449 -25.6316 0.0493395 -0.717122 0.695181
-45.2975 92.8638 -24.7388 0.0483526 -0.679722 0.731874
-45.2541 93.7241 -24.0961 -0.20234 -0.625815 0.745007
-45.2982 94.4352 -23.3859 -0.259906 -0.690439 0.675087
-45.5856 95.2412 -22.4838 -0.229838 -0.799012 0.547494
-45.9626 95.8071 -21.7096 -0.286886 -0.824778 0.486943
-46.8706 96.7078 -20.3211 -0.276398 -0.941676 0.182139
-47.4595 96.9698 -19.5475 -0.227349 -0.961767 0.1527
-47.9924 97.1993 -18.7195 -0.223794 -0.9673 0.11936
-48.6533 97.5166 -17.4042 -0.221176 -0.965633 0.136508
-48.8431 97.6399 -16.3544 -0.248752 -0.966718 0.0598196
-48.8076 97.5846 -15.1597 -0.186395 -0.981255 -0.0486687
-48.7574 97.4571 -13.9246 -0.18168 -0.972975 -0.142518
-48.5294 97.2589 -12.8518 -0.190444 -0.965989 -0.171682
-48.5625 96.9898 -11.4107 -0.149465 -0.968187 -0.199093
-48.301 96.7256 -10.4496 -0.15026 -0.962918 -0.224077
-48.0898 96.4227 -9.35181 -0.170042 -0.949704 -0.262962
-47.8816 96.1028 -8.33101 -0.128647 -0.941646 -0.305262
-47.7438 95.5953 -7.09103 -0.0350673 -0.929591 -0.361114
-47.7752 95.1422 -5.8324 0.025693 -0.941779 -0.335234
-47.4313 94.5495 -4.33434 0.0713861 -0.910571 -0.407141
-47.4563 94.1123 -3.20835 0.13468 -0.906519 -0.395679
-47.5692 93.5895 -2.17304 0.185798 -0.907619 -0.376439
-48.0502 92.7526 -0.534179 0.244895 -0.887223 -0.390169
-48.7247 92.0309 0.609913 0.288846 -0.850351 -0.439853
-49.5372 91.2226 1.25926 0.480842 -0.811098 -0.31035
-50.3937 90.6093 1.885 0.455927 -0.872786 -0.174285
-51.0821 90.0834 2.54841 0.561694 -0.820038 -0.0927455
-52.1108 89.4364 3.45948 0.515283 -0.85689 -0.014909
-52.9226 88.9716 4.07773 0.494088 -0.869401 -0.00428281
-53.9769 88.5303 5.15521 0.45357 -0.882529 0.124164
-54.7586 88.2237 6.18759 0.507906 -0.848465 0.147403
-56.1245 87.7017 7.87678 0.534487 -0.828364 0.167485
-56.7283 87.4794 8.66109 0.560771 -0.812585 0.154322
-57.4332 87.0821 9.39824 0.589638 -0.795325 0.140661
-58.1376 86.6792 10.4481 0.629481 -0.773802 0.0697744
-58.612 86.3494 11.4986 0.672471 -0.740113 -0.003961
-59.177 85.8259 12.7799 0.706137 -0.697497 -0.08222
-59.6786 85.1332 13.6295 0.774732 -0.632149 -0.0133701
-60.0874 84.4077 14.8239 0.816325 -0.560225 -0.140579
-60.2877 83.5994 16.4764 0.828728 -0.525232 -0.193218
-60.2879 83.5899 16.5011 0.827676 -0.525989 -0.195674
-59.1814 85.1254 17.0133 0.822654 -0.534286 -0.194366
-58.501 86.09 17.3379 0.840895 -0.522846 -0.139745
-57.8368 87.0127 17.6457 0.776205 -0.627411 -0.0621318
-56.7586 88.0173 17.9708 0.656079 -0.715182 -0.240989
-55.688 88.8823 18.255 0.615855 -0.774224 -0.145947
-54.5859 89.4621 18.4594 0.422365 -0.892606 -0.157679
-53.5132 89.9719 18.6253 0.497657 -0.85601 -0.139941
-52.5951 90.4753 18.7654 0.379455 -0.906537 -0.184942
-51.2227 90.8288 18.9012 0.258233 -0.960435 -0.104307
-49.8455 91.2134 19.0506 0.280389 -0.955519 -0.0914666
-48.7755 91.3861 19.1368 0.126987 -0.98597 -0.108336
-47.2932 91.5775 19.2221 0.149778 -0.984428 -0.0920206
-45.9444 91.7651 19.2848 0.0977775 -0.991538 -0.0853909
-44.7451 91.8556 19.315 0.0578905 -0.994349 -0.0889828
-43.4681 91.8698 19.335 0.0239352 -0.99059 -0.134756
-42.3934 91.9237 19.3512 0.0327393 -0.994167 -0.102765
-40.973 91.8857 19.3631 -0.0744641 -0.989133 -0.126771
-39.8951 91.8111 19.3628 -0.0451373 -0.99068 -0.128514
-38.1281 91.7333 19.3414 -0.0482178 -0.991376 -0.121859
-36.9439 91.59 19.2873 -0.140318 -0.967349 -0.21106
-35.8409 91.441 19.2368 -0.150788 -0.967254 -0.204163
-34.7127 91.2466 19.1759 -0.180192 -0.961803 -0.206073
-33.5511 91.0442 19.1048 -0.173586 -0.96171 -0.212091
-32.4911 90.7975 19.021 -0.256913 -0.916454 -0.30677
-32.0458 90.6864 18.98 -0.256917 -0.916453 -0.30677
-32.1861 90.4294 19.8653 -0.27086 -0.920108 -0.282907
-33.295 90.74 19.9769 -0.288601 -0.922121 -0.257687
-35.1992 91.1596 20.1297 -0.1787 -0.968305 -0.174506
-36.1955 91.3396 20.194 -0.16418 -0.973856 -0.157
-37.3751 91.5009 20.2618 -0.142228 -0.979225 -0.144535
-38.4304 91.6366 20.3119 -0.0326243 -0.993787 -0.106411
-39.688 91.675 20.3389 -0.0388902 -0.992315 -0.11747
-40.9229 91.7501 20.3396 -0.0599604 -0.986069 -0.155155
-42.3953 91.783 20.3235 0.0356247 -0.986511 -0.159774
-43.8493 91.7428 20.2951 0.00641669 -0.989518 -0.144267
-44.9289 91.7172 20.2824 0.0775353 -0.986928 -0.141282
-46.3723 91.6175 20.2569 0.106529 -0.98767 -0.114714
-47.6392 91.4303 20.2015 0.168455 -0.979576 -0.109792
-49.0244 91.2266 20.125 0.121712 -0.980294 -0.155597
-50.3013 90.9318 20.0148 0.316048 -0.928813 -0.193442
-51.5843 90.5501 19.8772 0.276624 -0.942314 -0.188477
-52.5605 90.2814 19.787 0.37945 -0.90654 -0.184942
-53.4976 89.79 19.648 0.490351 -0.847588 -0.202856
-54.5834 89.2744 19.4866 0.427411 -0.888128 -0.168962
-56.0305 88.2776 19.1451 0.695592 -0.698516 -0.168012
-57.1184 87.3807 18.856 0.664242 -0.708184 -0.239286
-57.9827 86.4649 18.5629 0.808409 -0.517613 -0.280271
-58.9144 85.1433 18.0701 0.816159 -0.540283 -0.204888
-59.1463 84.839 17.9487 0.819428 -0.537294 -0.199633
-59.1155 84.4828 18.8838 0.834526 -0.487165 -0.257367
-58.2458 85.6432 19.3393 0.800468 -0.532087 -0.275925
-57.5321 86.4495 19.6236 0.758416 -0.582161 -0.293077
-56.7557 87.3175 19.9085 0.768459 -0.576345 -0.278023
-55.979 88.062 20.1732 0.696119 -0.677569 -0.237315
-55.2527 88.7272 20.4047 0.580609 -0.755932 -0.302424
-54.3296 89.1171 20.5346 0.377376 -0.891953 -0.249013
-53.4163 89.5623 20.6692 0.502664 -0.834387 -0.226114
-52.4938 90.0303 20.8066 0.386254 -0.865022 -0.320226
-51.1764 90.4587 20.933 0.299432 -0.919215 -0.255704
-49.9256 90.8095 21.0492 0.279415 -0.932525 -0.228746
-48.7456 91.1 21.1406 0.154564 -0.978153 -0.139021
-47.7485 91.2837 21.2032 0.187204 -0.974684 -0.122257
-46.7592 91.4609 21.2457 0.106533 -0.987669 -0.114721
-45.0197 91.5705 21.2574 0.0703749 -0.988123 -0.136601
-43.9561 91.5839 21.275 0.0143393 -0.9866 -0.162524
-42.5683 91.6184 21.3007 0.0367936 -0.986193 -0.161459
-41.0494 91.6039 21.3175 -0.0633854 -0.985162 -0.159496
-40.0245 91.536 21.308 -0.032198 -0.985708 -0.165359
-38.7419 91.542 21.291 -0.0150927 -0.990507 -0.136629
-37.7096 91.41 21.236 -0.146387 -0.97905 -0.141537
-35.7686 91.0906 21.0994 -0.195341 -0.936237 -0.292067
-34.7691 90.9058 21.0232 -0.202254 -0.933668 -0.295565
-33.4638 90.5397 20.8886 -0.29323 -0.923692 -0.246593
-32.4333 90.2364 20.7759 -0.30495 -0.901675 -0.306573
-32.725 90.0478 21.6928 -0.346095 -0.901539 -0.259704
-34.0327 90.4733 21.8549 -0.251825 -0.929866 -0.268204
-35.0899 90.6805 21.9491 -0.209147 -0.931034 -0.299053
-36.1432 90.8761 22.0375 -0.2144 -0.936129 -0.278739
-37.3723 91.1483 22.159 -0.233347 -0.935513 -0.265263
-39.2077 91.3453 22.2617 -0.0715479 -0.967342 -0.243168
-40.6647 91.4155 22.2924 -0.0358468 -0.972409 -0.230512
-42.334 91.4623 22.3072 -0.0131306 -0.974437 -0.224277
-43.4277 91.422 22.3043 0.0255686 -0.986459 -0.162005
-45.3739 91.3271 22.2689 0.0743518 -0.974983 -0.209476
-47.3474 91.1016 22.2227 0.178281 -0.944648 -0.27542
-48.35 90.918 22.1784 0.184906 -0.944621 -0.271111
-49.4638 90.7167 22.1201 0.231162 -0.944462 -0.233571
-50.4688 90.4384 22.0378 0.276587 -0.940955 -0.195199
-51.5351 89.9871 21.9047 0.405783 -0.883791 -0.232924
-52.8716 89.4685 21.7484 0.45001 -0.834736 -0.317343
-54.0343 88.9023 21.5759 0.462518 -0.825925 -0.322375
-55.4347 88.2085 21.3519 0.580607 -0.755936 -0.302417
-56.4613 87.2031 20.9817 0.735198 -0.618845 -0.276612
-57.255 86.3019 20.634 0.768459 -0.576343 -0.278027
-57.9442 85.5115 20.3611 0.780606 -0.547785 -0.300975
-58.7325 84.5473 20.0037 0.834524 -0.487165 -0.257373
-58.6728 84.0181 20.9097 0.8437 -0.426447 -0.326058
-57.7308 85.261 21.3845 0.780719 -0.550756 -0.295206
-56.876 86.2906 21.7778 0.778438 -0.569303 -0.26444
-56.0852 87.111 22.0911 0.720384 -0.604578 -0.339899
-54.9607 88.0238 22.4241 0.577694 -0.691453 -0.433776
-53.5395 88.7558 22.6425 0.455096 -0.829021 -0.32498
-52.3857 89.328 22.817 0.470529 -0.832317 -0.293002
-51.3608 89.7834 22.9604 0.407072 -0.876703 -0.256287
-50.2569 90.2538 23.1049 0.345356 -0.885865 -0.309794
-49.1407 90.4742 23.1664 0.185484 -0.930961 -0.314494
-48.0014 90.6863 23.2102 0.173394 -0.929978 -0.324154
-46.8692 90.8824 23.2461 0.171824 -0.9255 -0.337529
-45.7502 91.076 23.2847 0.160479 -0.924823 -0.344889
-44.6558 91.1493 23.3066 0.0679066 -0.948145 -0.310499
-43.5598 91.2221 23.3242 0.0519964 -0.946131 -0.319581
-42.4445 91.174 23.2969 -0.0629781 -0.956274 -0.28561
-40.853 91.1183 23.255 -0.00468811 -0.955204 -0.295911
-39.8023 91.1086 23.2333 -0.0374091 -0.952331 -0.302764
-38.1701 91.0312 23.1763 -0.0841476 -0.937848 -0.336692
-36.9624 90.786 23.052 -0.237546 -0.923818 -0.300221
-35.8433 90.5386 22.9279 -0.241327 -0.922345 -0.301729
-34.4205 90.246 22.7836 -0.21428 -0.918979 -0.331002
-33.3173 89.9403 22.6492 -0.348586 -0.867182 -0.355645
-33.222 89.9066 22.636 -0.354863 -0.867322 -0.349034
-33.4243 89.6153 23.5282 -0.352344 -0.852288 -0.3866
-34.7292 89.9858 23.7061 -0.229741 -0.920118 -0.317178
-35.9058 90.2526 23.8467 -0.245103 -0.920858 -0.303224
-37.1188 90.5204 23.9929 -0.194816 -0.919586 -0.341186
-38.1133 90.6534 24.0697 -0.151399 -0.912112 -0.380959
-39.4914 90.7925 24.1597 -0.130217 -0.927744 -0.349764
-41.1944 90.8193 24.2157 0.00168623 -0.945859 -0.324574
-42.2122 90.8566 24.2641 -0.0528012 -0.950367 -0.306618
-43.2779 90.8928 24.3011 0.0360759 -0.943797 -0.32855
-45.123 90.7925 24.2941 0.108628 -0.937103 -0.331718
-46.3587 90.6042 24.265 0.149111 -0.923972 -0.352195
-47.4506 90.4121 24.2397 0.166548 -0.927151 -0.335637
-48.8297 90.1883 24.196 0.173396 -0.929977 -0.324154
-49.9266 89.9427 24.1279 0.281305 -0.889038 -0.361219
-50.9781 89.6453 24.0409 0.345358 -0.885862 -0.309802
-51.9466 89.2039 23.8915 0.475227 -0.830641 -0.290162
-53.0759 88.626 23.709 0.465817 -0.833965 -0.295832
-54.3911 87.8882 23.4865 0.582021 -0.72907 -0.36015
-55.7589 86.8894 23.1732 0.660538 -0.647333 -0.380329
-56.9587 85.727 22.7476 0.747557 -0.592174 -0.300815
-57.8254 84.5979 22.2806 0.818456 -0.438696 -0.371046
-58.2939 83.9083 22.0069 0.830547 -0.418424 -0.367578
-58.3262 83.2026 22.8342 0.818488 -0.47185 -0.327773
-57.7208 84.0025 23.1947 0.82499 -0.445391 -0.347877
-57.0223 84.8995 23.5479 0.762353 -0.475413 -0.43909
-56.0307 85.9923 23.9452 0.706907 -0.572162 -0.415828
-55.1034 86.9112 24.2745 0.660535 -0.647334 -0.380332
-54.1252 87.5869 24.4774 0.559804 -0.73897 -0.374891
-53.1097 88.2471 24.6777 0.538064 -0.707744 -0.457806
-51.8799 88.8608 24.8866 0.45882 -0.812926 -0.358657
-50.9419 89.2448 25.0167 0.319516 -0.856542 -0.405273
-49.8828 89.544 25.1047 0.280435 -0.879787 -0.383838
-48.7061 89.8748 25.208 0.14963 -0.948235 -0.280108
-47.1809 90.1029 25.2504 0.134676 -0.942509 -0.305843
-45.8992 90.2954 25.2595 0.146603 -0.914766 -0.376444
-44.7357 90.474 25.2786 0.120177 -0.913816 -0.387941
-43.6832 90.5345 25.2683 0.0373869 -0.930297 -0.364897
-42.1977 90.5183 25.2147 -0.0873029 -0.930786 -0.354987
-40.6054 90.4992 25.1343 0.0225718 -0.939466 -0.341897
-39.4042 90.4618 25.0716 -0.147836 -0.934212 -0.324643
-38.3769 90.297 24.9765 -0.190049 -0.874495 -0.446251
-36.8436 90.0861 24.8457 -0.174087 -0.86707 -0.46678
-35.7908 89.8748 24.7237 -0.259534 -0.870755 -0.417647
-34.7604 89.6325 24.5885 -0.277296 -0.861115 -0.426131
-33.6366 89.2803 24.4032 -0.367909 -0.840608 -0.397518
-33.8985 88.9735 25.2945 -0.331698 -0.846557 -0.416313
-35.3553 89.3604 25.5254 -0.277298 -0.861117 -0.426126
-36.4241 89.5526 25.6453 -0.188795 -0.859731 -0.474572
-37.5048 89.7281 25.7573 -0.174088 -0.867066 -0.466786
-38.7529 89.9378 25.8925 -0.220563 -0.873903 -0.43318
-39.8814 90.1277 26.0312 -0.111934 -0.869476 -0.481126
-41.3207 90.1301 26.1013 -0.00105971 -0.911975 -0.410244
-42.4194 90.1558 26.152 -0.055465 -0.91906 -0.390195
-43.8383 90.1613 26.2039 0.0655584 -0.921738 -0.382231
-44.9095 90.0431 26.2227 0.0936503 -0.912102 -0.399123
-46.1051 89.8655 26.224 0.121206 -0.926179 -0.357074
-47.2039 89.7539 26.2223 0.0956709 -0.936528 -0.337287
-48.5346 89.5933 26.2015 0.189323 -0.896382 -0.400819
-49.5845 89.2576 26.0886 0.335039 -0.842593 -0.421647
-51.1277 88.7076 25.9118 0.358872 -0.836729 -0.413637
-52.0527 88.3446 25.7951 0.541391 -0.703166 -0.460927
-53.1435 87.6623 25.5426 0.545585 -0.704007 -0.454655
-54.007 87.1179 25.3878 0.530496 -0.711426 -0.460921
-54.9379 86.4716 25.196 0.646431 -0.614816 -0.451806
-55.9019 85.5258 24.8367 0.723648 -0.563468 -0.398545
-56.61 84.7563 24.5394 0.767589 -0.52859 -0.362491
-57.6198 83.5493 24.0552 0.79928 -0.477201 -0.36528
-57.9363 83.1461 23.8894 0.809068 -0.47463 -0.346606
-57.5215 83.0695 24.9159 0.790356 -0.52692 -0.312559
-56.8717 83.8995 25.2347 0.783793 -0.503125 -0.364052
-56.154 84.6774 25.5316 0.732693 -0.548103 -0.403415
-55.3335 85.5203 25.8766 0.723645 -0.563468 -0.398551
-54.3226 86.2693 26.1504 0.572493 -0.645264 -0.505853
-53.238 87.0337 26.4028 0.552055 -0.679037 -0.483884
-52.3567 87.5807 26.5938 0.537166 -0.702284 -0.467172
-51.4754 88.1244 26.7898 0.451004 -0.774629 -0.443334
-50.1085 88.6157 26.9433 0.342839 -0.837279 -0.425941
-48.5563 89.0936 27.0978 0.256922 -0.846764 -0.465813
-47.5294 89.3488 27.1876 0.211473 -0.807164 -0.551149
-46.3544 89.4576 27.1862 0.0709179 -0.867234 -0.492823
-45.2938 89.5621 27.1724 0.0910416 -0.874394 -0.476599
-44.2265 89.6777 27.1445 0.0827613 -0.87782 -0.471787
-42.9956 89.7339 27.0804 -0.0775257 -0.863395 -0.498537
-41.8021 89.6573 26.9985 -0.0891627 -0.869049 -0.486625
-40.426 89.6481 26.9447 -0.0236694 -0.878391 -0.477357
-39.1334 89.5131 26.8105 -0.209182 -0.836863 -0.505869
-37.9793 89.3073 26.6497 -0.218002 -0.820374 -0.528642
-36.9509 89.129 26.5191 -0.199725 -0.813776 -0.545783
-35.8307 88.9428 26.3869 -0.254306 -0.788032 -0.560655
-34.8951 88.6939 26.2148 -0.294232 -0.756023 -0.584685
-35.2756 88.2282 27.0313 -0.311245 -0.726429 -0.612721
-36.2776 88.4844 27.2338 -0.254304 -0.788029 -0.56066
-37.2646 88.6536 27.373 -0.216144 -0.821005 -0.528424
-38.2465 88.8198 27.5164 -0.218002 -0.820377 -0.528637
-39.227 88.9842 27.6693 -0.219859 -0.819739 -0.528858
-40.3708 89.1243 27.7958 -0.0569338 -0.829409 -0.555734
-41.8942 89.1739 27.8778 -0.0493161 -0.822056 -0.567266
-42.9024 89.2027 27.9609 -0.0658644 -0.857474 -0.510294
-44.5971 89.143 28.0744 0.091045 -0.874395 -0.476596
-45.6112 89.0237 28.0809 0.0993192 -0.870881 -0.481354
-46.6691 88.9197 28.0875 0.12866 -0.838956 -0.528772
-47.7079 88.7224 28.0273 0.185702 -0.806119 -0.56186
-48.7519 88.4782 27.9528 0.237086 -0.807575 -0.540012
-49.7979 88.1853 27.8607 0.328683 -0.788187 -0.520315
-50.8026 87.8407 27.748 0.344333 -0.775318 -0.52945
-51.8468 87.3674 27.5963 0.533832 -0.736039 -0.416258
-52.7244 86.8377 27.4075 0.548655 -0.72226 -0.421093
-53.6246 86.2421 27.2073 0.563242 -0.708168 -0.425742
-54.6693 85.509 26.9413 0.639421 -0.643924 -0.420122
-55.9833 84.2561 26.4291 0.734333 -0.551813 -0.395294
-57.1729 82.9872 25.936 0.780186 -0.529015 -0.333846
-57.8209 82.1951 25.6328 0.794185 -0.521208 -0.31243
-57.5784 81.9712 26.6522 0.762195 -0.575423 -0.29656
-56.4319 83.2582 27.1374 0.744779 -0.560864 -0.361573
-55.312 84.3262 27.534 0.683032 -0.592313 -0.427354
-54.2809 85.2334 27.909 0.651634 -0.601788 -0.461762
-53.1796 86.0124 28.1779 0.565369 -0.687415 -0.455872
-52.2131 86.6401 28.4127 0.548658 -0.72226 -0.421089
-51.1437 87.1048 28.5618 0.359806 -0.762062 -0.538333
-50.0536 87.5299 28.6921 0.34289 -0.787363 -0.512334
-48.9931 87.8322 28.7788 0.272887 -0.821304 -0.50099
-47.9785 88.1132 28.8711 0.239087 -0.843486 -0.481007
-46.9451 88.3254 28.932 0.204515 -0.863951 -0.460176
-45.5868 88.5052 28.9649 0.101216 -0.836467 -0.538589
-44.4007 88.6492 28.9641 0.0674634 -0.820549 -0.567581
-43.0304 88.6366 28.8246 -0.0998282 -0.810274 -0.577486
-41.9549 88.5887 28.706 -0.0707836 -0.812735 -0.578318
-40.6203 88.5734 28.6314 -0.0896063 -0.779028 -0.620552
-39.6271 88.4508 28.5052 -0.184723 -0.746368 -0.639384
-38.3999 88.274 28.3305 -0.264432 -0.699091 -0.664339
-36.5149 87.8758 27.9609 -0.274902 -0.687841 -0.671791
-35.5005 87.6847 27.7898 -0.278311 -0.713489 -0.643021
-36.7037 87.2537 28.6741 -0.262346 -0.661174 -0.702869
-37.9983 87.5281 28.9466 -0.285531 -0.696998 -0.657773
-39.0858 87.7252 29.1528 -0.243205 -0.700838 -0.67058
-40.6201 87.9111 29.3743 -0.137068 -0.739414 -0.659151
-41.8186 88.0034 29.52 -0.0896093 -0.779026 -0.620555
-43.0174 88.0405 29.6456 -0.0916705 -0.802976 -0.588919
-44.0444 88.0688 29.7668 -0.0291152 -0.804469 -0.593281
-45.4434 87.9785 29.8098 0.0674631 -0.820549 -0.567581
-46.9012 87.8622 29.8211 0.134028 -0.859747 -0.49282
-48.2249 87.5188 29.7113 0.273169 -0.821295 -0.500853
-49.2277 87.2356 29.6292 0.294233 -0.805934 -0.51371
-50.1978 86.9113 29.5346 0.315328 -0.789875 -0.52599
-51.3101 86.4759 29.4175 0.39086 -0.762192 -0.516035
-52.7157 85.7231 29.1125 0.559018 -0.663961 -0.496643
-53.5578 85.1552 28.912 0.59492 -0.63642 -0.490957
-54.84 84.1505 28.5312 0.651632 -0.601787 -0.461766
-55.7392 83.3507 28.252 0.677112 -0.641885 -0.359865
-56.8024 82.3291 27.9147 0.719702 -0.592908 -0.361232
-57.3692 81.7054 27.7056 0.762196 -0.575419 -0.296564
-57.258 81.4008 28.7081 0.68702 -0.681188 -0.252956
-56.5032 82.0952 28.8949 0.719702 -0.592908 -0.361233
-55.3505 83.2141 29.227 0.658783 -0.648319 -0.38169
-54.4004 83.973 29.5035 0.629831 -0.666025 -0.399654
-53.5678 84.5647 29.7291 0.551662 -0.678358 -0.485283
-52.5481 85.2228 29.9796 0.557402 -0.673602 -0.485349
-51.3676 85.8592 30.2197 0.406141 -0.72858 -0.551562
-50.4077 86.2506 30.3501 0.306295 -0.742904 -0.595211
-49.4538 86.5726 30.4252 0.299241 -0.748445 -0.591848
-48.4918 86.8867 30.523 0.284124 -0.766492 -0.575989
-47.503 87.1555 30.6043 0.25952 -0.783985 -0.56393
-46.4578 87.306 30.6055 0.0768988 -0.764038 -0.640572
-45.4275 87.3759 30.5866 0.0468862 -0.788172 -0.613667
-44.1322 87.4661 30.5696 0.0367862 -0.773837 -0.632316
-42.5664 87.3805 30.3525 -0.145683 -0.723818 -0.674436
-41.5442 87.288 30.1887 -0.183551 -0.70994 -0.679922
-40.5065 87.2137 30.0642 -0.132442 -0.694517 -0.707181
-39.3676 87.0693 29.8803 -0.222089 -0.644001 -0.732079
-38.2737 86.9085 29.6898 -0.248998 -0.618918 -0.744943
-37.1312 86.6698 29.4224 -0.313716 -0.654298 -0.688096
-36.7494 86.586 29.328 -0.291235 -0.65962 -0.69288
-37.7056 86.0554 30.1519 -0.273685 -0.592845 -0.757384
-38.7337 86.2399 30.3812 -0.275529 -0.592899 -0.756673
-40.2425 86.4549 30.6638 -0.198884 -0.643977 -0.738741
-41.7595 86.6313 30.9326 -0.187116 -0.702311 -0.686839
-43.0245 86.7397 31.1391 -0.140462 -0.720672 -0.678898
-44.2675 86.81 31.3113 -0.135224 -0.71749 -0.683317
-45.5438 86.7441 31.3541 0.0199631 -0.763666 -0.645303
-46.7035 86.6405 31.376 0.0851329 -0.78087 -0.618866
-47.7097 86.5203 31.3923 0.169046 -0.777875 -0.605255
-48.7566 86.1875 31.2745 0.308429 -0.748186 -0.587443
-49.7116 85.8701 31.1832 0.306292 -0.742902 -0.595215
-51.0421 85.4022 31.0631 0.360223 -0.733937 -0.575825
-52.1163 84.8491 30.8602 0.481904 -0.665771 -0.569664
-53.5058 84.0147 30.5569 0.55491 -0.6653 -0.499451
-54.4133 83.3965 30.3174 0.622256 -0.622656 -0.474445
-55.3039 82.6905 30.0757 0.592852 -0.683246 -0.426264
-56.2042 82.0069 29.8949 0.663089 -0.68535 -0.301012
-57.2522 81.0552 29.6546 0.687021 -0.681186 -0.252958
-57.2911 80.7107 30.5783 0.586882 -0.779978 -0.217264
-56.4722 81.3446 30.7027 0.643078 -0.682896 -0.346559
-55.6959 81.9942 30.8632 0.602058 -0.712003 -0.361356
-54.1561 83.0037 31.1701 0.592851 -0.683247 -0.426264
-52.6635 83.9214 31.5135 0.521604 -0.653622 -0.548368
-51.7965 84.4018 31.6845 0.480982 -0.68185 -0.551124
-50.8646 84.8208 31.8039 0.321702 -0.678794 -0.660111
-49.6866 85.2287 31.9122 0.302202 -0.693577 -0.653931
-48.0876 85.7485 32.0789 0.289577 -0.704977 -0.64742
-46.9865 85.9955 32.1508 0.139418 -0.744606 -0.652782
-45.82 86.0962 32.1262 0.013264 -0.768265 -0.639995
-44.6729 86.1468 32.0788 -0.0419516 -0.693464 -0.719269
-43.376 86.0891 31.9034 -0.128984 -0.729337 -0.671886
-42.0419 85.9754 31.6669 -0.194949 -0.697476 -0.689581
-40.534 85.8023 31.3985 -0.218328 -0.688497 -0.691595
-39.3919 85.6008 31.1278 -0.287258 -0.598356 -0.747965
-38.5201 85.4488 30.9266 -0.277782 -0.598571 -0.751365
-39.2086 84.8121 31.6884 -0.287261 -0.598358 -0.747963
-40.1866 84.9922 31.9334 -0.296707 -0.598084 -0.744487
-41.1989 85.1779 32.1867 -0.288063 -0.595295 -0.750096
-42.3366 85.3211 32.4211 -0.209996 -0.668941 -0.713036
-43.4449 85.4315 32.6305 -0.164231 -0.715366 -0.679175
-44.7222 85.448 32.7484 -0.0562068 -0.688736 -0.72283
-45.8129 85.4274 32.8246 -0.0276845 -0.698029 -0.715534
-47.2577 85.2595 32.8215 0.172445 -0.672499 -0.719727
-48.2364 85.0559 32.7666 0.24158 -0.70558 -0.66618
-49.4013 84.6658 32.6428 0.304083 -0.693596 -0.653037
-50.3481 84.3405 32.5495 0.321697 -0.678792 -0.660115
-51.3541 83.931 32.4394 0.34285 -0.66355 -0.664947
-52.3159 83.511 32.3334 0.50145 -0.66794 -0.549912
-53.8628 82.667 32.0254 0.486913 -0.737837 -0.467453
-54.8607 82.0942 31.836 0.508306 -0.725584 -0.463846
-55.9306 81.3698 31.6582 0.606127 -0.741575 -0.287534
-56.9792 80.6588 31.5386 0.564149 -0.794104 -0.22613
-56.326 80.8283 32.5175 0.560791 -0.790511 -0.246183
-55.3011 81.3726 32.5946 0.457921 -0.807865 -0.371029
-54.006 82.1062 32.7955 0.433923 -0.784224 -0.443513
-52.6926 82.7404 33.0108 0.452146 -0.703703 -0.548056
-51.5041 83.2482 33.1394 0.349393 -0.72239 -0.596722
-50.3855 83.6926 33.2565 0.311514 -0.721471 -0.618416
-49.3162 84.0474 33.3428 0.304938 -0.695793 -0.650296
-47.7432 84.4794 33.4534 0.14541 -0.704598 -0.694548
-46.6867 84.6759 33.5037 0.0864198 -0.67252 -0.735016
-45.1575 84.7387 33.4328 -0.0379993 -0.657823 -0.752214
-44.0506 84.7358 33.3424 -0.103444 -0.638468 -0.762665
-43.0388 84.6654 33.1948 -0.220365 -0.636316 -0.739284
-42.0562 84.5506 33.0007 -0.250385 -0.61601 -0.746886
-41.0963 84.3931 32.7682 -0.280065 -0.594863 -0.753459
-39.945 84.1863 32.4807 -0.296044 -0.595678 -0.746676
-39.8548 84.1698 32.4581 -0.302834 -0.588641 -0.749529
-40.6471 83.5555 33.2619 -0.323666 -0.596795 -0.734218
-41.6655 83.7279 33.5101 -0.274395 -0.645544 -0.712728
-42.6891 83.8961 33.7526 -0.250385 -0.61601 -0.746886
-43.7013 83.9638 33.8879 -0.14385 -0.613655 -0.77636
-44.7231 84.0212 34.0319 -0.103442 -0.638468 -0.762666
-45.7889 84.004 34.0928 -0.0387995 -0.711188 -0.701931
-47.4612 83.8644 34.1364 0.138443 -0.698986 -0.701607
-48.5522 83.6634 34.1119 0.22595 -0.702613 -0.674746
-49.5537 83.3376 34.0115 0.273044 -0.719168 -0.638939
-50.7871 82.9456 33.9257 0.311517 -0.721466 -0.61842
-51.8078 82.5336 33.8185 0.355868 -0.717228 -0.599118
-52.7722 82.1309 33.7277 0.404617 -0.711536 -0.574458
-53.9386 81.6426 33.5854 0.365822 -0.788737 -0.494032
-55.4821 80.9286 33.4416 0.415491 -0.839109 -0.35109
-55.8461 80.7571 33.4207 0.415491 -0.839109 -0.35109
-55.1198 80.7845 34.3245 0.42645 -0.856963 -0.289405
-54.1407 81.1454 34.3793 0.341583 -0.864971 -0.367623
-53.1936 81.5296 34.4702 0.364483 -0.839675 -0.402613
-52.2005 81.9115 34.5509 0.364545 -0.833359 -0.415475
-51.2167 82.2994 34.6361 0.27428 -0.837142 -0.473247
-50.1335 82.5785 34.6764 0.268455 -0.787211 -0.555185
-48.7866 82.9697 34.773 0.249475 -0.780053 -0.573829
-47.6343 83.1688 34.7849 0.131452 -0.693283 -0.708575
-46.5943 83.3335 34.8167 0.0464977 -0.704827 -0.707853
-45.362 83.3507 34.7421 -0.029632 -0.722574 -0.690658
-44.2397 83.3268 34.6393 -0.124278 -0.722088 -0.680546
-43.2086 83.2715 34.5097 -0.197433 -0.685683 -0.700614
-42.224 83.1097 34.285 -0.271792 -0.644985 -0.71423
-41.2119 82.9299 34.0386 -0.337206 -0.598159 -0.726978
-41.757 82.3215 34.8262 -0.31346 -0.66553 -0.677357
-42.847 82.5059 35.0645 -0.253604 -0.690024 -0.677903
-43.9721 82.6677 35.2898 -0.10074 -0.714987 -0.691842
-45.552 82.7077 35.4229 -0.0534036 -0.715203 -0.696873
-46.8028 82.6865 35.4867 -0.0229941 -0.716618 -0.697087
-47.8733 82.5275 35.4678 0.0700702 -0.785237 -0.615218
-48.9895 82.3599 35.4895 0.230306 -0.772302 -0.592038
-50.2635 82.023 35.4013 0.224957 -0.810323 -0.541084
-51.2554 81.816 35.3873 0.18087 -0.8313 -0.525572
-52.6674 81.3377 35.3107 0.351141 -0.840902 -0.411805
-54.245 80.7878 35.219 0.313796 -0.897391 -0.310196
-54.3771 80.7451 35.2125 0.304519 -0.889401 -0.340932
-53.6312 80.7355 36.0982 0.312544 -0.907488 -0.28068
-52.5179 81.0902 36.1464 0.297432 -0.90942 -0.290671
-51.1002 81.3997 36.1462 0.193398 -0.859236 -0.473615
-49.5149 81.6911 36.1719 0.128682 -0.863049 -0.488454
-48.1171 81.9354 36.1958 0.0700666 -0.785237 -0.615218
-47.0718 82.0603 36.1698 0.0367666 -0.822234 -0.567961
-45.6788 82.1126 36.1219 0.0155795 -0.76411 -0.644898
-44.6779 82.087 36.0455 -0.082469 -0.764137 -0.639761
-43.4055 81.9477 35.8554 -0.279416 -0.706732 -0.649967
-42.4227 81.7744 35.6503 -0.277669 -0.677213 -0.681383
-42.0632 81.6978 35.5662 -0.301522 -0.663896 -0.684344
-43.235 81.283 36.5069 -0.246257 -0.742537 -0.622893
-44.5258 81.4602 36.7087 -0.118666 -0.734547 -0.668101
-45.7633 81.5451 36.8356 -0.0231485 -0.820501 -0.571176
-47.1614 81.5312 36.9235 -0.0281479 -0.816583 -0.576542
-48.4751 81.3703 36.9352 0.0617195 -0.849256 -0.524362
-49.5766 81.2487 36.9396 0.140704 -0.873332 -0.466362
-50.7214 81.0581 36.9206 0.124589 -0.905086 -0.406568
-52.0008 80.9632 36.9794 0.0543739 -0.94068 -0.334909
-52.1175 80.944 36.9819 0.292522 -0.908277 -0.299105
-51.291 80.7265 37.7666 0.072807 -0.949562 -0.305011
-49.8448 80.8154 37.7176 0.0057241 -0.952473 -0.30457
-48.5933 80.9323 37.7088 0.021719 -0.871398 -0.490096
-47.3617 81.0105 37.6707 0.0367627 -0.822233 -0.567963
-45.6314 81.0335 37.5767 -0.01815 -0.824363 -0.565771
-44.4138 80.9062 37.4339 -0.182322 -0.810352 -0.556855
-43.3071 80.7146 37.2483 -0.269659 -0.793385 -0.545733
-45.1832 80.4906 38.2862 -0.21393 -0.840008 -0.498619
-46.2909 80.5774 38.3847 -0.0689889 -0.922836 -0.378965
-47.8606 80.6338 38.4954 0.00222889 -0.935241 -0.354005
-49.0053 80.5612 38.5237 0.0278257 -0.948941 -0.314224
-49.817 80.5492 38.5507 0.0057241 -0.952473 -0.30457
-58.9552 85.7077 16.166 0.813217 -0.56307 -0.147071
-58.1316 86.7142 16.4705 0.802068 -0.588395 -0.102362
-57.4471 87.5145 16.7229 0.707335 -0.706454 -0.0245127
-56.7347 88.1875 16.9635 0.643639 -0.765281 0.00856912
-55.791 88.8716 17.1852 0.575811 -0.816212 -0.047312
-54.5145 89.6267 17.4378 0.485876 -0.872613 -0.0497131
-53.3402 90.2354 17.6287 0.431337 -0.898836 -0.077729
-52.2579 90.6518 17.7655 0.360644 -0.932587 -0.0147437
-51.0076 91.0017 17.8955 0.268791 -0.957232 -0.107043
-49.7209 91.3462 18.0458 0.274602 -0.956421 -0.0992618
-48.462 91.5316 18.1508 0.122928 -0.986842 -0.105035
-47.3466 91.6623 18.2279 0.13637 -0.985745 -0.0985396
-45.9776 91.8354 18.2948 0.118147 -0.990214 -0.0742847
-44.4228 91.9467 18.3531 0.0320648 -0.997284 -0.0662993
-43.0247 91.9824 18.3693 0.0201861 -0.997999 -0.0599262
-41.9922 91.9962 18.3766 -0.00617873 -0.99781 -0.0658503
-40.2441 91.9495 18.3904 -0.0231696 -0.997226 -0.0707311
-39.1703 91.8973 18.3934 -0.0512952 -0.992017 -0.115197
-37.8802 91.8334 18.3771 -0.0482288 -0.992112 -0.115707
-36.4281 91.7215 18.3416 -0.150788 -0.967254 -0.204163
-35.1776 91.5236 18.2893 -0.170726 -0.964462 -0.201659
-34.1179 91.3399 18.2348 -0.166961 -0.96154 -0.218092
-32.341 91.0006 18.1239 -0.224129 -0.947767 -0.226947
-32.2357 91.2278 17.24 -0.163862 -0.939371 -0.301217
-33.6556 91.4688 17.3128 -0.162368 -0.966092 -0.200754
-34.7926 91.644 17.3634 -0.13244 -0.975104 -0.177852
-36.2292 91.8376 17.4085 -0.147408 -0.980569 -0.129445
-37.4891 91.9246 17.4275 -0.0522076 -0.992628 -0.109376
-38.9793 91.999 17.4327 -0.0358135 -0.994661 -0.0967878
-40.3943 92.0287 17.4216 -0.0203104 -0.996721 -0.078322
-41.764 92.0581 17.401 -0.00245516 -0.998327 -0.0577722
-42.9538 92.0349 17.3852 0.0265754 -0.998331 -0.0512723
-44.4199 91.9979 17.3547 0.025732 -0.998361 -0.0511178
-45.5179 91.9491 17.3192 0.0833074 -0.995705 -0.0403802
-46.7815 91.8046 17.2588 0.123025 -0.991249 -0.0478609
-47.9677 91.6554 17.1656 0.125087 -0.991323 -0.040391
-49.0659 91.521 17.0649 0.156488 -0.987395 -0.0237162
-50.122 91.3058 16.9531 0.253168 -0.966548 -0.0411173
-51.3414 90.9921 16.8173 0.280771 -0.959591 -0.018798
-52.9101 90.4218 16.6392 0.36065 -0.932453 -0.0215213
-54.1041 89.9334 16.4719 0.496794 -0.863698 -0.0849789
-55.2082 89.3171 16.281 0.500648 -0.861995 -0.0794716
-56.0188 88.7229 16.1213 0.601219 -0.799079 0.00305056
-57.2335 87.6967 15.7768 0.668856 -0.742815 -0.029278
-58.2791 86.716 15.4509 0.751985 -0.656141 -0.0632228
-59.012 85.8778 15.2007 0.798186 -0.584609 -0.145367
-58.6162 86.4118 14.3849 0.77002 -0.637868 -0.0139085
-57.8948 87.2379 14.6053 0.703752 -0.707179 -0.068056
-56.537 88.3448 14.9869 0.639514 -0.768546 -0.0189402
-55.4127 89.2867 15.2397 0.574086 -0.815706 -0.0710595
-54.2594 89.9474 15.422 0.500651 -0.861994 -0.0794675
-53.1969 90.3635 15.5674 0.330167 -0.942773 -0.0465717
-51.5677 90.915 15.7646 0.308011 -0.951376 0.0035485
-50.4614 91.2628 15.8732 0.220586 -0.97507 -0.0240891
-49.2306 91.4971 16.005 0.187685 -0.982204 -0.00701606
-47.995 91.6941 16.1313 0.127604 -0.990949 -0.04169
-46.9283 91.83 16.23 0.130114 -0.990566 -0.042993
-45.9053 91.958 16.2996 0.0833115 -0.995705 -0.0403818
-44.8712 92.0092 16.3428 0.0495616 -0.998494 -0.0235151
-43.8502 92.0557 16.3857 0.0296303 -0.999473 -0.0132624
-42.8301 92.0766 16.4163 0.0180822 -0.99914 -0.0373257
-41.6827 92.0951 16.4401 0.0153096 -0.999192 -0.0371527
-40.6612 92.1103 16.4531 -0.00244595 -0.998327 -0.0577735
-39.617 92.0832 16.4732 -0.0253672 -0.998047 -0.0570924
-38.6157 92.0571 16.4854 -0.0130302 -0.997952 -0.0626184
-37.4515 92.0219 16.493 -0.0479599 -0.994527 -0.0928183
-36.2564 91.9635 16.4855 -0.0999319 -0.987786 -0.119548
-34.9865 91.8242 16.4593 -0.10708 -0.97922 -0.172227
-33.8238 91.6643 16.4227 -0.129923 -0.968221 -0.213703
-32.7672 91.5531 16.3916 -0.138855 -0.959232 -0.246157
-32.1726 91.4731 16.3681 -0.138855 -0.959232 -0.246157
-32.7157 91.7704 15.516 -0.0984357 -0.947757 -0.303424
-33.7211 91.8723 15.5399 -0.093866 -0.972007 -0.215386
-34.8109 91.9486 15.5534 -0.0686598 -0.982911 -0.170799
-35.9174 92.0564 15.5669 -0.0609838 -0.990407 -0.123999
-37.6721 92.1195 15.5618 -0.0243346 -0.996458 -0.0804966
-38.6872 92.1214 15.544 -0.000689001 -0.997677 -0.0681194
-39.8896 92.1448 15.5173 -0.0146089 -0.998724 -0.0483479
-40.8958 92.1494 15.5012 -0.00385998 -0.999209 -0.0395894
-42.4894 92.1042 15.4619 0.0360994 -0.999137 -0.0205549
-43.4914 92.0791 15.4264 0.0296327 -0.999473 -0.0132545
-44.497 92.0457 15.3813 0.0410867 -0.999037 -0.0153998
-45.7242 91.9659 15.316 0.0911511 -0.99556 0.0234724
-47.3 91.7906 15.1969 0.116883 -0.993006 0.0166639
-48.3012 91.6541 15.0914 0.14905 -0.987508 0.051107
-50.1628 91.3093 14.8941 0.189255 -0.981825 0.0142325
-51.9197 90.813 14.7017 0.30973 -0.950726 -0.0137266
-53.4491 90.2728 14.5276 0.367917 -0.927913 0.0601182
-54.8404 89.5711 14.3405 0.463766 -0.880997 0.093628
-55.7371 89.054 14.1714 0.573951 -0.817325 0.0506046
-56.7362 88.2176 13.9444 0.623503 -0.781458 -0.0238087
-57.8802 87.2439 13.6262 0.68935 -0.717955 0.0966267
-57.8476 87.1459 12.6659 0.689351 -0.717955 0.0966193
-57.037 87.8952 12.9009 0.659937 -0.744854 0.0983671
-56.2332 88.6295 13.0897 0.573992 -0.805735 0.146027
-55.2827 89.1863 13.2647 0.479428 -0.866241 0.140625
-54.3254 89.743 13.4296 0.457175 -0.876995 0.147885
-52.9257 90.3981 13.5998 0.378978 -0.918036 0.116563
-51.5045 90.9527 13.7643 0.337153 -0.93317 0.124587
-49.8552 91.3492 13.9399 0.19942 -0.976364 0.0833383
-48.5659 91.5603 14.0734 0.153587 -0.986821 0.0509413
-47.4129 91.7376 14.1976 0.144514 -0.988173 0.0512778
-46.0041 91.9168 14.3193 0.0942684 -0.995417 0.0160682
-44.7848 92.0368 14.3958 0.0689481 -0.997567 0.0103003
-43.4397 92.0921 14.4656 0.0370536 -0.999313 9.10413e-05
-42.1649 92.1443 14.5167 0.0465727 -0.998568 -0.0263317
-41.1549 92.188 14.5463 0.0150289 -0.999568 -0.0252696
-39.4623 92.1797 14.586 0.0199944 -0.998636 -0.0482223
-38.4625 92.1901 14.6116 -0.000222775 -0.996142 -0.0877543
-37.4506 92.1878 14.6355 0.0142863 -0.995406 -0.0946752
-36.3223 92.174 14.6539 -0.0250811 -0.989794 -0.140278
-34.8651 92.1361 14.6626 -0.0394291 -0.978267 -0.203563
-33.463 92.0441 14.6518 -0.0938652 -0.972008 -0.215382
-33.2566 92.0396 14.6523 0.0221777 -0.956708 -0.290203
-32.6533 92.3244 13.8009 0.0292397 -0.939893 -0.340214
-33.8959 92.2941 13.778 0.0678135 -0.946019 -0.316938
-34.9665 92.2863 13.7631 -0.00491879 -0.989213 -0.146404
-35.9738 92.2932 13.7502 -0.0149989 -0.989558 -0.14335
-37.546 92.2792 13.7137 0.0287923 -0.994411 -0.101581
-38.5723 92.2719 13.6828 0.0218958 -0.997078 -0.0731899
-39.8719 92.2172 13.6395 0.0199908 -0.998636 -0.048229
-41.3298 92.1941 13.5963 0.0340811 -0.999339 -0.0126667
-42.4472 92.1465 13.5559 0.0503646 -0.99867 -0.0110319
-43.5928 92.0859 13.5015 0.0576272 -0.998275 -0.0112687
-44.8396 92.023 13.4269 0.0689476 -0.997567 0.0103091
-46.0673 91.9005 13.3398 0.0994663 -0.994969 0.0119503
-47.4469 91.6973 13.2128 0.167809 -0.98578 0.00887649
-49.2448 91.3762 13.0287 0.177855 -0.979928 0.0900456
-50.943 91.017 12.8604 0.273252 -0.956087 0.105976
-51.9913 90.6337 12.7221 0.324573 -0.936183 0.134957
-53.328 90.0825 12.5766 0.421402 -0.896469 0.136979
-54.4659 89.498 12.422 0.434618 -0.887169 0.155044
-55.4337 88.9419 12.2737 0.489137 -0.858917 0.151681
-56.309 88.3996 12.1189 0.573992 -0.805735 0.146027
-57.0685 87.7221 11.9558 0.644669 -0.753639 0.128177
-56.802 87.8042 11.098 0.633398 -0.767239 0.100753
-55.7051 88.5951 11.2911 0.498706 -0.851363 0.162705
-54.8469 89.1202 11.4079 0.510803 -0.849924 0.129265
-53.7858 89.6803 11.5401 0.438986 -0.887363 0.140992
-52.853 90.1595 11.6518 0.420018 -0.895353 0.148077
-51.7133 90.6011 11.789 0.324344 -0.939481 0.110343
-50.4809 91.0434 11.9316 0.32448 -0.937905 0.122662
-49.4296 91.2799 12.0314 0.211816 -0.976935 0.0270694
-48.4255 91.5006 12.1376 0.19606 -0.980183 0.0282988
-47.0868 91.7501 12.2751 0.174052 -0.984549 0.0191994
-45.9438 91.9013 12.3752 0.0968273 -0.99517 0.0161656
-44.8921 92.0024 12.4554 0.0847927 -0.996179 0.0209057
-43.8816 92.0803 12.5226 0.066522 -0.997772 0.00507071
-42.4816 92.1553 12.6031 0.0562598 -0.998222 -0.0197009
-41.2134 92.2192 12.6563 0.0332015 -0.998803 -0.0359164
-39.9598 92.2689 12.7016 0.051183 -0.997115 -0.0560555
-38.3659 92.3358 12.7598 0.0953189 -0.991681 -0.0865009
-37.3012 92.4084 12.8033 0.0343211 -0.983283 -0.17882
-36.2868 92.4379 12.8361 0.067929 -0.979238 -0.190996
-35.2843 92.5 12.8687 0.0287128 -0.963062 -0.267746
-33.333 92.6183 12.9306 0.0678135 -0.946019 -0.316938
-33.1936 92.6215 12.9337 0.02924 -0.939892 -0.340217
-32.7731 92.9409 12.0875 0.067814 -0.946017 -0.316944
-33.8217 92.8393 12.0368 0.106251 -0.950187 -0.293011
-34.9422 92.7534 11.994 0.0651597 -0.96966 -0.235612
-36.3402 92.6212 11.9295 0.101454 -0.973927 -0.202914
-37.4666 92.5699 11.8836 0.0904769 -0.985143 -0.145968
-38.859 92.3716 11.8061 0.095319 -0.991681 -0.0865006
-39.8805 92.3223 11.765 0.0582929 -0.99695 -0.0518935
-40.9661 92.261 11.7231 0.0457523 -0.997987 -0.0439098
-42.2262 92.1977 11.6719 0.0621338 -0.997665 -0.0283702
-44.0351 92.0478 11.5502 0.0887662 -0.996051 0.0014662
-45.756 91.8996 11.4248 0.101352 -0.99435 0.0315567
-47.363 91.6675 11.2738 0.17569 -0.983732 0.0374826
-48.4944 91.4582 11.1492 0.196064 -0.980182 0.0283052
-50.0459 91.0534 11.0005 0.257863 -0.959445 0.113898
-51.0081 90.7406 10.9104 0.303114 -0.944757 0.124726
-52.0466 90.3671 10.7764 0.363015 -0.92226 0.132876
-53.1052 89.877 10.659 0.42002 -0.895352 0.148082
-54.0296 89.4037 10.542 0.419321 -0.899688 0.121373
-55.0919 88.8585 10.4268 0.522243 -0.847415 0.0956574
-55.8679 88.3698 10.3341 0.538012 -0.834009 0.122361
-55.312 88.5866 9.46275 0.546736 -0.820325 0.167771
-54.1772 89.2034 9.5804 0.417065 -0.898785 0.135067
-53.2471 89.6515 9.68028 0.417011 -0.900365 0.124275
-51.6296 90.4009 9.87139 0.386612 -0.913876 0.123943
-49.953 90.9654 10.0492 0.280572 -0.952384 0.119347
-48.9683 91.253 10.1393 0.277213 -0.957154 0.0837226
-47.6687 91.5747 10.272 0.19188 -0.979403 0.0628585
-46.0816 91.8213 10.4325 0.108492 -0.993179 0.0427212
-44.9974 91.9593 10.5228 0.126184 -0.992004 0.00220354
-43.8836 92.081 10.6007 0.102097 -0.994603 -0.0184844
-42.6002 92.1876 10.6882 0.0684734 -0.997529 -0.0157325
-41.3721 92.2818 10.7637 0.0848007 -0.995439 -0.0437065
-39.8718 92.3769 10.8287 0.0587338 -0.996192 -0.0644337
-38.3113 92.5636 10.9109 0.142736 -0.979761 -0.140337
-37.031 92.7391 10.9884 0.168404 -0.971491 -0.166868
-35.9089 92.8692 11.0538 0.118815 -0.958096 -0.260644
-34.8367 92.9863 11.112 0.141234 -0.954126 -0.264001
-33.2695 93.1771 11.1993 0.108243 -0.943223 -0.314028
-33.0928 93.1998 11.2104 0.254838 -0.889793 -0.378585
-32.7593 93.6373 10.4066 0.254838 -0.889793 -0.378585
-33.8696 93.3826 10.2958 0.187362 -0.927951 -0.322183
-35.0093 93.2073 10.2208 0.141234 -0.954126 -0.264001
-36.0333 93.0811 10.1572 0.167676 -0.966467 -0.19449
-37.3505 92.8606 10.0628 0.19383 -0.961831 -0.193161
-38.7465 92.6357 9.96499 0.1531 -0.978654 -0.137104
-40.0606 92.4266 9.88742 0.11132 -0.988807 -0.0993378
-41.2792 92.3306 9.82553 0.0835468 -0.995554 -0.0435066
-42.4584 92.2327 9.74719 0.0860543 -0.995323 -0.0439064
-43.7368 92.1031 9.6589 0.128294 -0.991581 -0.0175209
-45.0566 91.9496 9.56509 0.126184 -0.992004 0.00221063
-46.3593 91.7692 9.45171 0.150197 -0.988303 0.0264164
-47.341 91.5617 9.356 0.218473 -0.973482 0.0678423
-48.5808 91.285 9.22167 0.242701 -0.96628 0.0860135
-49.8421 90.9012 9.09972 0.285685 -0.953734 0.0936781
-50.9857 90.5312 8.98381 0.335196 -0.93575 0.109619
-52.7026 89.7804 8.78677 0.41701 -0.900366 0.124276
-54.2868 89.009 8.62534 0.456742 -0.873439 0.168794
-55.0143 88.5681 8.56255 0.494885 -0.845163 0.201963
-54.3882 88.7348 7.69617 0.498615 -0.851236 0.163646
-52.9588 89.5126 7.81513 0.425213 -0.890678 0.160893
-51.2924 90.2672 7.98719 0.368969 -0.922179 0.115967
-49.5251 90.9113 8.17685 0.294684 -0.953293 0.0662778
-48.0636 91.3418 8.33606 0.236142 -0.969914 0.0591915
-46.8114 91.643 8.46641 0.196196 -0.979319 0.0494057
-45.3623 91.8897 8.59342 0.184236 -0.982665 0.0206589
-44.2444 92.0681 8.68202 0.141209 -0.989253 -0.0379211
-43.1162 92.2123 8.76299 0.0899946 -0.995255 -0.0369936
-41.8229 92.3259 8.85105 0.117468 -0.98952 -0.0839713
-40.1576 92.5381 8.95948 0.132534 -0.982092 -0.133904
-39.1131 92.7025 9.02543 0.198963 -0.964324 -0.174621
-37.8259 92.9537 9.12192 0.188127 -0.960487 -0.205115
-36.0516 93.2593 9.2559 0.167676 -0.966467 -0.19449
-34.4828 93.6122 9.40121 0.229309 -0.909376 -0.347064
-32.8931 93.959 9.54692 0.256673 -0.891731 -0.37274
-32.8139 93.9782 9.55534 0.262473 -0.887252 -0.379331
-32.5396 94.4179 8.74029 0.268233 -0.882689 -0.385889
-33.5824 94.1346 8.62359 0.277553 -0.89921 -0.33821
-34.7056 93.8604 8.51281 0.247957 -0.915139 -0.317865
-35.2437 93.7324 8.46159 0.240315 -0.917237 -0.317686
-33.5738 94.4612 7.76225 0.277553 -0.89921 -0.33821
-32.3696 94.806 7.89762 0.295232 -0.893546 -0.338251
-31.8845 94.9465 7.95174 0.324065 -0.884526 -0.335554
-32.6985 95.0409 6.9946 0.296524 -0.892393 -0.340161
-31.6183 95.3691 7.1151 0.351332 -0.875919 -0.330653
-30.7215 95.6854 7.23015 0.340982 -0.884033 -0.319714
-31.8456 95.6201 6.21841 0.302007 -0.894129 -0.330644
-30.3575 96.1114 6.389 0.330534 -0.891887 -0.308684
-29.365 96.4471 6.49996 0.327493 -0.895585 -0.301126
-28.8304 96.618 6.55411 0.326546 -0.899681 -0.289728
-27.1237 97.4739 5.8358 0.324501 -0.904785 -0.275795
-28.33 97.0694 5.71661 0.326547 -0.899683 -0.289721
-29.9321 96.5567 5.55538 0.318878 -0.901736 -0.291871
-31.596 96.0049 5.37078 0.330475 -0.891865 -0.308811
-31.6671 95.9825 5.36299 0.304647 -0.898332 -0.316527
-30.6252 96.6184 4.59989 0.317737 -0.903083 -0.288936
-29.6419 96.9324 4.70083 0.319714 -0.902588 -0.288301
-28.6168 97.2626 4.80364 0.311477 -0.90834 -0.279107
-27.2536 97.6951 4.93033 0.321431 -0.90855 -0.266869
-25.9391 98.1214 5.04668 0.314141 -0.910526 -0.268808
-24.4305 98.835 4.26695 0.296117 -0.92534 -0.236772
-25.8527 98.4005 4.16104 0.310359 -0.917273 -0.249576
-26.8099 98.1008 4.0809 0.31467 -0.913318 -0.258521
-27.9145 97.7391 3.9791 0.312618 -0.911348 -0.267798
-29.5016 97.2559 3.83237 0.300995 -0.913389 -0.274084
-29.7136 97.1927 3.81257 0.304721 -0.907012 -0.290646
-29.5161 97.5207 2.94822 0.298785 -0.912841 -0.278295
-27.9039 98.0039 3.09415 0.30099 -0.913392 -0.274081
-26.7981 98.3484 3.19101 0.307292 -0.917837 -0.251289
-25.7704 98.6691 3.27601 0.308821 -0.91756 -0.250426
-24.5842 99.0219 3.36239 0.288861 -0.926667 -0.240514
-23.547 99.3356 3.43208 0.282144 -0.933564 -0.221026
-23.1411 99.4429 3.45465 0.260743 -0.942539 -0.208888
