-47.3101 97.551 -11.9206 -0.122093 -0.975006 -0.185624
-47.0898 97.3219 -10.8619 -0.114127 -0.976956 -0.180094
-46.9521 97.0175 -9.68198 -0.0878336 -0.966515 -0.241108
-46.851 96.713 -8.58618 -0.090976 -0.957547 -0.273547
-46.6447 96.265 -7.17824 -0.0710934 -0.951081 -0.300649
-46.4395 95.6643 -5.38776 0.0400949 -0.93986 -0.339197
-46.3124 95.3291 -4.44402 0.0562832 -0.948448 -0.309982
-46.1573 94.8092 -2.93674 0.13968 -0.92551 -0.352024
-46.1984 94.4547 -1.91992 0.192587 -0.921448 -0.334839
-46.4209 93.9839 -0.878071 0.219533 -0.905816 -0.362356
-46.8875 93.4168 0.426515 0.286284 -0.905353 -0.310112
-47.3798 92.908 1.3243 0.327774 -0.887703 -0.323338
-48.3683 92.2233 2.37087 0.369528 -0.898651 -0.236379
-49.35 91.6397 3.06202 0.374733 -0.916278 -0.141455
-50.6218 90.9728 3.94811 0.421888 -0.906647 -0.00127892
-51.5812 90.491 4.52035 0.500169 -0.86268 0.0367455
-52.4146 90.1137 5.09276 0.452492 -0.88878 0.0729411
-53.1418 89.8249 5.75239 0.442489 -0.885557 0.139165
-54.1382 89.487 6.69334 0.495378 -0.850132 0.178536
-54.8373 89.2742 7.65001 0.500768 -0.848402 0.171597
-55.695 88.9927 8.71338 0.517398 -0.829937 0.208575
-56.4756 88.6484 9.44645 0.556972 -0.805035 0.204206
-57.1689 88.3747 10.2582 0.563575 -0.804193 0.18802
-57.8083 88.0468 11.1856 0.638881 -0.754569 0.149857
-58.3009 87.7684 12.1411 0.655351 -0.74829 0.102847
-58.8391 87.3311 13.4981 0.723118 -0.690386 -0.0132117
-59.2585 86.8756 14.3902 0.728212 -0.684035 0.0282194
-59.5398 86.3444 15.2475 0.803824 -0.585761 -0.103691
-59.7629 85.8686 16.1227 0.839578 -0.515671 -0.170856
-59.8349 85.4879 16.9143 0.839316 -0.515785 -0.171799
-60.3779 84.7659 16.4291 0.839579 -0.515669 -0.170857
-60.2313 85.3533 15.3714 0.839842 -0.515553 -0.169914
-59.9933 85.8566 14.4881 0.804248 -0.585726 -0.100498
-59.6219 86.534 13.4821 0.7591 -0.642963 -0.0603652
-59.2106 86.949 12.3272 0.704533 -0.707694 0.052934
-58.5054 87.4042 10.8013 0.649365 -0.751741 0.108046
-57.5487 87.9498 9.44226 0.576927 -0.801242 0.147995
-56.8812 88.2142 8.63383 0.531512 -0.82973 0.170394
-55.9966 88.6148 7.83844 0.52461 -0.832948 0.175834
-55.187 88.8598 6.63753 0.51542 -0.842683 0.153494
-54.6111 89.0308 5.7522 0.480814 -0.863508 0.152222
-53.7968 89.3731 5.1216 0.484696 -0.862537 0.145021
-53.0548 89.7312 4.40379 0.489205 -0.866257 0.0901461
-52.1189 90.1383 3.55789 0.500165 -0.862682 0.0367416
-50.7949 90.8938 2.83342 0.477996 -0.868665 -0.07922
-50.0594 91.4656 2.31063 0.454417 -0.873482 -0.149305
-49.2217 91.9513 1.75814 0.429746 -0.880457 -0.200284
-48.4374 92.5391 1.20287 0.391274 -0.860183 -0.32452
-47.9171 93.0657 0.297498 0.362476 -0.880973 -0.304135
-47.4633 93.7878 -0.963759 0.220069 -0.89222 -0.390564
-47.238 94.269 -2.02681 0.170865 -0.910704 -0.376062
-47.1666 94.9552 -3.67226 0.108581 -0.928307 -0.355608
-47.3238 95.4755 -4.88421 0.0295328 -0.926836 -0.371493
-47.412 95.8444 -5.91005 -0.00779325 -0.934949 -0.354185
-47.5555 96.2483 -6.91782 -0.0167201 -0.928933 -0.36987
-47.7852 96.6664 -8.20143 -0.0678521 -0.955372 -0.287506
-47.895 97.0739 -9.40983 -0.12969 -0.950157 -0.280745
-48.1135 97.4969 -10.9443 -0.143745 -0.960178 -0.239574
-48.2961 97.7201 -11.995 -0.155641 -0.971876 -0.176726
-48.4499 97.9689 -13.0417 -0.187258 -0.961435 -0.201439
-48.6048 98.1535 -14.1605 -0.213836 -0.969013 -0.123645
-48.7365 98.3184 -15.4029 -0.222044 -0.971599 -0.0639728
-48.8318 98.3657 -16.5004 -0.230363 -0.972634 0.00376841
-48.8907 98.3469 -17.6142 -0.22541 -0.972649 0.0498016
-48.8347 98.2589 -18.6147 -0.238108 -0.968576 0.0718704
-48.1814 97.9303 -20.0658 -0.229315 -0.963652 0.135017
-47.439 97.6182 -20.8775 -0.258917 -0.951063 0.165996
-46.5266 97.0503 -21.9238 -0.376892 -0.889063 0.259843
-45.781 96.2546 -23.0862 -0.352327 -0.858799 0.371926
-45.4754 95.3631 -23.9557 -0.309964 -0.709806 0.632533
-45.1459 94.3989 -24.9732 -0.16478 -0.639888 0.743673
-45.1168 93.4255 -25.6623 -0.119509 -0.576062 0.808622
-45.1268 92.3519 -26.6901 0.0297304 -0.700052 0.713473
-45.1227 91.1851 -27.7741 0.0834951 -0.68298 0.72554
-44.9628 90.377 -28.5679 0.0905729 -0.69792 0.710297
-43.8696 89.8264 -29.2292 0.0846046 -0.682776 0.725519
-42.3568 89.9738 -29.2771 0.0847715 -0.692079 0.716826
-41.2298 90.559 -28.8748 0.116373 -0.70018 0.703969
-40.3565 91.1152 -28.4371 0.122263 -0.715234 0.688041
-39.5481 91.9009 -27.7793 0.131308 -0.71233 0.689452
-39.0483 92.5026 -27.1379 0.133411 -0.776992 0.615211
-38.3491 93.214 -26.3409 0.115507 -0.8082 0.577459
-37.8699 93.8424 -25.5366 0.0665174 -0.843232 0.533418
-37.5789 94.7779 -24.0141 0.0549615 -0.870601 0.488623
-37.4016 95.48 -22.5637 0.0229018 -0.925289 0.37857
-37.2209 95.9096 -21.5486 0.00189681 -0.93268 0.359124
-37.3049 96.2904 -20.4631 0.00841879 -0.95359 0.298502
-37.4718 96.5807 -19.2277 -0.00966936 -0.987574 0.15651
-37.5594 96.7821 -17.6514 -0.0387774 -0.993944 0.102813
-37.7129 96.8934 -16.5197 -0.0562873 -0.996481 0.0621062
-37.9426 96.9772 -15.3835 -0.0339414 -0.998207 0.0313554
-38.2723 96.9715 -14.3078 -0.0501067 -0.995434 -0.0812481
-38.5968 96.9004 -13.2377 -0.0501068 -0.995434 -0.081248
-38.9606 96.8253 -12.1215 -0.0483935 -0.995369 -0.0830521
-39.3874 96.7592 -10.9595 -0.0144757 -0.995098 -0.0913597
-39.7262 96.6362 -9.89894 0.00867441 -0.990593 -0.13431
-40.0604 96.4836 -8.94395 -0.00415737 -0.987911 -0.154969
-40.6916 96.2431 -7.40638 -0.00394111 -0.987533 -0.15736
-41.0683 96.0646 -6.43146 0.0202688 -0.98548 -0.168436
-41.6888 95.7867 -4.99035 0.0514343 -0.982275 -0.180249
-42.0862 95.5831 -4.00989 0.0627411 -0.979934 -0.18876
-42.8909 95.3538 -2.70462 0.15188 -0.971482 -0.113957
-43.2596 95.0519 -1.75035 0.255217 -0.932063 -0.25091
-43.3378 94.5747 -0.252073 0.217342 -0.937139 -0.273006
-43.2004 94.2783 1.05006 0.230245 -0.944238 -0.235378
-42.9593 94.0607 2.02829 0.285502 -0.923639 -0.254354
-42.4384 93.6809 3.95544 0.235831 -0.935719 -0.262324
-41.5297 93.6137 5.27766 0.199191 -0.961135 -0.190174
-40.5832 93.5743 6.36913 0.18018 -0.964892 -0.191099
-39.6823 93.5971 7.0836 0.17909 -0.964278 -0.195179
-38.5415 93.7045 7.65074 0.190434 -0.96327 -0.189328
-37.4319 93.84 8.16826 0.196116 -0.939619 -0.280453
-35.9448 94.0988 8.49281 0.238526 -0.919822 -0.311041
-34.5562 94.5613 8.19985 0.248637 -0.911675 -0.327153
-33.9523 94.9982 7.41384 0.282133 -0.90275 -0.322502
-33.5801 95.4425 6.56583 0.318642 -0.88896 -0.328953
-33.0342 96.1398 5.22994 0.31944 -0.893106 -0.31618
-31.9178 96.8989 4.12266 0.315787 -0.900647 -0.298517
-31.4278 97.371 3.21655 0.302772 -0.903137 -0.304423
-30.2112 98.217 1.86271 0.287098 -0.912581 -0.290995
-29.613 98.6303 1.13395 0.268852 -0.923081 -0.274258
-28.8578 99.0426 0.405575 0.259745 -0.930721 -0.257471
-27.8945 99.5602 -0.391957 0.288545 -0.923622 -0.252316
-27.136 99.9507 -0.940902 0.284587 -0.922649 -0.260198
-26.4841 100.358 -1.69336 0.279296 -0.925054 -0.257427
-25.3082 100.968 -2.68459 0.258515 -0.934762 -0.243703
-24.3358 101.417 -3.37098 0.236435 -0.939436 -0.247055
-22.9055 102.007 -4.5417 0.190405 -0.956181 -0.222407
-22.2351 102.29 -5.23793 0.157474 -0.962638 -0.220013
-21.2702 102.535 -5.67496 0.148578 -0.954851 -0.253806
-20.4325 102.806 -6.30887 0.0864872 -0.970886 -0.222632
-19.5794 103.013 -6.94461 0.0763968 -0.967855 -0.239039
-18.6956 103.25 -7.55277 0.0844182 -0.963739 -0.253144
-17.6106 103.42 -8.18453 -0.0147147 -0.968509 -0.24848
-16.6276 103.542 -8.69825 -0.0125623 -0.967266 -0.253452
-15.6965 103.55 -9.18468 -0.120159 -0.963522 -0.23914
-14.343 103.571 -9.94822 -0.168705 -0.949401 -0.254433
-13.3675 103.51 -10.5809 -0.256034 -0.931176 -0.258251
-12.4093 103.31 -10.9015 -0.275017 -0.930791 -0.240817
-11.3958 102.889 -11.0749 -0.454413 -0.854783 -0.250707
-10.4692 102.379 -11.1683 -0.495036 -0.842523 -0.212276
-8.93885 101.125 -10.8685 -0.649071 -0.75506 -0.00655673
-8.12328 100.539 -10.6216 -0.592597 -0.804079 0.0478118
-7.25157 99.9172 -10.2847 -0.574658 -0.815222 0.0664009
-6.23077 99.2795 -9.78723 -0.57855 -0.80901 0.0993394
-5.3514 98.713 -9.23522 -0.583279 -0.801825 0.129809
-4.43556 98.1303 -8.73017 -0.560041 -0.811959 0.160273
-3.51259 97.7377 -7.65278 -0.560997 -0.787715 0.246864
-2.42002 97.4459 -6.37306 -0.569719 -0.757495 0.317549
-2.04531 97.5928 -5.43633 -0.555482 -0.752785 0.352901
-2.16356 98.0964 -4.51593 -0.513061 -0.780543 0.357101
-2.81316 98.7139 -4.0484 -0.504098 -0.792799 0.342572
-4.228 99.3687 -4.02727 -0.338371 -0.886066 0.316846
-5.41695 99.8035 -4.19467 -0.358742 -0.890067 0.28122
-6.39608 100.101 -4.3094 -0.329896 -0.92377 0.194468
-7.4984 100.489 -4.23548 -0.308958 -0.951048 0.00727209
-8.53109 100.88 -4.24437 -0.394306 -0.918513 0.0264918
-9.76337 101.414 -4.11837 -0.359431 -0.931935 -0.0153757
-10.9345 101.816 -3.96327 -0.330217 -0.942654 -0.048573
-12.0384 102.144 -3.74026 -0.274089 -0.960974 -0.0372868
-13.3109 102.341 -3.00049 -0.0873324 -0.994383 -0.05839
-14.1714 102.367 -2.37742 -0.0406171 -0.994918 -0.0820477
-15.657 102.273 -1.32673 -0.00257734 -0.996067 -0.0885604
-16.8678 102.026 0.200924 0.0654557 -0.991869 -0.10914
-17.6712 101.745 1.31286 0.159824 -0.975702 -0.146263
-18.5615 101.495 2.18538 0.162658 -0.980077 -0.113978
-19.4559 101.143 3.01945 0.232139 -0.960279 -0.15467
-20.3133 100.804 3.74977 0.250796 -0.953394 -0.167633
-21.0516 100.47 4.56025 0.274307 -0.941221 -0.193032
-21.9623 100.108 4.8335 0.303798 -0.927822 -0.216456
-22.8588 99.7444 5.15835 0.316867 -0.924441 -0.211389
-23.6997 99.3227 5.65287 0.321483 -0.919014 -0.227891
-24.5999 98.8734 6.21502 0.325252 -0.915337 -0.237026
-25.5593 98.4677 6.40393 0.340799 -0.905134 -0.253665
-26.9523 97.7718 6.94834 0.337431 -0.900307 -0.274731
-27.8412 97.263 7.53826 0.328256 -0.901747 -0.281246
-28.9789 96.7623 7.7396 0.348172 -0.886738 -0.304091
-30.2469 96.2056 7.93062 0.382013 -0.875477 -0.293312
-31.1344 95.674 8.33252 0.340192 -0.873296 -0.348745
-31.7926 95.1808 8.90577 0.352122 -0.865822 -0.355474
-32.1428 94.6491 9.73913 0.29581 -0.868234 -0.393919
-32.3205 94.1134 10.9068 0.241752 -0.898384 -0.366691
-32.204 93.6955 11.849 0.14696 -0.912069 -0.375789
-31.7351 93.2787 13.0724 0.0588225 -0.917931 -0.392354
-31.3721 92.78 14.1243 -0.0826584 -0.928011 -0.363267
-31.1318 92.3778 15.0591 -0.208713 -0.899121 -0.3651
-30.9119 92.0501 16.0083 -0.132546 -0.947304 -0.291628
-30.8398 91.4562 17.7305 -0.182099 -0.933018 -0.306257
-30.7802 91.1602 18.7202 -0.231595 -0.918183 -0.316532
-30.9053 90.5843 20.4623 -0.286306 -0.913432 -0.289261
-31.2799 90.0872 22.2013 -0.280187 -0.89695 -0.342016
-31.4034 89.6717 23.4742 -0.328169 -0.879999 -0.342226
-31.9439 89.5204 24.3033 -0.32035 -0.872804 -0.368224
-32.4889 89.3291 25.2036 -0.304526 -0.839975 -0.444331
-32.9264 88.9634 26.0765 -0.389635 -0.784079 -0.483121
-33.4207 88.6928 26.9089 -0.29969 -0.749391 -0.590423
-33.8219 88.177 27.7349 -0.256829 -0.727055 -0.635826
-34.4408 87.7362 28.438 -0.248717 -0.706997 -0.662039
-35.0005 87.2738 29.1267 -0.244109 -0.631944 -0.731364
-35.4511 86.5824 29.7748 -0.30656 -0.570438 -0.761985
-36.1832 85.8426 30.6191 -0.302867 -0.564506 -0.767857
-36.8973 85.382 31.2393 -0.298762 -0.564329 -0.769581
-38.0926 84.8195 32.0809 -0.303934 -0.535151 -0.787923
-38.6932 84.1419 32.7996 -0.338701 -0.557554 -0.75724
-39.3656 83.5523 33.572 -0.364158 -0.546318 -0.754272
-40.0038 82.7671 34.4611 -0.38225 -0.55219 -0.740926
-40.6649 81.9241 35.5161 -0.372412 -0.616682 -0.69355
-41.1831 81.4219 36.2667 -0.385438 -0.621782 -0.681781
-41.7216 81.0428 37.0515 -0.351506 -0.711474 -0.60848
-42.4601 80.689 37.8919 -0.342736 -0.742002 -0.574271
-43.2749 80.5221 38.6818 -0.304807 -0.806487 -0.500464
-44.1757 80.451 39.2255 -0.23253 -0.837322 -0.494795
-45.3305 80.5237 39.7906 -0.281966 -0.855516 -0.434268
-46.5115 80.6128 40.0216 -0.129826 -0.896335 -0.423945
-48.0808 80.8521 40.0768 -0.11306 -0.943605 -0.308967
-49.3364 81.028 39.9013 -0.0948481 -0.955565 -0.279103
-50.3419 81.1334 39.5989 -0.0151645 -0.958886 -0.283387
-51.2814 81.2112 39.1415 0.067182 -0.974924 -0.208231
-52.1265 81.2402 38.5637 0.118937 -0.975742 -0.181784
-52.9944 81.2163 37.994 0.171014 -0.972019 -0.155619
-54.0509 81.0943 37.2605 0.217978 -0.964954 -0.146113
-54.997 80.9722 36.5025 0.264309 -0.9447 -0.194122
-56.0301 80.7916 35.5326 0.373198 -0.890538 -0.240418
-56.9898 80.7082 34.4082 0.494027 -0.838498 -0.22342
-57.5609 80.6119 33.3107 0.540773 -0.814563 -0.209887
-58.0354 80.5393 32.2538 0.568409 -0.802389 -0.180177
-58.3667 80.4549 31.1778 0.643948 -0.751253 -0.129363
-58.7305 80.3516 30.2318 0.660752 -0.721123 -0.206305
-58.7595 80.6803 29.1326 0.725544 -0.656231 -0.170273
-58.7748 81.1618 27.2663 0.80185 -0.559797 -0.207489
-58.855 81.4754 26.1626 0.816473 -0.509973 -0.264125
-58.9016 82.2839 24.7368 0.838137 -0.457013 -0.296889
-59.1799 82.6443 23.4971 0.844628 -0.438344 -0.306826
-59.4284 82.9244 22.4302 0.851293 -0.414052 -0.321836
-59.6337 83.2732 21.4662 0.85677 -0.39894 -0.326792
-59.9334 83.6352 20.1933 0.859696 -0.403034 -0.313825
-60.2077 84.0146 18.7388 0.857942 -0.458575 -0.230567
-60.4051 84.3146 17.5104 0.849514 -0.46458 -0.249983
-60.4635 84.3615 17.2248 0.844415 -0.490182 -0.210892
-32.9398 95.2473 7.71914 0.301121 -0.888064 -0.346432
-32.1811 95.9927 6.45108 0.323678 -0.885707 -0.332801
-31.4138 96.7188 5.19428 0.319703 -0.898648 -0.300328
-30.8405 97.1811 4.43466 0.320947 -0.90085 -0.292155
-30.0881 97.8311 3.202 0.312549 -0.906719 -0.283099
-29.4046 98.3037 2.36451 0.301048 -0.915739 -0.266068
-28.7483 98.7295 1.64774 0.268844 -0.923083 -0.274258
-27.6372 99.3531 0.660358 0.290291 -0.922696 -0.253687
-26.6099 99.9085 -0.192958 0.286021 -0.925348 -0.24877
-25.905 100.3 -0.857369 0.279296 -0.925054 -0.257427
-24.9659 100.82 -1.75081 0.258515 -0.934762 -0.243703
-24.1642 101.213 -2.42016 0.239631 -0.942342 -0.232916
-23.1667 101.621 -3.13688 0.221952 -0.946346 -0.234264
-22.2368 101.946 -3.78625 0.165768 -0.959716 -0.226862
-20.8206 102.396 -4.72661 0.138792 -0.966222 -0.216862
-19.4794 102.744 -5.71104 0.0813188 -0.980766 -0.177441
-18.5296 102.953 -6.36514 0.0763913 -0.967855 -0.239043
-17.5446 103.132 -7.04281 -0.016867 -0.969752 -0.243508
-16.6298 103.255 -7.59604 -0.00442935 -0.97309 -0.229601
-15.6017 103.291 -8.15052 -0.0865635 -0.977682 -0.191426
-14.5043 103.287 -8.72692 -0.196046 -0.964619 -0.173821
-13.5824 103.175 -9.26266 -0.237048 -0.931558 -0.275695
-12.5836 103.055 -9.71725 -0.256035 -0.931174 -0.258258
-11.6182 102.703 -10.0357 -0.454413 -0.854784 -0.250707
-10.708 102.306 -10.2077 -0.465992 -0.870901 -0.141825
-9.41023 101.483 -10.0643 -0.498589 -0.86051 -0.0980837
-8.57519 100.908 -9.83349 -0.581715 -0.813291 -0.0128797
-7.79524 100.345 -9.53538 -0.549732 -0.833705 0.0181374
-6.57242 99.5914 -8.91366 -0.555623 -0.828373 0.071283
-5.70176 99.0975 -8.41068 -0.523024 -0.84611 0.102684
-4.59371 98.4948 -7.58352 -0.536837 -0.822603 0.187434
-3.84812 98.2196 -6.9334 -0.458263 -0.838969 0.287567
-3.23578 98.1496 -6.05895 -0.494944 -0.809908 0.314768
-3.39791 98.5402 -5.25389 -0.457867 -0.844082 0.279076
-4.33123 99.0693 -5.06709 -0.395036 -0.876272 0.275853
-5.44742 99.5098 -5.16306 -0.358742 -0.890067 0.28122
-6.42698 99.9736 -5.23107 -0.391266 -0.911891 0.123959
-7.58481 100.461 -5.22751 -0.379844 -0.924896 0.0168873
-8.6172 100.9 -5.21607 -0.400954 -0.915977 0.0148836
-9.83976 101.427 -5.10984 -0.388642 -0.921217 0.0178177
-10.9605 101.878 -4.97424 -0.303435 -0.951502 -0.0415565
-12.6295 102.352 -4.52489 -0.246403 -0.963399 -0.0865742
-13.6021 102.419 -4.06154 -0.0940892 -0.994436 -0.0473772
-14.5197 102.473 -3.48302 -0.0406171 -0.994918 -0.0820477
-15.9001 102.371 -2.39988 -0.0235676 -0.992567 -0.115311
-16.6814 102.246 -1.63958 0.0493443 -0.990638 -0.127289
-17.362 102.095 -0.786444 0.110326 -0.983827 -0.139894
-18.0884 101.871 0.258225 0.139561 -0.977926 -0.15211
-19.1369 101.498 1.36657 0.165838 -0.970741 -0.173363
-20.1273 101.119 2.25628 0.212984 -0.961526 -0.17351
-21.0228 100.757 3.01339 0.240456 -0.950678 -0.195938
-21.7755 100.449 3.63629 0.274305 -0.941222 -0.193029
-23.309 99.7782 4.39842 0.299858 -0.924471 -0.234957
-24.8609 99.0552 5.15477 0.325252 -0.915337 -0.237026
-25.7492 98.644 5.4653 0.327784 -0.911235 -0.249021
-27.0225 98.058 5.94909 0.326935 -0.905449 -0.270436
-27.9806 97.5585 6.4282 0.328256 -0.901747 -0.281246
-29.085 97.0329 6.82904 0.337721 -0.894425 -0.292661
-30.5912 96.3534 7.11774 0.336176 -0.886542 -0.317826
-31.5343 95.9904 7.12095 0.339472 -0.884787 -0.319235
-32.4061 95.3756 7.82356 0.318391 -0.875937 -0.360685
-31.0637 96.6587 5.75022 0.326289 -0.896925 -0.298431
-29.9693 97.0197 5.87033 0.328375 -0.897049 -0.295758
-28.9116 97.3625 5.97978 0.318934 -0.900949 -0.294232
-28.7246 97.4225 5.99855 0.323116 -0.901556 -0.287737
-30.0381 97.2882 4.97971 0.326292 -0.896925 -0.298428
-29.017 97.6144 5.08374 0.313057 -0.90878 -0.275887
-27.6952 98.0292 5.20851 0.316598 -0.91005 -0.267533
-26.6813 98.3639 5.304 0.324646 -0.909513 -0.259598
-24.9352 99.1827 4.55851 0.307044 -0.919565 -0.245204
-25.9206 98.8646 4.47691 0.317739 -0.912181 -0.258779
-26.9208 98.5397 4.38849 0.316598 -0.91005 -0.267533
-27.9013 98.234 4.30095 0.308507 -0.910472 -0.275436
-29.0216 97.8826 4.19512 0.310235 -0.908663 -0.279438
-29.982 97.5865 4.10224 0.312557 -0.906731 -0.283103
-29.4584 98.0228 3.2703 0.304242 -0.912176 -0.274539
-28.4844 98.3166 3.36116 0.298742 -0.916525 -0.265961
-27.1174 98.7336 3.48149 0.304941 -0.91692 -0.257427
-26.1187 99.0479 3.56766 0.316913 -0.914124 -0.25287
-24.515 99.5541 3.69635 0.301323 -0.920279 -0.249582
-23.3853 99.9074 3.77812 0.286968 -0.930141 -0.229101
-21.9243 100.537 2.97017 0.239519 -0.950826 -0.196368
-23.2123 100.179 2.89485 0.286973 -0.929969 -0.229794
-24.6112 99.7624 2.79798 0.298257 -0.926213 -0.230591
-25.7191 99.4247 2.71226 0.309923 -0.917491 -0.249314
-27.1441 98.9746 2.59122 0.307879 -0.91581 -0.257883
-28.3574 98.6112 2.4865 0.29644 -0.917303 -0.265856
-28.6015 98.5384 2.46531 0.298746 -0.916524 -0.265961
-28.0229 98.9621 1.63157 0.291912 -0.921759 -0.25524
-26.6338 99.3698 1.74577 0.300152 -0.921161 -0.247733
-24.9766 99.8747 1.87885 0.291695 -0.926884 -0.236221
-23.9159 100.192 1.95694 0.28793 -0.929887 -0.228926
-22.9293 100.481 2.02316 0.262904 -0.940925 -0.213404
-21.9326 100.721 2.07371 0.238582 -0.950973 -0.196797
-20.8674 100.979 2.12272 0.226759 -0.956267 -0.184756
-20.1693 101.295 1.25664 0.210833 -0.957936 -0.194698
-21.2191 101.072 1.21628 0.219716 -0.956673 -0.191055
-22.7752 100.705 1.13794 0.237781 -0.950661 -0.199257
-23.9781 100.377 1.06106 0.261182 -0.941415 -0.213358
-25.0846 100.069 0.98321 0.291911 -0.926273 -0.238342
-26.0809 99.7768 0.905186 0.286026 -0.925365 -0.248775
-26.7965 99.5666 0.847944 0.291213 -0.923142 -0.251007
-25.433 100.195 0.0713278 0.280829 -0.927554 -0.246533
-24.4272 100.483 0.147899 0.249174 -0.940339 -0.231678
-23.0087 100.837 0.235342 0.251067 -0.938952 -0.235232
-21.848 101.102 0.296452 0.228572 -0.95532 -0.187402
-19.9302 101.526 0.378892 0.192809 -0.964307 -0.181482
-19.0203 101.686 0.405217 0.174684 -0.970159 -0.168159
-18.5505 101.925 -0.464172 0.137614 -0.976598 -0.165283
-19.5723 101.744 -0.49534 0.17646 -0.968414 -0.176168
-20.5728 101.569 -0.52903 0.164467 -0.965172 -0.203452
-21.7459 101.327 -0.580066 0.207692 -0.948783 -0.238064
-22.7815 101.113 -0.629795 0.207692 -0.948783 -0.238064
-23.854 100.846 -0.695774 0.252956 -0.937548 -0.238782
-24.839 100.596 -0.762569 0.286375 -0.926936 -0.242445
-25.1403 100.511 -0.786366 0.280067 -0.926319 -0.251984
-23.7855 101.09 -1.56734 0.249614 -0.936446 -0.246498
-22.0223 101.483 -1.46949 0.201528 -0.953957 -0.222154
-21.0246 101.681 -1.42385 0.163839 -0.965223 -0.203719
-19.4722 101.934 -1.37029 0.16509 -0.965122 -0.203188
-18.1525 102.1 -1.33927 0.0973467 -0.984129 -0.148372
-17.8435 102.13 -1.33375 0.0973414 -0.98413 -0.148369
-16.9372 102.306 -2.20374 0.0493443 -0.990638 -0.127289
-18.1827 102.23 -2.22027 0.0976874 -0.984126 -0.148166
-19.6604 102.088 -2.2518 0.131694 -0.975587 -0.175749
-20.6773 101.923 -2.2885 0.163839 -0.965223 -0.203719
-22.2443 101.642 -2.35621 0.202556 -0.954178 -0.220262
-23.0268 101.484 -2.39721 0.229662 -0.948237 -0.219324
-22.1285 101.846 -3.22815 0.181709 -0.965376 -0.187166
-20.5381 102.12 -3.16037 0.165553 -0.967406 -0.191617
-19.5413 102.257 -3.1271 0.11661 -0.977412 -0.176259
-18.3912 102.365 -3.10183 0.0873482 -0.979899 -0.179355
-17.3719 102.437 -3.08462 0.0573833 -0.980714 -0.186835
-16.451 102.489 -3.07129 0.00545712 -0.986832 -0.161656
-14.7088 102.53 -3.94851 -0.0628252 -0.987976 -0.14127
-15.7953 102.579 -3.95221 -0.046486 -0.989629 -0.135919
-16.8948 102.631 -3.95176 0.00545988 -0.986833 -0.16165
-17.9196 102.557 -3.96944 0.0792594 -0.981528 -0.174126
-18.9874 102.474 -3.98992 0.0873481 -0.979899 -0.179355
-20.0853 102.335 -4.02345 0.137727 -0.976143 -0.167857
-20.2828 102.308 -4.03018 0.133114 -0.971872 -0.194281
-19.7732 102.57 -4.88176 0.104917 -0.974345 -0.199107
-18.4771 102.672 -4.85555 0.0792004 -0.980773 -0.178357
-17.4111 102.755 -4.83627 0.0363007 -0.987576 -0.152889
-16.3258 102.738 -4.83327 -0.0435339 -0.987287 -0.15287
-15.2466 102.69 -4.83332 -0.0628253 -0.987976 -0.14127
-14.0717 102.586 -4.83566 -0.120244 -0.982497 -0.142269
-13.0964 102.466 -4.83632 -0.154648 -0.981824 -0.110023
-13.8672 103.094 -8.42205 -0.217483 -0.963875 -0.153775
-12.856 102.875 -8.47406 -0.217483 -0.963875 -0.153775
-11.7768 102.551 -8.54337 -0.434203 -0.896368 -0.0893964
-10.4789 101.931 -8.6369 -0.425412 -0.90131 -0.081644
-9.51451 101.421 -8.68476 -0.475309 -0.876576 -0.0754762
-8.35058 100.729 -8.70966 -0.550394 -0.834708 0.0181593
-7.38128 100.143 -8.69377 -0.517742 -0.854124 0.0491426
-7.21881 100.044 -8.68782 -0.536857 -0.84152 0.0602332
-5.28035 98.9588 -7.51852 -0.504714 -0.843363 0.184399
-6.23619 99.5311 -7.6114 -0.525023 -0.841665 0.126299
-7.59529 100.322 -7.68776 -0.515082 -0.85652 0.0326071
-9.11295 101.148 -7.70243 -0.459234 -0.888086 -0.0201824
-10.1819 101.717 -7.67811 -0.416548 -0.906106 -0.0738837
-11.2168 102.189 -7.63593 -0.425415 -0.901308 -0.081646
-12.2522 102.55 -7.58871 -0.263184 -0.949077 -0.173166
-13.4062 102.849 -7.53628 -0.196135 -0.965035 -0.173892
-14.7867 103.09 -7.49322 -0.130712 -0.972487 -0.192829
-15.8058 103.177 -7.47388 -0.0880306 -0.978257 -0.187789
-17.2428 103.029 -6.59334 0.0080103 -0.97643 -0.215687
-16.1018 103.037 -6.59065 -0.0407949 -0.97891 -0.200178
-14.4978 102.902 -6.61137 -0.121724 -0.981279 -0.149246
-12.9821 102.633 -6.64605 -0.195159 -0.971462 -0.134812
-11.9622 102.362 -6.67352 -0.270476 -0.958952 -0.0851734
-10.8813 101.964 -6.70518 -0.418583 -0.905981 -0.0631437
-9.87249 101.499 -6.72304 -0.404918 -0.912877 -0.0519349
-8.87174 101.034 -6.72514 -0.435964 -0.899959 0.00305933
-7.72053 100.434 -6.70311 -0.478492 -0.875687 0.0649502
-6.48 99.8283 -6.64421 -0.483439 -0.868202 0.111855
-5.20542 99.1187 -6.5215 -0.471911 -0.864298 0.174039
-4.29847 98.6142 -6.39714 -0.406227 -0.864749 0.295277
-7.49954 100.416 -5.7266 -0.409938 -0.911011 0.0448288
-8.42722 100.808 -5.75092 -0.400954 -0.915977 0.0148837
-9.7083 101.387 -5.76911 -0.391106 -0.919445 -0.0407066
-11.0367 101.971 -5.76495 -0.359751 -0.929185 -0.0848234
-12.4224 102.409 -5.74829 -0.246848 -0.965164 -0.0867408
-13.9284 102.697 -5.72885 -0.154648 -0.981824 -0.110023
-15.7833 102.851 -5.71642 -0.0628253 -0.987976 -0.14127
-16.8682 102.864 -5.71796 -0.00670024 -0.991875 -0.127042
-17.9545 102.871 -5.72051 0.0362978 -0.987576 -0.152894
-18.4685 102.832 -5.72975 0.0802596 -0.98077 -0.177899
-11.4506 102.521 -9.52433 -0.410118 -0.897356 -0.162957
-10.4524 102.063 -9.61536 -0.521864 -0.844447 -0.120697
-9.88491 101.72 -9.67094 -0.521865 -0.844447 -0.120693
-39.6475 97.028 -14.7862 -0.09829 -0.995069 -0.0133172
-40.8855 97.1504 -14.7932 -0.0783395 -0.995908 -0.0450641
-42.0337 97.257 -14.7986 -0.0983263 -0.99196 -0.0796686
-43.4165 97.4108 -14.8034 -0.138009 -0.987578 -0.0751237
-44.6196 97.5729 -14.802 -0.129395 -0.989282 -0.0676572
-45.6733 97.7251 -14.7987 -0.146637 -0.98723 -0.0622382
-47.0041 97.9309 -14.7905 -0.180952 -0.983058 -0.0292178
-47.1738 97.9621 -14.79 -0.180957 -0.983057 -0.0292177
-47.0363 97.8311 -13.8963 -0.14181 -0.980176 -0.138368
-45.7412 97.6546 -13.9067 -0.132457 -0.982388 -0.131791
-44.7225 97.5182 -13.9138 -0.126118 -0.983922 -0.126462
-43.6824 97.3807 -13.9195 -0.138005 -0.987579 -0.0751204
-42.4755 97.2304 -13.9221 -0.0985969 -0.991902 -0.08006
-41.3237 97.1155 -13.921 -0.098867 -0.991843 -0.080452
-40.2984 97.0484 -13.917 -0.0582787 -0.995346 -0.0767472
-40.4095 96.9854 -13.0446 -0.0638147 -0.994258 -0.0858944
-41.7892 97.0909 -13.0456 -0.090341 -0.991239 -0.0963551
-42.9333 97.1853 -13.045 -0.102886 -0.988201 -0.11346
-44.3708 97.3673 -13.034 -0.123553 -0.985042 -0.120112
-45.4756 97.5003 -13.0232 -0.126119 -0.983922 -0.126462
-46.4921 97.6362 -13.0111 -0.133495 -0.982287 -0.131496
-46.8253 97.681 -13.0076 -0.133495 -0.982287 -0.131496
-46.6042 97.502 -12.1276 -0.122094 -0.975006 -0.185624
-45.2724 97.3481 -12.1445 -0.120147 -0.978737 -0.166251
-43.6601 97.1739 -12.1605 -0.109539 -0.984817 -0.134675
-42.2657 97.031 -12.1694 -0.0836466 -0.989799 -0.115331
-40.6523 96.9224 -12.1718 -0.0431799 -0.992748 -0.112195
-40.5009 96.9158 -12.1719 -0.0535084 -0.993641 -0.0990644
-40.9036 96.8348 -11.2998 -0.0431822 -0.992747 -0.112199
-42.1282 96.9144 -11.2953 -0.0855157 -0.989273 -0.118434
-43.9324 97.0595 -11.2854 -0.102994 -0.978442 -0.179005
-45.1303 97.1824 -11.2713 -0.113151 -0.978855 -0.17041
-46.2409 97.2999 -11.2548 -0.10616 -0.978906 -0.174564
-46.31 97.1244 -10.382 -0.110184 -0.968714 -0.22238
-45.2949 97.0135 -10.4016 -0.0904405 -0.972618 -0.214091
-44.2393 96.932 -10.4119 -0.102999 -0.978442 -0.179006
-43.1468 96.8292 -10.4239 -0.0486148 -0.984715 -0.167253
-41.9536 96.7707 -10.426 -0.0481845 -0.984845 -0.166608
-41.2586 96.7462 -10.4266 -0.0353048 -0.988662 -0.145951
-41.4564 96.603 -9.56013 -0.0203472 -0.985646 -0.167595
-42.5629 96.6538 -9.55725 -0.0477543 -0.984975 -0.165964
-43.7326 96.7211 -9.55112 -0.0868465 -0.977468 -0.192388
-44.8525 96.7999 -9.54022 -0.0706603 -0.976064 -0.205686
-45.9736 96.8894 -9.52468 -0.0990194 -0.967718 -0.231769
-46.199 96.6739 -8.66606 -0.0909753 -0.957548 -0.273541
-44.4288 96.5561 -8.68822 -0.0709769 -0.964931 -0.252725
-42.6941 96.503 -8.69071 -0.020979 -0.976367 -0.2151
-42.2818 96.4942 -8.69071 -0.0343805 -0.981064 -0.190608
-42.3781 96.3069 -7.83116 -0.020979 -0.976367 -0.2151
-43.6885 96.3354 -7.8305 -0.0225553 -0.976381 -0.214876
-44.8479 96.362 -7.82936 -0.0467889 -0.97113 -0.233916
-45.8664 96.4265 -7.81586 -0.0609934 -0.96461 -0.256531
-45.9891 96.4338 -7.81406 -0.0531111 -0.958895 -0.278745
-46.0302 96.1697 -6.9715 -0.0452017 -0.952616 -0.300797
-45.0135 96.1508 -6.974 -0.00926983 -0.965356 -0.260772
-43.2433 96.1349 -6.97099 0.0220386 -0.971359 -0.236591
-43.182 96.1367 -6.97041 0.0138967 -0.981843 -0.189186
-42.8308 95.9648 -6.10503 0.0193002 -0.97914 -0.202268
-43.9709 95.9114 -6.12139 0.0220386 -0.971359 -0.236591
-45.2318 95.9232 -6.12234 -0.0103065 -0.965383 -0.260633
-45.7425 95.9286 -6.12239 -0.0103066 -0.965383 -0.260633
-45.6752 95.6591 -5.28299 0.0400971 -0.939859 -0.3392
-43.7283 95.7365 -5.25586 0.0522637 -0.975893 -0.211899
-43.5426 95.7458 -5.25305 0.0522638 -0.975893 -0.211899
-44.0054 95.5406 -4.39641 0.0515696 -0.97744 -0.204822
-45.2836 95.4051 -4.43747 0.072476 -0.957036 -0.280765
-45.7295 95.3744 -4.44783 0.0724734 -0.957037 -0.280763
-45.7341 95.1251 -3.59942 0.106218 -0.942522 -0.316813
-44.5208 95.2465 -3.56018 0.138132 -0.954162 -0.265507
-44.2204 95.2866 -3.5483 0.138132 -0.954161 -0.26551
-44.7945 94.9865 -2.71069 0.178188 -0.946922 -0.267558
-45.2549 94.8904 -2.74018 0.18944 -0.933877 -0.303294
-45.3581 94.5955 -1.89654 0.18944 -0.933877 -0.303293
-45.0259 94.6645 -1.87423 0.213128 -0.930121 -0.299084
-45.2347 94.353 -1.02941 0.241798 -0.925763 -0.290684
-45.7488 94.2254 -1.07458 0.234918 -0.911769 -0.336884
-45.9362 93.8886 -0.232592 0.250086 -0.916881 -0.311103
-45.2357 94.0623 -0.170483 0.260442 -0.914613 -0.309277
-44.9549 93.8539 0.723548 0.266652 -0.920667 -0.285077
-46.1443 93.5527 0.616778 0.244795 -0.923002 -0.29689
-46.464 93.1963 1.46131 0.286604 -0.906353 -0.310456
-45.2628 93.502 1.57236 0.266496 -0.920742 -0.284981
-44.7314 93.6407 1.62119 0.266574 -0.920705 -0.285029
-44.691 93.4238 2.5201 0.26357 -0.941079 -0.2119
-46.0292 93.074 2.39398 0.287338 -0.93195 -0.221146
-47.4895 92.6041 2.23025 0.329393 -0.918677 -0.21802
-48.0811 92.1582 3.06754 0.369528 -0.898651 -0.236379
-47.0791 92.526 3.17907 0.319112 -0.920726 -0.224567
-45.955 92.8719 3.3001 0.308773 -0.922641 -0.231071
-44.9725 93.1474 3.39743 0.263571 -0.941078 -0.2119
-44.1756 93.3521 3.4705 0.261421 -0.941493 -0.21272
-44.2695 93.1313 4.37009 0.265917 -0.943393 -0.198238
-45.3995 92.857 4.26421 0.265712 -0.959312 -0.0954816
-46.6311 92.5163 4.14366 0.273485 -0.957992 -0.0863531
-47.7083 92.1697 4.03773 0.34165 -0.934446 -0.100427
-49.1614 91.6084 3.89402 0.392523 -0.913151 -0.109917
-50.5687 90.9895 4.69944 0.413704 -0.910286 -0.0150839
-49.6327 91.4063 4.80317 0.333394 -0.942784 -0.00263438
-48.4876 91.8109 4.90693 0.330237 -0.943872 -0.00702467
-47.5067 92.1363 4.99263 0.337788 -0.93546 -0.103993
-46.3265 92.5169 5.10167 0.265718 -0.95931 -0.0954857
-45.2208 92.8028 5.20272 0.25791 -0.96049 -0.104601
-44.2187 93.0009 5.29438 0.195277 -0.975436 -0.10194
-43.3176 93.1886 5.37436 0.239087 -0.950499 -0.198466
-42.434 93.2061 6.37957 0.167468 -0.97886 -0.117418
-43.8345 92.9707 6.25717 0.187413 -0.975368 -0.116335
-45.0569 92.7447 6.14038 0.226712 -0.968465 -0.103326
-46.0597 92.504 6.05247 0.212364 -0.976789 -0.0280215
-47.2468 92.2048 5.95709 0.288539 -0.957246 -0.0206191
-48.3478 91.8477 5.86436 0.327068 -0.944932 -0.0114131
-49.5464 91.4341 5.76198 0.330236 -0.943872 -0.00702324
-50.8262 90.9123 5.62863 0.367729 -0.925743 0.0881787
-51.8446 90.4727 5.52684 0.431197 -0.896625 0.100666
-52.1249 90.3223 5.50079 0.460414 -0.879148 0.122951
-53.1148 89.9454 6.37053 0.424575 -0.89196 0.155384
-51.795 90.5769 6.48816 0.401262 -0.912618 0.0782093
-50.4659 91.1497 6.61837 0.355052 -0.932028 0.0725394
-49.4021 91.5438 6.71676 0.342219 -0.937898 0.0568683
-48.1594 91.9353 6.82277 0.28305 -0.957061 0.0625868
-47.173 92.1914 6.8984 0.229326 -0.970894 0.0690999
-46.0068 92.4887 6.98772 0.213555 -0.976593 -0.025712
-44.292 92.7862 7.14237 0.12575 -0.991493 -0.0336096
-42.5255 93.0791 7.30767 0.167317 -0.978849 -0.117725
-41.6386 93.2226 7.37397 0.142996 -0.982094 -0.122651
-40.7831 93.1987 8.35798 0.118751 -0.984744 -0.127191
-41.7943 93.0862 8.2849 0.142996 -0.982094 -0.12265
-43.3446 92.869 8.17266 0.123853 -0.991537 -0.0389215
-44.5218 92.7259 8.0593 0.12575 -0.991493 -0.0336098
-45.8294 92.5049 7.93719 0.214744 -0.97639 -0.0234027
-46.834 92.3325 7.85587 0.165336 -0.98607 0.0181455
-47.9379 92.0515 7.77726 0.274753 -0.960043 0.053173
-49.0625 91.7246 7.68546 0.283052 -0.95706 0.0625864
-50.2778 91.3165 7.5793 0.29774 -0.938119 0.17687
-51.357 90.9189 7.48069 0.363331 -0.915883 0.170732
-52.3012 90.5153 7.39458 0.372513 -0.910185 0.181102
-53.3316 90.0099 7.30134 0.431941 -0.885115 0.173202
-53.7295 89.8086 7.26461 0.428277 -0.888585 0.164301
-54.2223 89.7669 8.14486 0.465099 -0.860275 0.20883
-53.324 90.207 8.24571 0.411441 -0.887429 0.207814
-52.2303 90.7354 8.35472 0.363334 -0.915883 0.170724
-51.2465 91.1276 8.43627 0.35407 -0.921376 0.160316
-50.1774 91.5261 8.52209 0.279825 -0.948188 0.150461
-48.9032 91.8889 8.63438 0.261596 -0.957195 0.123878
-47.7469 92.1996 8.72429 0.219348 -0.971117 0.0939023
-46.5934 92.4087 8.81593 0.156825 -0.985132 0.0701488
-45.4955 92.59 8.9071 0.141321 -0.988469 0.054387
-44.2572 92.7221 9.0282 0.123129 -0.991629 -0.0388619
-43.264 92.8419 9.11771 0.123852 -0.991537 -0.0389214
-41.6443 93.0284 9.22237 0.118823 -0.991259 -0.0573231
-40.5578 93.1622 9.29454 0.125869 -0.990259 -0.059535
-39.2693 93.2587 9.38316 0.128185 -0.984215 -0.122026
-37.923 93.449 9.47009 0.176925 -0.962731 -0.204564
-34.3455 94.06 9.71862 0.218625 -0.924373 -0.312632
-33.9895 94.1378 9.7498 0.229067 -0.910487 -0.344298
-33.8554 93.8953 10.6319 0.207906 -0.937051 -0.280555
-35.3739 93.6207 10.5184 0.176052 -0.945335 -0.274496
-36.7082 93.4046 10.4324 0.127686 -0.969865 -0.207506
-37.7902 93.2909 10.3811 0.101259 -0.979205 -0.175798
-39.4765 93.1189 10.2934 0.0963494 -0.988373 -0.117628
-41.3168 93.0127 10.1764 0.0952268 -0.991699 -0.0863974
-42.4546 92.9014 10.1074 0.0951343 -0.995441 0.00688498
-43.6366 92.808 10.0316 0.0681646 -0.997175 0.0315593
-44.8784 92.7012 9.92232 0.0814493 -0.995536 0.0476904
-45.9495 92.5681 9.82516 0.125759 -0.99131 0.0385953
-47.5285 92.3008 9.68949 0.190728 -0.979834 0.059568
-48.6184 92.0847 9.59721 0.191447 -0.978577 0.0757275
-49.982 91.7129 9.4762 0.254016 -0.956519 0.143344
-50.954 91.3944 9.40423 0.34155 -0.930857 0.129803
-51.9209 91.0091 9.32866 0.356954 -0.923388 0.141204
-53.329 90.4188 9.17934 0.397063 -0.901131 0.174081
-54.3235 89.9329 9.05392 0.465099 -0.860275 0.208829
-55.3536 89.2681 8.96249 0.517398 -0.829937 0.208575
-55.951 89.0959 9.77971 0.556972 -0.805035 0.204209
-54.7422 89.8913 9.92656 0.503829 -0.844666 0.180818
-53.7801 90.3894 10.0559 0.399855 -0.900785 0.169415
-52.7068 90.8912 10.2056 0.361249 -0.916766 0.17041
-51.4032 91.361 10.318 0.316087 -0.937168 0.147667
-50.0586 91.8328 10.4115 0.290229 -0.947955 0.13095
-48.5144 92.1788 10.5585 0.198795 -0.977234 0.0741201
-47.3113 92.4146 10.6658 0.17701 -0.981779 0.0691251
-46.025 92.6057 10.7835 0.111367 -0.991052 0.0735731
-44.8336 92.751 10.8852 0.103629 -0.993679 0.0431545
-43.4468 92.8332 10.9871 0.0548503 -0.998376 0.0154142
-42.2645 92.9262 11.0633 0.0689288 -0.997391 -0.021433
-41.1597 92.9702 11.1281 0.0436938 -0.997797 -0.0499109
-39.8634 93.0246 11.2021 0.0401548 -0.997649 -0.0555389
-38.542 93.0652 11.2576 0.0615888 -0.991159 -0.117522
-36.8927 93.2212 11.3279 0.113754 -0.978187 -0.173809
-35.4569 93.392 11.4008 0.139213 -0.97488 -0.173862
-34.3551 93.5386 11.4608 0.0807668 -0.972309 -0.219298
-34.3384 93.5389 11.4612 0.0760381 -0.954477 -0.288429
-33.8176 93.3157 12.3506 0.129913 -0.941066 -0.312278
-34.9932 93.2893 12.3204 0.0218811 -0.964404 -0.263528
-36.3289 93.1259 12.2612 0.116376 -0.978504 -0.170254
-37.5345 93.0323 12.2144 0.0350799 -0.996467 -0.0763031
-39.1889 92.99 12.1624 0.0335474 -0.997596 -0.0606444
-40.9043 92.9335 12.0858 0.0401547 -0.997649 -0.0555388
-42.079 92.8973 12.0206 0.0275018 -0.999622 0.000254582
-43.2782 92.8549 11.9478 0.0512053 -0.998678 0.00446464
-44.5251 92.7838 11.861 0.0562007 -0.998362 0.0107267
-45.5701 92.7203 11.7869 0.06081 -0.998096 0.0102769
-47.0617 92.5192 11.6589 0.169914 -0.983575 0.0609022
-48.0676 92.3396 11.564 0.168412 -0.983594 0.0646506
-49.0664 92.1311 11.4723 0.204576 -0.976877 0.0621273
-50.3549 91.8326 11.3481 0.246983 -0.967407 0.0558856
-51.35 91.5291 11.2709 0.316087 -0.937168 0.147669
-52.7521 91.0081 11.1463 0.356657 -0.929784 0.0910853
-53.9526 90.4812 10.9794 0.402637 -0.900413 0.164742
-55.1412 89.8216 10.8095 0.48936 -0.85849 0.153372
-56.3837 89.0074 10.611 0.563656 -0.804318 0.188052
-56.7563 88.732 10.5598 0.570173 -0.803353 0.171834
-57.2501 88.5716 11.4483 0.605101 -0.779698 0.161005
-56.212 89.345 11.5856 0.57473 -0.798021 0.181237
-55.1076 90.0351 11.7586 0.463478 -0.862872 0.201593
-54.0943 90.5637 11.911 0.35452 -0.929729 0.0995977
-53.155 90.94 12.0441 0.359297 -0.928797 0.0907827
-52.0782 91.3648 12.1687 0.354013 -0.930764 0.0913922
-50.7273 91.805 12.2872 0.215695 -0.970165 0.110708
-49.4393 92.1122 12.4022 0.205093 -0.976723 0.0628481
-48.1724 92.3872 12.5306 0.20561 -0.976568 0.0635604
-46.8915 92.6148 12.6521 0.137922 -0.990016 0.029067
-45.6361 92.723 12.7469 0.0686931 -0.997608 -0.00775263
-44.6339 92.7879 12.8112 0.0585013 -0.998232 0.0104966
-43.1386 92.8597 12.9112 0.0461986 -0.998931 -0.00179691
-41.936 92.9015 12.979 0.0212489 -0.99975 -0.00697268
-40.8153 92.9176 13.0311 0.0149916 -0.999787 -0.0141913
-39.5468 92.9428 13.0827 0.0112844 -0.999535 -0.0283275
-38.3144 92.9462 13.1173 0.0216566 -0.996851 -0.0762858
-37.0577 92.9838 13.1505 0.0484946 -0.995906 -0.0762917
-35.8236 93.0411 13.1859 0.0399425 -0.994322 -0.0986355
-34.5423 93.0568 13.2084 0.0218811 -0.964404 -0.263528
-33.4407 93.0761 13.2293 0.0760307 -0.954477 -0.288432
-33.1478 92.8329 14.1026 -0.0401945 -0.964303 -0.261733
-35.0454 92.8785 14.0972 0.0116072 -0.98276 -0.184522
-36.7736 92.9025 14.0767 0.0313677 -0.992166 -0.120923
-38.0967 92.9015 14.0456 -0.00653707 -0.998703 -0.0505005
-39.6401 92.9045 14.0096 0.00176926 -0.999153 -0.0411112
-40.7208 92.9081 13.9763 0.00610701 -0.999968 -0.00518526
-41.8475 92.8937 13.9322 0.0126646 -0.999917 0.00217652
-42.9556 92.8661 13.8832 0.0448646 -0.998985 -0.00408355
-44.1743 92.8097 13.8108 0.0463693 -0.998921 -0.00245182
-45.194 92.7464 13.7452 0.0705785 -0.997492 -0.00523746
-46.2685 92.6722 13.6819 0.0886689 -0.99602 -0.00904041
-47.9325 92.4918 13.5449 0.0994631 -0.994966 0.0122594
-49.2798 92.2191 13.4038 0.198125 -0.977034 0.0784339
-50.412 91.9813 13.2893 0.196756 -0.97731 0.0784322
-51.7281 91.5896 13.1703 0.349311 -0.932828 0.0883994
-52.9947 91.1071 13.0289 0.344768 -0.933274 0.100666
-54.1832 90.6413 12.8642 0.349714 -0.930563 0.108411
-55.5834 89.9855 12.6401 0.438017 -0.88617 0.151142
-56.5214 89.3147 12.5042 0.616968 -0.78021 0.10307
-57.8507 88.1895 12.3366 0.653811 -0.750138 0.0991206
-57.9047 88.1413 12.3297 0.655351 -0.74829 0.102847
-57.8452 88.3129 13.2712 0.665766 -0.743788 0.0594474
-57.1011 88.9728 13.3852 0.634776 -0.766295 0.0992556
-56.1845 89.6755 13.5296 0.586776 -0.808996 0.0349099
-54.9814 90.3605 13.7258 0.435796 -0.898447 0.0536108
-53.2695 91.1012 13.974 0.339791 -0.9359 0.0929125
-51.9387 91.6044 14.1313 0.348337 -0.932968 0.0907292
-50.8656 91.9364 14.2386 0.257984 -0.965862 0.0235439
-49.7694 92.1959 14.3517 0.197438 -0.977172 0.0784396
-47.9482 92.522 14.5446 0.155968 -0.987403 0.0266122
-46.7257 92.6397 14.6428 0.0833665 -0.996171 0.0263155
-45.3198 92.7328 14.7218 0.0590277 -0.9981 0.0176553
-43.943 92.818 14.7958 0.0448644 -0.998985 -0.00408352
-42.8558 92.8649 14.8461 0.0433593 -0.999043 -0.00571531
-41.7438 92.8971 14.8876 0.00610701 -0.999968 -0.00518528
-40.4779 92.896 14.9275 -0.000454056 -0.999921 -0.0125498
-39.4286 92.8887 14.9483 -0.025551 -0.999424 -0.0223415
-38.3806 92.8488 14.9688 -0.0102245 -0.998135 -0.0601818
-36.9586 92.8203 14.9922 -0.0272632 -0.997673 -0.0624938
-35.5163 92.7628 15.0009 -0.0635885 -0.987005 -0.147573
-34.3748 92.7168 15.0005 -0.0392293 -0.975497 -0.216485
-33.3666 92.6273 14.9829 -0.0899163 -0.964668 -0.247652
-32.8997 92.5865 14.9726 -0.0401923 -0.964305 -0.261727
-32.5307 92.3106 15.8344 -0.157949 -0.952195 -0.261488
-33.8479 92.4693 15.8802 -0.0980083 -0.976009 -0.194426
-35.0529 92.6244 15.9079 -0.111713 -0.983702 -0.140894
-36.1198 92.696 15.916 -0.0516923 -0.992362 -0.11201
-37.7589 92.7822 15.908 -0.0607304 -0.993832 -0.0927836
-38.8125 92.8313 15.8989 -0.0437662 -0.998838 -0.0201844
-39.8264 92.876 15.8875 -0.0206578 -0.99927 -0.032147
-40.8465 92.8728 15.8713 0.00455493 -0.999093 -0.0423383
-41.8689 92.8692 15.8447 -0.00079867 -0.999214 -0.0396376
-42.9285 92.8566 15.8107 0.0433405 -0.999047 -0.00516665
-44.0349 92.8088 15.7627 0.0440967 -0.999012 -0.00559996
-45.2208 92.7526 15.7024 0.0501796 -0.998734 -0.00363734
-46.2447 92.6945 15.6514 0.0677407 -0.997546 0.0177126
-47.5384 92.5941 15.5808 0.0793402 -0.996814 0.00821599
-48.678 92.4143 15.4792 0.17717 -0.982498 -0.0575248
-49.9542 92.1914 15.3497 0.217539 -0.975305 -0.0381675
-51.073 91.8968 15.2207 0.256513 -0.966368 -0.0183002
-52.1677 91.6085 15.1027 0.283033 -0.958407 -0.0367222
-53.1595 91.2292 14.99 0.353079 -0.933051 0.0689226
-54.1354 90.8492 14.8456 0.397689 -0.915101 0.0665822
-55.309 90.2578 14.6685 0.438592 -0.896757 0.0588564
-56.1897 89.7144 14.5176 0.558185 -0.825731 0.0812309
-57.0706 89.1391 14.3751 0.626047 -0.771209 0.115331
-58.2155 87.9995 14.1704 0.706059 -0.708079 0.0102114
-58.4714 87.7243 14.1118 0.732712 -0.680532 -0.00299594
-59.0773 87.1158 14.963 0.791874 -0.610684 -0.000605879
-58.3749 87.8699 15.1319 0.712091 -0.70072 0.0438002
-57.5076 88.7849 15.3292 0.740601 -0.671852 0.011171
-56.6023 89.5658 15.5001 0.517686 -0.854631 0.0401015
-55.5838 90.1751 15.6533 0.477129 -0.878218 0.0328848
-54.3111 90.8342 15.8445 0.44821 -0.892454 0.05131
-53.2805 91.2027 15.9906 0.30073 -0.951951 -0.0578943
-51.8511 91.6504 16.1583 0.309241 -0.949386 -0.0551036
-50.42 92.0492 16.3279 0.217533 -0.975307 -0.0381638
-49.1283 92.2763 16.4488 0.177648 -0.982399 -0.0577391
-47.5098 92.5764 16.5715 0.193204 -0.980013 -0.0473994
-46.064 92.7031 16.6437 0.0632005 -0.997921 -0.0126519
-45.0406 92.758 16.6918 0.0475164 -0.998859 -0.00483533
-43.458 92.8286 16.7711 0.0440968 -0.999012 -0.00559982
-42.4052 92.8372 16.8012 -0.00615603 -0.999299 -0.0369337
-41.3739 92.83 16.8242 -0.000795873 -0.999214 -0.039631
-40.3518 92.8327 16.8399 0.00246176 -0.999024 -0.0440952
-39.3297 92.8348 16.8486 -0.0206568 -0.999269 -0.0321563
-37.7121 92.7152 16.8499 -0.0958984 -0.993285 -0.0647155
-36.6328 92.6339 16.8472 -0.0697389 -0.994854 -0.0735049
-34.9192 92.4409 16.8148 -0.154205 -0.972585 -0.174067
-33.2468 92.2338 16.7594 -0.148495 -0.965501 -0.213911
-33.173 92.2195 16.7549 -0.198527 -0.952058 -0.232748
-32.4759 91.8608 17.6006 -0.208644 -0.940505 -0.268177
-33.6299 92.09 17.6744 -0.148495 -0.965501 -0.213911
-34.6797 92.2503 17.72 -0.166956 -0.97464 -0.149008
-35.8206 92.4338 17.7617 -0.138538 -0.978304 -0.154037
-36.9098 92.5837 17.7896 -0.104282 -0.988 -0.11394
-38.0566 92.6813 17.801 -0.0827672 -0.990988 -0.105325
-39.4772 92.7865 17.8083 -0.0279152 -0.996097 -0.0837338
-40.6466 92.7827 17.7999 0.00363485 -0.998461 -0.0553334
-41.7249 92.7904 17.7815 -0.00760951 -0.99883 -0.0477595
-42.7847 92.7976 17.7574 -0.0057415 -0.998911 -0.046299
-44.6181 92.7362 17.6953 0.0347768 -0.996285 -0.0787778
-45.9865 92.6714 17.6256 0.0629111 -0.993936 -0.0901813
-47.1845 92.5964 17.5758 0.133764 -0.988906 -0.0645939
-48.6009 92.3213 17.5006 0.220583 -0.974088 -0.04996
-49.6801 92.1108 17.4107 0.177803 -0.979495 -0.094734
-50.7443 91.9271 17.3134 0.195568 -0.975061 -0.104928
-51.8062 91.6047 17.1974 0.309241 -0.949386 -0.0551036
-53.1347 91.1855 17.0323 0.309165 -0.948685 -0.0664325
-54.3031 90.8049 16.881 0.317553 -0.945273 -0.0749594
-55.3292 90.3404 16.7476 0.483494 -0.868313 -0.110753
-56.5364 89.6463 16.5749 0.533101 -0.819295 -0.211089
-57.7894 88.4784 16.3211 0.725669 -0.68487 -0.0660143
-58.7849 87.4351 16.0635 0.788647 -0.603158 -0.119319
-59.2858 86.6771 15.8448 0.848821 -0.525192 -0.0606326
-59.3539 86.3562 16.7767 0.855813 -0.489961 -0.165901
-58.7664 87.2619 17.061 0.788645 -0.603159 -0.119323
-57.9155 88.2198 17.2967 0.759415 -0.646479 -0.0731764
-56.946 89.1011 17.5132 0.559459 -0.799095 -0.220117
-55.9092 89.7597 17.6766 0.525438 -0.829918 -0.187486
-54.9304 90.3755 17.8357 0.549595 -0.82363 -0.139925
-53.8314 90.8401 17.9847 0.292556 -0.941532 -0.167115
-52.3468 91.3631 18.1624 0.349537 -0.932311 -0.0928486
-51.3389 91.6829 18.2703 0.261086 -0.96106 -0.0905461
-50.2306 91.9139 18.3765 0.213251 -0.970196 -0.115084
-49.2346 92.09 18.4621 0.213422 -0.973539 -0.0816828
-47.9431 92.417 18.5399 0.220583 -0.974088 -0.04996
-46.6612 92.5358 18.5934 0.074742 -0.992421 -0.097537
-45.1913 92.6226 18.6416 0.050054 -0.994296 -0.0941815
-44.1108 92.6787 18.6791 0.0511022 -0.996281 -0.0693668
-42.4719 92.7459 18.7267 0.0311755 -0.996413 -0.0786676
-41.4133 92.7394 18.754 -0.00643537 -0.996772 -0.0800239
-40.3515 92.7297 18.7748 -0.0279154 -0.996097 -0.0837338
-39.0636 92.653 18.7716 -0.0594181 -0.991932 -0.111986
-37.7932 92.5584 18.7505 -0.0872447 -0.99019 -0.109144
-36.6867 92.4518 18.7163 -0.159713 -0.983692 -0.0827162
-35.3834 92.2205 18.6655 -0.200785 -0.968178 -0.149388
-34.3184 92.0403 18.6136 -0.172368 -0.970663 -0.167641
-32.7491 91.6703 18.503 -0.249522 -0.946529 -0.204503
-32.6194 91.6383 18.4926 -0.229248 -0.944197 -0.23651
-32.3987 91.39 19.3724 -0.249522 -0.946529 -0.204503
-33.6771 91.7049 19.4761 -0.250036 -0.946435 -0.204311
-34.8345 91.9694 19.5547 -0.200789 -0.968177 -0.149387
-36.3793 92.3236 19.6473 -0.194537 -0.975049 -0.106936
-37.5035 92.4206 19.6931 -0.0892866 -0.985642 -0.143311
-38.5065 92.5063 19.7231 -0.0732088 -0.986875 -0.143939
-40.0207 92.589 19.7349 -0.0536035 -0.990286 -0.128299
-41.0606 92.6533 19.7363 -0.0632914 -0.989987 -0.126174
-42.2146 92.6626 19.7098 0.0195097 -0.995802 -0.0894342
-43.3555 92.6432 19.6774 0.0311745 -0.996414 -0.0786588
-44.7775 92.5706 19.6402 0.0593636 -0.995719 -0.0708462
-45.8128 92.4942 19.6197 0.0729166 -0.991581 -0.10701
-47.6107 92.3678 19.571 0.0748475 -0.992365 -0.0980334
-48.6044 92.1502 19.5134 0.227468 -0.965888 -0.123766
-49.5911 91.9258 19.4456 0.22079 -0.964518 -0.144766
-50.6301 91.7062 19.3615 0.21599 -0.965 -0.148742
-51.7221 91.4761 19.2682 0.279913 -0.94614 -0.162691
-52.6534 91.1006 19.1659 0.389973 -0.913012 -0.119707
-53.6996 90.6951 19.0323 0.337275 -0.920574 -0.196948
-54.715 90.2971 18.9 0.380873 -0.896551 -0.226124
-55.6371 89.7822 18.7563 0.593639 -0.793677 -0.132928
-56.4366 89.1521 18.591 0.595687 -0.779257 -0.194721
-57.3235 88.5737 18.4419 0.661453 -0.697941 -0.274515
-57.9741 87.8362 18.2327 0.776907 -0.568025 -0.271592
-58.7471 86.8849 17.937 0.810072 -0.517256 -0.276098
-59.2606 86.2053 17.7039 0.834509 -0.504548 -0.221417
-59.0798 86.035 18.633 0.806624 -0.558109 -0.194608
-58.3461 86.9732 18.9834 0.805229 -0.559188 -0.197271
-57.6564 87.7422 19.2428 0.755436 -0.628576 -0.184953
-56.9678 88.5017 19.4741 0.73998 -0.640754 -0.204608
-55.97 89.308 19.7014 0.631229 -0.759282 -0.158242
-55.009 89.95 19.8869 0.45262 -0.863088 -0.224085
-53.9964 90.3583 20.0234 0.388605 -0.903486 -0.180833
-53.0187 90.7946 20.1557 0.406608 -0.901104 -0.150603
-51.4869 91.3618 20.326 0.342544 -0.92289 -0.175889
-50.3699 91.6022 20.4138 0.21599 -0.965 -0.148742
-49.2541 91.8511 20.4966 0.2314 -0.962405 -0.142231
-47.6284 92.2364 20.6041 0.193372 -0.961747 -0.194037
-46.5635 92.3342 20.6339 0.0679713 -0.992012 -0.106264
-44.9839 92.4474 20.65 0.0778586 -0.991125 -0.10775
-43.7071 92.4966 20.6613 0.0237649 -0.980302 -0.19607
-42.6918 92.5273 20.6809 0.0334168 -0.979534 -0.198487
-41.6043 92.5646 20.699 -0.00890882 -0.987129 -0.159676
-40.1758 92.4733 20.6996 -0.0662432 -0.989227 -0.130542
-39.0251 92.4018 20.679 -0.0612722 -0.988072 -0.141277
-38.0185 92.3259 20.6523 -0.0851309 -0.98553 -0.146571
-36.767 92.1982 20.6 -0.151379 -0.96979 -0.191291
-35.259 91.9157 20.5079 -0.22539 -0.960619 -0.162511
-34.2899 91.6668 20.4285 -0.259011 -0.946934 -0.190338
-33.2299 91.4033 20.345 -0.301604 -0.929169 -0.213728
-32.4046 91.1277 20.2548 -0.295675 -0.910535 -0.288969
-32.6643 90.9728 21.1757 -0.3511 -0.907368 -0.23111
-33.6029 91.3076 21.287 -0.301601 -0.929169 -0.213734
-34.5925 91.5662 21.3793 -0.266869 -0.945808 -0.185009
-35.6033 91.8342 21.4675 -0.246209 -0.953505 -0.173809
-37.0881 92.0546 21.5524 -0.146588 -0.968426 -0.201651
-38.1942 92.1775 21.6024 -0.10234 -0.974972 -0.197375
-39.5422 92.3023 21.6489 -0.0815124 -0.982325 -0.168505
-40.6305 92.3745 21.679 -0.0662358 -0.989227 -0.130547
-42.3527 92.3404 21.68 0.0454673 -0.980823 -0.189525
-43.4396 92.3018 21.6677 0.0237629 -0.980303 -0.196064
-44.4516 92.2887 21.6606 0.0141075 -0.980974 -0.193627
-45.5402 92.2646 21.6649 0.0858269 -0.972269 -0.217548
-46.6847 92.1107 21.6321 0.130308 -0.96195 -0.240148
-48.1 91.9124 21.5913 0.148671 -0.95843 -0.243535
-49.9683 91.5391 21.4887 0.225582 -0.963998 -0.140785
-51.1415 91.2781 21.3959 0.22079 -0.964518 -0.144766
-52.7164 90.6789 21.208 0.377786 -0.889425 -0.257296
-54.1677 90.0876 21.0284 0.409143 -0.888298 -0.208636
-55.1511 89.5458 20.8544 0.513194 -0.816132 -0.265632
-56.0549 89.0321 20.6867 0.574275 -0.790549 -0.212697
-57.264 87.885 20.3127 0.723952 -0.652436 -0.224101
-57.9931 87.1045 20.0349 0.780338 -0.594955 -0.192617
-58.6462 86.2811 19.7163 0.803829 -0.560254 -0.199933
-59.2913 85.4663 19.3875 0.838068 -0.506288 -0.203262
-59.1596 85.2228 20.2659 0.847747 -0.417894 -0.326632
-58.5661 86.0053 20.6173 0.80741 -0.492808 -0.324389
-57.8207 86.9592 21.0234 0.789581 -0.500571 -0.354952
-57.0182 87.7317 21.3213 0.696735 -0.629996 -0.343024
