-48.7981 92.5014 3.76456 0.423117 -0.905242 -0.0388487
-48.0125 92.8057 3.18944 0.340472 -0.926569 -0.135357
-47.0858 93.4229 2.19516 0.320839 -0.92333 -0.201882
-46.4949 93.8306 1.35226 0.288405 -0.910974 -0.294872
-45.8263 94.3313 0.394134 0.231378 -0.929182 -0.287591
-44.9426 94.6861 0.00327614 0.235339 -0.92267 -0.305444
-45.0638 94.296 1.15937 0.227426 -0.935692 -0.269738
-45.2017 93.9376 2.28628 0.257918 -0.923332 -0.282305
-45.0965 93.7443 3.32875 0.265089 -0.944402 -0.194508
-44.8431 93.6097 4.32735 0.255597 -0.955392 -0.134466
-44.2611 93.5882 5.4181 0.16818 -0.976667 -0.133553
-43.6135 93.598 6.23006 0.138114 -0.987856 -0.0709656
-42.5297 93.6662 7.43369 0.131036 -0.986243 -0.097063
-41.5132 93.6883 8.48651 0.0737125 -0.996127 -0.0417746
-40.4985 93.7447 9.29984 0.137104 -0.987844 -0.073264
-39.2417 93.8249 10.0492 0.113679 -0.991433 -0.0487347
-38.2847 93.8534 10.5214 0.0612045 -0.994814 -0.0812362
-37.2908 93.8807 10.9184 0.058967 -0.99364 -0.095375
-35.5395 93.9511 11.5146 0.134533 -0.969136 -0.205604
-34.3022 93.8326 12.6328 -0.00180303 -0.977168 -0.201056
-33.5872 93.4905 13.9081 0.0204884 -0.954479 -0.294336
-32.9504 93.1086 15.3385 -0.09081 -0.977771 -0.188993
-32.6359 92.7954 16.4944 -0.146939 -0.966798 -0.206345
-32.4894 92.5542 17.5598 -0.177358 -0.962136 -0.206975
-32.3855 92.3134 18.5901 -0.208698 -0.962107 -0.168272
-32.2493 91.9895 19.7501 -0.298417 -0.92473 -0.236264
-32.2079 91.6708 20.9243 -0.300784 -0.922032 -0.243692
-32.4034 91.3971 22.1729 -0.337736 -0.895065 -0.291192
-32.8202 91.16 23.3603 -0.326912 -0.894149 -0.305984
-33.3717 90.8541 24.7646 -0.345486 -0.865931 -0.361265
-34.2461 90.4982 26.3667 -0.330993 -0.8661 -0.374547
-34.772 90.1365 27.141 -0.312778 -0.738747 -0.597012
-35.3158 89.6581 28.0034 -0.285896 -0.721841 -0.630189
-35.7824 89.1634 28.7711 -0.287405 -0.716068 -0.636117
-36.2657 88.6331 29.5536 -0.243093 -0.641405 -0.724749
-37.0234 87.9271 30.3594 -0.260293 -0.591599 -0.763058
-37.9456 87.2965 31.1532 -0.255568 -0.587484 -0.76782
-38.7389 86.884 31.7474 -0.291148 -0.59711 -0.747108
-39.7306 86.2002 32.7248 -0.30555 -0.61155 -0.729796
-40.3611 85.5264 33.4705 -0.310958 -0.52825 -0.7901
-41.1843 84.4429 34.6448 -0.372627 -0.58979 -0.716447
-42.0361 83.4504 35.8404 -0.312034 -0.612407 -0.726283
-42.8433 82.6864 36.8917 -0.362273 -0.643241 -0.674536
-43.6349 82.286 37.6005 -0.270473 -0.735326 -0.621402
-44.6927 82.1697 38.1375 -0.204502 -0.735874 -0.645499
-45.8001 82.171 38.5012 -0.237701 -0.802504 -0.546179
-46.8425 82.1924 38.6662 -0.0945756 -0.819337 -0.565458
-48.4172 82.4507 38.4594 -0.0148791 -0.828052 -0.560454
-49.3813 82.6992 38.1408 -0.0378773 -0.894067 -0.439323
-50.5089 82.8012 37.5717 0.180337 -0.836313 -0.517745
-51.4189 82.849 37.0685 0.280061 -0.839197 -0.466169
-52.5188 82.8426 36.4192 0.273581 -0.82208 -0.497987
-53.6431 82.7062 35.6334 0.405318 -0.806508 -0.430422
-54.4738 82.6145 35.0041 0.447444 -0.793255 -0.411292
-55.5694 82.4529 33.9895 0.491978 -0.780757 -0.385196
-56.6197 82.2802 32.7125 0.582369 -0.772275 -0.253845
-57.1611 82.2041 31.7649 0.665765 -0.660082 -0.346707
-57.7061 82.3254 30.2208 0.727892 -0.615904 -0.30139
-57.9147 82.5805 29.0832 0.757582 -0.574846 -0.304337
-58.0845 82.9469 28.0792 0.789111 -0.533315 -0.304761
-58.21 83.3168 27.1069 0.797802 -0.504737 -0.327623
-58.4031 83.7206 26.0869 0.813444 -0.47489 -0.335838
-58.6448 84.0741 25.0014 0.814152 -0.472055 -0.338093
-58.9119 84.4346 23.9429 0.862601 -0.377258 -0.337041
-59.1024 84.8542 22.9856 0.859925 -0.376958 -0.344056
-59.2845 85.352 22.0324 0.857795 -0.369017 -0.357792
-59.5389 85.9933 20.4059 0.862709 -0.451828 -0.227121
-59.6776 86.3339 19.2396 0.84512 -0.473768 -0.246412
-59.7503 86.7173 18.1523 0.84076 -0.490518 -0.22916
-60.3645 85.9493 17.5429 0.846752 -0.489628 -0.206724
-60.3342 86.3566 16.6029 0.852746 -0.488737 -0.184286
-60.1715 86.77 15.5694 0.812531 -0.572162 -0.106928
-59.8507 87.4672 14.2585 0.782951 -0.612217 -0.110355
-59.2795 88.0036 12.6207 0.670694 -0.735837 0.0933494
-58.5862 88.4067 11.1478 0.631933 -0.764681 0.125125
-58.0208 88.7168 10.2815 0.604804 -0.781503 0.150505
-57.3961 89.0219 9.54514 0.553867 -0.810932 0.183523
-56.6183 89.306 8.64957 0.524813 -0.831654 0.181448
-55.9343 89.5597 7.89123 0.505953 -0.836187 0.210398
-54.6162 89.9164 6.24982 0.473228 -0.856472 0.205205
-53.7702 90.2087 5.61754 0.455722 -0.865013 0.209929
-52.4126 90.8225 4.66638 0.45317 -0.883841 0.107432
-51.5954 91.1322 4.00875 0.437471 -0.895781 0.0730058
-50.6278 91.6113 3.67577 0.4645 -0.880988 -0.03072
-49.678 92.1426 3.22229 0.37954 -0.917477 -0.119101
-48.5719 92.7355 2.37333 0.397745 -0.902425 -0.165057
-47.8848 93.1768 1.68178 0.410173 -0.896993 -0.164806
-47.3702 93.7492 0.816444 0.348289 -0.875759 -0.321495
-46.8901 94.1636 0.0129008 0.264867 -0.912323 -0.31227
-46.6089 94.766 -1.3172 0.197897 -0.925038 -0.32408
-46.4172 95.1284 -2.26856 0.168382 -0.923463 -0.34248
-46.5594 95.6335 -3.6536 0.142621 -0.929011 -0.341465
-46.7093 96.0925 -4.87047 0.00171316 -0.939015 -0.343219
-46.9433 96.4287 -5.81387 -0.0158424 -0.9431 -0.332132
-47.3018 96.7712 -6.85332 -0.0373337 -0.954486 -0.295038
-47.3287 97.1181 -7.90436 -0.051439 -0.948736 -0.311856
-47.4355 97.5073 -8.96528 -0.140067 -0.940991 -0.306003
-47.7579 97.8544 -10.0292 -0.15404 -0.956064 -0.249426
-48.032 98.256 -11.4864 -0.150423 -0.965689 -0.211702
-48.0888 98.5202 -12.6077 -0.17314 -0.962302 -0.209291
-48.3598 98.781 -13.6935 -0.200837 -0.964464 -0.171678
-48.5305 98.9694 -14.8567 -0.204919 -0.975916 -0.0748136
-48.6593 99.0838 -15.862 -0.237682 -0.970871 -0.030283
-48.9737 99.1957 -17.6213 -0.236959 -0.97054 0.0210348
-48.9793 99.1375 -18.6405 -0.239145 -0.968008 0.0732283
-48.9406 98.9656 -19.9658 -0.238253 -0.958208 0.158343
-48.5481 98.6942 -20.9434 -0.228709 -0.955016 0.188776
-47.5006 98.2102 -21.9634 -0.26571 -0.935007 0.23263
-46.8811 97.822 -22.6994 -0.295761 -0.924908 0.238892
-46.2301 97.391 -23.4777 -0.385639 -0.874588 0.275633
-45.5626 96.6371 -24.298 -0.409627 -0.788366 0.459005
-45.1852 95.8329 -24.9088 -0.295619 -0.620384 0.708973
-44.9324 94.6466 -25.9129 -0.159792 -0.5772 0.800816
-44.7976 93.5087 -27.0205 -0.0116753 -0.686998 0.726566
-44.8533 92.101 -28.2418 0.0969147 -0.682621 0.72416
-44.8758 91.3459 -28.9661 0.0989405 -0.716161 0.689845
-44.4843 90.3696 -30.0619 0.0620414 -0.715832 0.695511
-43.1582 89.9854 -30.5871 0.075158 -0.709002 0.70119
-41.5811 90.6939 -30.0424 0.0822853 -0.704429 0.704946
-40.7423 91.2252 -29.6145 0.0915483 -0.716625 0.691424
-39.7195 92.089 -28.818 0.0733446 -0.737154 0.671732
-39.1249 92.7948 -28.175 0.129031 -0.748483 0.649506
-38.1993 93.9984 -26.7858 0.0832037 -0.791544 0.605422
-37.7921 94.644 -25.8879 0.0146167 -0.868062 0.496241
-37.6411 95.1851 -24.9458 0.0157067 -0.869984 0.492813
-37.5343 95.8156 -23.8094 0.00895889 -0.893431 0.44803
-37.4632 96.2489 -22.8753 -0.0123308 -0.915564 0.400827
-37.4131 96.8328 -21.3191 -0.0382787 -0.943486 0.329194
-37.4494 97.259 -19.7533 -0.047968 -0.98532 0.163842
-37.6831 97.4582 -18.6921 -0.0153755 -0.989831 0.129862
-37.6263 97.5869 -17.3361 -0.0536473 -0.995705 0.0502994
-37.9829 97.6036 -16.3245 -0.0619018 -0.998068 -0.00529423
-38.4087 97.6375 -15.1847 -0.00588254 -0.998552 -0.0201149
-38.6503 97.5853 -14.2059 -0.0715506 -0.996148 -0.0506953
-39.1804 97.5417 -13.011 -0.0581291 -0.993293 -0.0989519
-39.7451 97.4206 -11.2836 -0.0687321 -0.993115 -0.0948593
-40.1545 97.3109 -10.3338 -0.0308751 -0.988734 -0.146
-40.81 97.0228 -8.57158 -0.016382 -0.98275 -0.18418
-41.2631 96.8069 -7.39756 -0.00471243 -0.980106 -0.197725
-41.6267 96.6093 -6.48292 0.00894017 -0.979779 -0.199698
-42.2545 96.2947 -4.90776 0.0106617 -0.981288 -0.192251
-43.0141 96.1154 -3.59943 0.116807 -0.963338 -0.0744184
-43.5728 95.8397 -2.66513 0.344908 -0.936026 -0.0699541
-43.7543 95.4545 -1.68378 0.281256 -0.895369 -0.327362
-43.7085 95.0782 -0.442754 0.187069 -0.93788 -0.292209
-44.1017 94.538 1.2146 0.246457 -0.938327 -0.241521
-44.2076 94.2404 2.18828 0.260454 -0.930724 -0.256742
-43.986 93.9138 3.85359 0.223881 -0.957163 -0.18362
-43.2203 93.8081 5.34926 0.203066 -0.967392 -0.151381
-42.2615 93.7997 6.28099 0.164444 -0.969883 -0.179679
-41.4999 93.8529 6.92775 0.131041 -0.986242 -0.0970676
-40.68 93.8383 7.96253 0.147945 -0.982613 -0.112078
-39.6947 93.9088 8.57615 0.11554 -0.987915 -0.102792
-38.8356 93.9665 9.13709 0.159364 -0.983216 -0.0888179
-37.6677 94.0527 9.72052 0.10235 -0.97842 -0.179496
-36.5505 94.1231 10.1292 0.127033 -0.973087 -0.191417
-35.5494 94.1826 10.4254 0.154353 -0.966142 -0.206749
-34.429 94.2562 10.9176 0.154351 -0.966141 -0.206753
-33.281 93.9088 12.4624 0.0542649 -0.958273 -0.280314
-32.6128 93.5979 13.5533 -0.0128253 -0.946767 -0.321663
-32.0826 93.1233 14.8215 -0.163726 -0.946118 -0.275733
-31.6178 92.6764 16.3759 -0.149462 -0.961583 -0.230259
-31.5208 92.3871 17.3836 -0.18875 -0.952596 -0.235752
-31.4562 92.1565 18.3796 -0.212072 -0.955001 -0.207363
-31.0599 91.5775 19.8606 -0.299601 -0.923381 -0.239978
-31.3298 91.1484 21.7011 -0.33687 -0.898573 -0.281021
-31.7154 90.8777 22.9773 -0.347545 -0.885798 -0.306613
-32.0893 90.6397 23.9895 -0.351495 -0.86912 -0.347948
-32.4854 90.2837 25.2843 -0.345481 -0.865933 -0.361262
-33.6042 89.951 26.8727 -0.356438 -0.817961 -0.451543
-34.4929 89.186 28.2064 -0.257344 -0.733571 -0.629005
-34.9596 88.6924 28.9727 -0.257255 -0.733524 -0.629097
-35.4399 88.1204 29.6619 -0.267022 -0.588228 -0.763339
-36.1438 87.3779 30.4803 -0.280312 -0.557884 -0.780261
-36.8793 86.8133 31.1289 -0.294799 -0.53179 -0.793901
-37.7377 86.3391 31.7619 -0.291285 -0.533089 -0.794336
-39.0129 85.6788 32.7884 -0.366052 -0.539475 -0.758269
-39.577 84.9404 33.5537 -0.335422 -0.525504 -0.781445
-39.9238 84.2253 34.1683 -0.341791 -0.559018 -0.753275
-40.4785 83.7146 34.8772 -0.382534 -0.568359 -0.727974
-41.1895 82.8438 35.9753 -0.379177 -0.593614 -0.706553
-41.5686 82.1923 36.6783 -0.339438 -0.623883 -0.702752
-42.8648 81.706 37.9534 -0.309006 -0.732405 -0.605214
-44.1419 81.4774 38.8507 -0.257162 -0.781536 -0.566491
-45.2049 81.4062 39.3852 -0.262704 -0.81016 -0.524048
-46.4138 81.5729 39.7334 -0.165265 -0.842702 -0.501477
-48.3175 81.9497 39.4262 -0.122005 -0.893226 -0.432642
-49.3404 82.1777 39.1741 0.0399064 -0.891384 -0.451489
-50.3342 82.3486 38.7487 0.0977559 -0.913038 -0.385539
-51.6757 82.3595 37.9901 0.186611 -0.919941 -0.343516
-52.5348 82.4219 37.4361 0.1709 -0.913994 -0.367979
-53.5252 82.3241 36.7839 0.323056 -0.876045 -0.358022
-54.4503 82.18 36.1049 0.376539 -0.881781 -0.28296
-55.1981 82.0481 35.4436 0.401103 -0.874652 -0.272212
-56.339 81.7611 34.3981 0.495405 -0.808583 -0.305918
-57.3666 81.6158 33.0204 0.614436 -0.750176 -0.240874
-57.9317 81.4888 31.8227 0.64678 -0.728298 -0.226396
-58.3072 81.4878 30.7457 0.680721 -0.703876 -0.196553
-58.4758 81.6182 29.7221 0.745581 -0.609722 -0.268975
-58.622 82.0246 28.18 0.811548 -0.530748 -0.233028
-58.7276 82.4003 27.2323 0.830242 -0.480235 -0.28297
-58.826 82.7886 26.2466 0.843477 -0.44872 -0.292853
-59.0139 83.1777 25.2247 0.850695 -0.419855 -0.31629
-59.2872 83.444 24.0912 0.859404 -0.397408 -0.320634
-59.534 83.7624 23.1033 0.859926 -0.376956 -0.344056
-59.6845 84.2584 22.2036 0.857251 -0.376655 -0.351072
-59.8629 84.7173 21.2951 0.866655 -0.37122 -0.333324
-60.101 85.231 19.7875 0.856094 -0.454424 -0.245394
-60.2812 85.5712 18.6171 0.849478 -0.457021 -0.263662
-60.3109 85.6386 18.4044 0.845119 -0.47377 -0.246412
-45.5327 94.6878 -0.456435 0.217676 -0.921927 -0.319616
-45.3491 95.0794 -1.45864 0.180897 -0.933314 -0.309741
-44.8424 94.9715 -0.826379 0.18707 -0.937878 -0.292213
-44.9231 94.7817 -0.27048 0.211328 -0.930125 -0.299228
-44.8131 95.4009 -2.15512 0.166005 -0.937742 -0.305095
-44.3423 95.7698 -3.09254 0.112507 -0.956889 -0.26253
-43.8343 96.08 -4.17412 0.0628132 -0.966776 -0.247788
-43.3123 96.3297 -5.17626 0.0218711 -0.981685 -0.189249
-42.8468 96.5521 -6.27602 0.0116796 -0.97507 -0.219216
-42.4275 96.7625 -7.1994 -0.0242794 -0.975871 -0.216992
-42.0068 96.9629 -8.14759 -0.0276532 -0.973796 -0.225537
-41.6362 97.1433 -9.15692 -0.0152118 -0.983376 -0.180945
-41.3174 97.313 -10.1058 -0.0239134 -0.985188 -0.169157
-40.9441 97.439 -11.1051 -0.0291351 -0.990467 -0.134631
-40.5914 97.5522 -12.0486 -0.0684146 -0.993408 -0.0919354
-40.0348 97.6637 -13.6643 -0.0890923 -0.992741 -0.0780271
-39.4038 97.6912 -15.0525 -0.0859365 -0.99448 -0.0602003
-39.0077 97.6713 -16.2196 -0.0979544 -0.995187 0.00266766
-38.7238 97.5982 -17.7005 -0.0868566 -0.991789 0.0801656
-38.6045 97.5272 -18.7095 -0.122078 -0.981015 0.129931
-38.399 97.2123 -20.3119 -0.0402174 -0.965344 0.244113
-38.4249 96.7464 -21.6723 -0.0566575 -0.947254 0.314342
-38.4924 96.2453 -22.895 -0.073993 -0.900159 0.429231
-38.6046 95.7923 -23.8457 -0.0307527 -0.869392 0.493083
-38.7169 95.0225 -25.1985 0.0157066 -0.869982 0.492816
-38.9156 94.4535 -26.0196 0.0913023 -0.818423 0.567316
-39.3213 93.8443 -26.833 0.0872578 -0.804984 0.586368
-40.0188 92.9079 -27.8811 0.0661476 -0.755426 0.651697
-40.778 92.2248 -28.5533 0.0733479 -0.737154 0.671733
-41.5467 91.654 -29.0635 0.0915491 -0.716627 0.691422
-42.7031 90.9843 -29.6177 0.0790746 -0.716109 0.693495
-43.6888 91.3446 -29.133 0.0690158 -0.707121 0.703503
-43.805 92.6053 -27.8921 0.0543606 -0.710439 0.701404
-43.808 93.4954 -27.0172 -0.011673 -0.686997 0.726567
-43.8435 94.4475 -26.0507 -0.0256197 -0.7283 0.68478
-44.0715 95.5351 -24.9294 -0.181533 -0.721515 0.668179
-44.5591 96.4227 -23.884 -0.268904 -0.814421 0.504692
-45.3058 97.2187 -22.9769 -0.276614 -0.879391 0.3875
-46.2191 97.8223 -21.9978 -0.234647 -0.929229 0.285436
-46.9316 98.2558 -21.1724 -0.237789 -0.936825 0.254545
-47.6425 98.5995 -20.219 -0.192002 -0.964041 0.183739
-47.9325 98.8511 -19.1059 -0.198522 -0.977131 0.0729231
-47.9681 98.9603 -17.3234 -0.19328 -0.9801 0.041942
-47.7936 98.9044 -16.273 -0.166768 -0.985465 -0.0323693
-47.5845 98.7828 -15.0141 -0.196252 -0.977082 -0.0816839
-47.3329 98.5397 -13.5387 -0.174353 -0.970838 -0.16198
-47.1233 98.2351 -12.0297 -0.144595 -0.965852 -0.214991
-46.9178 97.8465 -10.5177 -0.124514 -0.960508 -0.247031
-46.647 97.546 -9.4374 -0.0959496 -0.964477 -0.24612
-46.4116 97.2149 -8.35007 -0.0514404 -0.948736 -0.311854
-46.2122 96.8628 -7.26068 -0.0232314 -0.960236 -0.27822
-45.9687 96.5558 -6.22124 -0.0195308 -0.951668 -0.305177
-45.6014 96.0372 -4.50582 0.0816562 -0.958567 -0.272913
-45.4451 95.6655 -3.38148 0.123983 -0.944305 -0.301439
-45.2379 95.3522 -2.23671 0.166005 -0.937742 -0.305095
-44.8994 96.1543 -4.70684 0.0392345 -0.964926 -0.259575
-44.6135 96.1534 -4.70707 0.0294735 -0.972878 -0.229433
-45.2017 96.3726 -5.56426 0.03923 -0.964924 -0.259581
-44.1638 96.3692 -5.56457 0.029468 -0.97288 -0.229427
-43.766 96.3935 -5.55951 0.0420395 -0.978669 -0.201097
-43.5511 96.5879 -6.41931 0.00149776 -0.968456 -0.249182
-44.6557 96.5894 -6.42025 -0.00257026 -0.968351 -0.249578
-45.4296 96.5999 -6.41853 -0.0253527 -0.96023 -0.278057
-45.4928 96.8475 -7.26765 -0.0253558 -0.96023 -0.278056
-44.0443 96.808 -7.27464 -0.0150277 -0.964464 -0.263786
-43.0278 96.7944 -7.27554 -0.024275 -0.975872 -0.216991
-42.8273 96.9862 -8.13555 -0.0310231 -0.971722 -0.234082
-44.1917 97.0355 -8.12854 -0.0468136 -0.970641 -0.235932
-45.3841 97.0907 -8.11903 -0.0371572 -0.965701 -0.256985
-45.661 97.0979 -8.11783 -0.0373478 -0.954732 -0.295112
-45.8555 97.3465 -8.97045 -0.0969082 -0.963999 -0.247617
-44.5415 97.2623 -8.98583 -0.0518113 -0.968435 -0.243824
-43.0072 97.1984 -8.99278 -0.0469695 -0.975746 -0.213808
-42.6837 97.1781 -8.99516 -0.0628878 -0.979105 -0.193388
-42.2098 97.319 -9.86277 -0.0586053 -0.981778 -0.180766
-43.4979 97.3891 -9.85694 -0.0711574 -0.98283 -0.170241
-45.3835 97.5226 -9.84059 -0.074379 -0.966467 -0.245784
-46.1942 97.5999 -9.82587 -0.094991 -0.964954 -0.244623
-46.1305 97.813 -10.691 -0.10903 -0.969109 -0.221226
-44.7043 97.6481 -10.7154 -0.0981895 -0.977617 -0.186074
-43.6523 97.5557 -10.7262 -0.0879652 -0.981105 -0.17232
-42.3329 97.4741 -10.7308 -0.0543203 -0.984271 -0.168106
-42.0291 97.4575 -10.7319 -0.0629304 -0.985317 -0.158712
-41.6082 97.559 -11.6041 -0.0715338 -0.986202 -0.149292
-43.0003 97.6594 -11.6 -0.0629331 -0.985318 -0.158709
-44.3527 97.7884 -11.5902 -0.108374 -0.97383 -0.199775
-45.506 97.9142 -11.5777 -0.115681 -0.973205 -0.19872
-46.4611 98.0313 -11.5594 -0.133802 -0.969288 -0.206343
-46.5778 98.243 -12.432 -0.144595 -0.965852 -0.214991
-45.2934 98.0701 -12.4527 -0.119347 -0.978597 -0.16764
-44.1034 97.9141 -12.4654 -0.130179 -0.982214 -0.135308
-42.8366 97.7528 -12.4766 -0.0953209 -0.987812 -0.123053
-41.6404 97.6707 -12.4759 -0.0679705 -0.991862 -0.107655
-41.1339 97.7258 -13.3508 -0.0840423 -0.991598 -0.0983357
-42.3338 97.8135 -13.3536 -0.0953177 -0.987811 -0.123058
-43.3669 97.9418 -13.3493 -0.122572 -0.982773 -0.138327
-44.744 98.1197 -13.3416 -0.125454 -0.983553 -0.129938
-46.249 98.342 -13.3229 -0.164019 -0.976613 -0.139016
-46.3752 98.3607 -13.3204 -0.147866 -0.977214 -0.15228
-46.9636 98.5875 -14.2042 -0.164015 -0.976613 -0.139019
-45.5662 98.3319 -14.2227 -0.150477 -0.980655 -0.125193
-44.1288 98.1469 -14.2288 -0.139229 -0.986605 -0.0850012
-43.1338 98.0228 -14.2297 -0.118536 -0.99026 -0.0730362
-41.99 97.8858 -14.2293 -0.123837 -0.989929 -0.0685953
-40.943 97.7825 -14.2281 -0.0941516 -0.993883 -0.0577262
-40.4474 97.7355 -14.2268 -0.0941487 -0.993883 -0.0577231
-40.2142 97.7643 -15.1029 -0.0900424 -0.994191 -0.0589642
-41.5964 97.9003 -15.1094 -0.100417 -0.992863 -0.0643393
-42.7185 98.0381 -15.112 -0.123842 -0.989928 -0.0686002
-44.2516 98.2403 -15.1144 -0.140522 -0.986456 -0.0846052
-45.8219 98.4692 -15.1131 -0.162197 -0.982695 -0.089453
-46.7811 98.6371 -15.106 -0.180001 -0.979882 -0.0862012
-47.2315 98.8005 -16.0074 -0.166772 -0.985464 -0.0323647
-45.5846 98.5189 -16.0067 -0.15196 -0.983806 -0.095052
-44.5787 98.3581 -16.0036 -0.141561 -0.989801 0.0159724
-43.2102 98.1381 -15.9986 -0.126988 -0.991896 -0.00398966
-41.8945 97.9876 -15.9916 -0.114794 -0.991309 -0.064255
-40.4246 97.814 -15.9812 -0.120821 -0.992674 6.30803e-05
-39.6348 97.7337 -15.9776 -0.0979496 -0.995188 0.00266657
-39.8037 97.7512 -16.8553 -0.104452 -0.994526 -0.0027823
-41.1837 97.9165 -16.8674 -0.125381 -0.991855 0.0224336
-42.6329 98.0907 -16.8811 -0.110261 -0.993768 0.0163579
-43.8109 98.234 -16.8904 -0.141561 -0.989801 0.0159724
-44.8638 98.3657 -16.8989 -0.124353 -0.991749 0.0311452
-45.8767 98.5437 -16.9073 -0.186061 -0.981873 0.0361539
-46.9838 98.7686 -16.9153 -0.202061 -0.978988 0.0274566
-47.2794 98.8295 -16.918 -0.202061 -0.978988 0.0274569
-47.4229 98.8285 -17.832 -0.184493 -0.981213 0.0564271
-46.0566 98.5554 -17.8124 -0.197322 -0.979979 0.0265416
-44.3059 98.2501 -17.7865 -0.144267 -0.982856 0.11481
-42.7327 98.0663 -17.7674 -0.104752 -0.991657 0.0751275
-41.2517 97.887 -17.7496 -0.113538 -0.992648 0.0419413
-40.1954 97.77 -17.7372 -0.10661 -0.993433 0.0415325
-39.4354 97.6889 -17.728 -0.11748 -0.991915 0.0479861
-39.9575 97.7079 -18.6119 -0.11748 -0.991915 0.0479861
-41.0429 97.8068 -18.6263 -0.0907701 -0.983073 0.159147
-42.3504 97.9375 -18.645 -0.0976841 -0.986608 0.130625
-43.5599 98.0386 -18.6593 -0.114227 -0.987145 0.111789
-45.275 98.323 -18.697 -0.182397 -0.979989 0.0797087
-46.3369 98.5386 -18.7217 -0.207585 -0.973899 0.0918162
-47.399 98.7677 -18.7447 -0.212551 -0.973051 0.0894107
-47.2335 98.6265 -19.6497 -0.192006 -0.964041 0.183738
-46.2362 98.4331 -19.6227 -0.202513 -0.969687 0.13673
-44.8696 98.1708 -19.5834 -0.19165 -0.947448 0.25615
-43.7217 97.9489 -19.5452 -0.183228 -0.950761 0.249962
-42.5393 97.8225 -19.5236 -0.111222 -0.982026 0.152498
-41.4556 97.703 -19.5025 -0.101003 -0.982605 0.15584
-39.5259 97.4789 -19.4598 -0.131481 -0.971611 0.196682
-39.2767 97.4499 -19.4544 -0.115814 -0.971795 0.205431
-39.0332 97.2385 -20.299 -0.0566768 -0.94758 0.31445
-40.0823 97.3528 -20.324 -0.11169 -0.935882 0.334141
-41.1324 97.4686 -20.3505 -0.114183 -0.935998 0.332972
-42.187 97.5674 -20.3734 -0.073902 -0.954425 0.289158
-43.2322 97.6436 -20.3891 -0.124529 -0.955656 0.266859
-44.3096 97.8302 -20.4312 -0.174778 -0.953959 0.243753
-45.527 98.0617 -20.4787 -0.216381 -0.946349 0.240006
-46.591 98.3213 -20.5287 -0.24093 -0.94442 0.223657
-46.7719 98.3655 -20.5368 -0.216584 -0.954752 0.203812
-46.0259 97.9599 -21.391 -0.234644 -0.92923 0.285434
-44.9998 97.7129 -21.3289 -0.22363 -0.907957 0.354406
-43.9261 97.5415 -21.2862 -0.174778 -0.953959 0.243753
-42.8531 97.3582 -21.2341 -0.12453 -0.955655 0.266864
-41.7956 97.2493 -21.2025 -0.116675 -0.936106 0.331801
-40.7336 97.1295 -21.1671 -0.114182 -0.935998 0.332972
-39.6932 97.0255 -21.1388 -0.0808504 -0.949139 0.304301
-39.006 96.9718 -21.1239 -0.0808507 -0.949139 0.304301
-39.1054 96.7138 -21.9549 -0.0680513 -0.93462 0.349077
-40.3464 96.7797 -21.975 -0.0727982 -0.919781 0.38562
-42.1933 96.9593 -22.0368 -0.106823 -0.913453 0.392674
-43.4184 97.1165 -22.0904 -0.147244 -0.912799 0.380943
-44.5995 97.2943 -22.1487 -0.223631 -0.90796 0.354398
-44.6652 97.3126 -22.1566 -0.29006 -0.90226 0.319048
-44.2236 96.8849 -22.9619 -0.318855 -0.83124 0.45538
-43.0282 96.7276 -22.8991 -0.138543 -0.916985 0.374093
-41.8553 96.5758 -22.8368 -0.122702 -0.915375 0.383449
-40.7444 96.48 -22.8005 -0.09048 -0.921343 0.378074
-39.5265 96.3914 -22.7669 -0.064557 -0.909243 0.411229
-39.0824 96.3604 -22.7554 -0.0739927 -0.900159 0.429231
-39.2675 95.9824 -23.5437 -0.0295506 -0.873807 0.485374
-41.1091 96.0765 -23.5777 -0.0804214 -0.858685 0.506154
-42.2521 96.1632 -23.6122 -0.0804276 -0.858683 0.506157
-43.4049 96.2985 -23.6773 -0.155637 -0.845652 0.510539
-43.5207 96.3164 -23.6885 -0.179501 -0.852996 0.49008
-43.6922 95.8701 -24.4646 -0.181533 -0.721517 0.668176
-42.6355 95.731 -24.3798 -0.0669635 -0.808215 0.585068
-41.4982 95.6442 -24.3395 -0.0825025 -0.814671 0.574025
-40.2555 95.5812 -24.3156 -0.0112493 -0.852196 0.523101
-39.6154 95.5608 -24.31 -0.0319637 -0.86498 0.500788
-39.9158 95.1041 -25.0558 0.0094768 -0.838483 0.544845
-41.0176 95.1008 -25.0417 -0.0365578 -0.8276 0.560127
-42.1701 95.1788 -25.0823 -0.0513897 -0.801434 0.595871
-43.0774 95.2238 -25.1 -0.0513892 -0.801432 0.595874
-42.9464 94.6549 -25.7859 -0.0360624 -0.732008 0.680341
-41.4689 94.6044 -25.762 -0.00845638 -0.751315 0.659889
-40.2025 94.6078 -25.777 -0.00122778 -0.809062 0.587722
-39.5549 94.6049 -25.7796 -0.00122827 -0.809062 0.587722
-39.9341 94.0902 -26.4891 0.026509 -0.78675 0.616702
-40.9528 94.0501 -26.4509 0.0541927 -0.762778 0.644385
-42.0233 94.0361 -26.4303 0.0191569 -0.769459 0.638409
-43.1508 94.0583 -26.4387 -0.0308422 -0.730165 0.682574
-43.196 93.4323 -27.067 0.018868 -0.705768 0.708192
-41.9721 93.4625 -27.1027 0.0296843 -0.730491 0.682277
-40.8455 93.4842 -27.1284 0.0539459 -0.73965 0.670826
-40.175 93.5111 -27.1541 0.0541306 -0.762636 0.644559
-41.3093 92.8745 -27.7658 0.0781641 -0.748215 0.658836
-42.5612 92.8434 -27.7312 0.0493725 -0.723398 0.688664
-43.2399 92.8208 -27.7062 0.0493744 -0.723399 0.688662
-42.943 92.211 -28.3488 0.0593433 -0.697475 0.714148
-41.8704 92.2566 -28.3961 0.0851241 -0.716712 0.692154
-41.7565 92.264 -28.4035 0.0824623 -0.726995 0.681673
-46.1523 93.7023 2.10392 0.263501 -0.94449 -0.196227
-46.2189 93.685 2.09787 0.2635 -0.944491 -0.196227
-45.8705 93.5866 3.03955 0.264295 -0.944447 -0.195368
-46.9673 93.3011 2.94049 0.321445 -0.925074 -0.202264
-47.7388 92.854 3.77495 0.302769 -0.950968 -0.0631676
-46.7503 93.1678 3.87378 0.264295 -0.944447 -0.195368
-45.7401 93.4327 3.96448 0.265089 -0.944402 -0.194508
-45.4996 93.4959 3.98541 0.265088 -0.944402 -0.194508
-45.2187 93.4671 4.93718 0.246107 -0.966381 -0.0744228
-46.1875 93.2266 4.85631 0.246107 -0.966381 -0.0744225
-47.5288 92.881 4.73376 0.322413 -0.946466 -0.0158852
-48.8236 92.4532 4.60895 0.363725 -0.930103 -0.0511152
-49.1379 92.3075 4.58265 0.402643 -0.915259 -0.0133957
-50.7297 91.6819 5.4101 0.386389 -0.915639 0.110941
-49.4908 92.2061 5.4975 0.390507 -0.918005 0.0690754
-48.298 92.6101 5.60156 0.276871 -0.960471 0.0289293
-46.8175 93.0364 5.74 0.213927 -0.975321 -0.0546261
-45.6778 93.281 5.83551 0.230059 -0.971035 -0.0645318
-44.6105 93.4621 5.90035 0.16818 -0.976667 -0.133553
-44.0923 93.4897 6.85598 0.133147 -0.988686 -0.0690865
-45.2589 93.3144 6.78555 0.146206 -0.988776 -0.0307642
-46.834 93.011 6.67382 0.225196 -0.974313 0.00103399
-48.2471 92.6533 6.54886 0.28131 -0.958707 0.0417765
-49.3844 92.3222 6.43896 0.334372 -0.941161 0.0491016
-50.8213 91.7443 6.33599 0.349253 -0.931964 0.0972912
-52.0119 91.1949 6.25381 0.422817 -0.897638 0.124384
-53.1008 90.8804 7.10855 0.433604 -0.883079 0.179331
-52.0437 91.3616 7.18427 0.381931 -0.90557 0.184585
-50.696 91.9161 7.27389 0.339873 -0.922233 0.184316
-49.5993 92.3179 7.35476 0.256825 -0.958034 0.127324
-48.1309 92.7423 7.49994 0.285697 -0.956762 0.0546155
-47.0607 92.9873 7.58656 0.190147 -0.981077 0.0364893
-45.5036 93.2519 7.69524 0.147925 -0.988707 -0.0239931
-44.4058 93.406 7.76247 0.119898 -0.992472 -0.0249723
-43.2929 93.5387 7.83481 0.119592 -0.992496 -0.0255005
-43.039 93.5687 7.85352 0.103404 -0.99434 -0.0244034
-42.021 93.6352 8.85596 0.0737328 -0.996402 -0.0417861
-43.2747 93.5163 8.77049 0.119278 -0.99252 -0.0260291
-44.6836 93.3496 8.67151 0.119589 -0.992496 -0.0255056
-46.2865 93.1704 8.57023 0.10742 -0.9936 0.034935
-47.9636 92.8447 8.45212 0.168671 -0.983016 0.0723154
-49.6279 92.435 8.29404 0.226693 -0.96561 0.127313
-50.7132 92.0946 8.19905 0.313561 -0.936683 0.155899
-51.7422 91.6753 8.1319 0.378718 -0.908174 0.178304
-52.8027 91.2178 8.05517 0.380911 -0.907521 0.176955
-54.1444 90.5702 7.94885 0.412988 -0.880912 0.231157
-54.8533 90.4249 8.83279 0.493614 -0.846232 0.200593
-53.6044 91.0476 8.91677 0.382571 -0.906853 0.176799
-52.4147 91.5667 9.01296 0.379251 -0.908186 0.177107
-51.1751 92.0935 9.10697 0.318675 -0.934185 0.160454
-49.659 92.5523 9.23934 0.256826 -0.958033 0.12733
-48.2805 92.8792 9.35661 0.217116 -0.969757 0.111501
-47.2858 93.0467 9.4368 0.144348 -0.984197 0.10257
-46.2116 93.2115 9.5089 0.111459 -0.992862 0.0424486
-45.0079 93.3558 9.59097 0.115496 -0.992051 0.0499628
-43.7971 93.4747 9.6719 0.0877888 -0.99487 0.0502712
-42.003 93.5858 9.78137 0.0457126 -0.998954 -0.00119929
-40.9815 93.6382 9.83215 0.0985863 -0.992865 -0.0670775
-40.8866 93.651 9.83623 0.126701 -0.988551 -0.0819358
-39.0211 93.7814 10.849 0.0466 -0.995707 -0.07997
-40.7317 93.6533 10.7728 0.111086 -0.993787 -0.00688697
-41.8251 93.5928 10.7244 0.0476289 -0.998865 0.000884839
-43.0161 93.5373 10.6618 0.0485941 -0.998817 -0.0017458
-44.3311 93.4735 10.5801 0.0682221 -0.997375 0.0242765
-45.6353 93.3339 10.4956 0.100541 -0.992344 0.0717257
-46.9233 93.1858 10.401 0.132505 -0.988235 0.0763868
-47.9142 93.0472 10.3261 0.138437 -0.98632 0.0894895
-48.9911 92.8275 10.2411 0.201948 -0.970225 0.133719
-50.3931 92.4828 10.1218 0.251943 -0.957943 0.137365
-51.7249 92.0287 10.0067 0.369281 -0.915477 0.159791
-52.7778 91.594 9.91903 0.364147 -0.911181 0.192731
-54.2207 90.9693 9.80079 0.37689 -0.906713 0.189276
-55.1119 90.4663 9.7526 0.496772 -0.85079 0.171388
-55.5186 90.2248 9.73258 0.499178 -0.848208 0.177101
-56.3169 89.9408 10.5659 0.531077 -0.817162 0.224061
-55.0678 90.7049 10.6815 0.461349 -0.854319 0.239367
-53.5471 91.4573 10.7917 0.377873 -0.905901 0.191195
-52.4342 91.9312 10.8901 0.350336 -0.916266 0.194218
-51.2667 92.3594 10.9956 0.285048 -0.954406 0.0886432
-49.8298 92.7738 11.1186 0.227024 -0.964404 0.135594
-48.7761 92.9735 11.2059 0.154412 -0.98642 0.0559612
-47.5375 93.1675 11.3067 0.147429 -0.987509 0.0555982
-46.2705 93.3349 11.4004 0.0998408 -0.992567 0.0695926
-44.9845 93.469 11.4843 0.067153 -0.996302 0.0535948
-43.4319 93.5323 11.581 0.0398651 -0.998491 0.0377795
-41.6735 93.6037 11.666 0.0482061 -0.998801 0.00857051
-40.5876 93.6629 11.7122 0.0716331 -0.99651 -0.0428527
-39.5178 93.6936 11.7582 0.0319844 -0.996385 -0.0786966
-38.3644 93.7436 11.8061 0.054959 -0.994608 -0.0879489
-37.2489 93.7945 11.8456 0.048721 -0.994318 -0.0946518
-36.3641 93.8524 11.8787 0.0692176 -0.992962 -0.0960986
-35.0969 93.7687 12.8156 0.0446149 -0.987448 -0.151513
-36.3024 93.7366 12.7856 0.0237699 -0.988348 -0.150341
-37.5538 93.6934 12.7508 0.0374274 -0.997399 -0.0615973
-38.8393 93.661 12.7126 0.017274 -0.999475 -0.027418
-40.3784 93.6414 12.6553 0.0155881 -0.999691 -0.0193436
-41.4012 93.6235 12.6142 0.0187474 -0.999629 -0.0197736
-42.5233 93.5785 12.5691 0.0138617 -0.999792 0.014951
-43.5371 93.5637 12.5244 0.0268656 -0.999291 0.0263676
-44.5517 93.523 12.4609 0.0351013 -0.998596 0.0396635
-45.8802 93.4401 12.3744 0.105379 -0.992593 0.0604498
-47.271 93.2623 12.2802 0.147766 -0.987426 0.0561701
-48.3674 93.0939 12.1998 0.150923 -0.986971 0.0557782
-49.8912 92.8441 12.0749 0.206942 -0.977063 0.0502322
-51.3292 92.4296 11.952 0.285048 -0.954406 0.0886364
-52.5015 92.0643 11.8323 0.292604 -0.95264 0.0828191
-53.4711 91.6997 11.7389 0.367221 -0.905968 0.210644
-54.9954 90.9844 11.6133 0.435376 -0.878927 0.194772
-56.333 90.1788 11.4719 0.565525 -0.810166 0.154309
-57.1828 89.5326 11.3652 0.594353 -0.799748 0.0845447
-57.3215 89.5246 12.2511 0.592178 -0.801262 0.0854673
-56.272 90.3229 12.4126 0.576516 -0.8152 0.0554792
-55.2671 90.9729 12.5317 0.477511 -0.876064 0.0670508
-54.3365 91.4866 12.6164 0.44372 -0.895466 0.0354044
-52.9376 92.0016 12.7542 0.311937 -0.946839 0.0786785
-51.5793 92.4383 12.8983 0.27749 -0.959526 0.0480578
-50.4334 92.7509 13.0016 0.254052 -0.965816 0.0515486
-49.1835 93.0093 13.1024 0.168381 -0.983755 0.0622435
-47.8819 93.2276 13.1917 0.135887 -0.988017 0.0731959
-46.4692 93.4228 13.2837 0.0924191 -0.995487 0.0215682
-45.3713 93.5024 13.3621 0.0572793 -0.998335 -0.0068732
-44.2541 93.5486 13.4337 0.05389 -0.998532 0.00545648
-42.9109 93.5927 13.4935 0.00987219 -0.999425 0.0324292
-41.3812 93.6054 13.5504 0.0148206 -0.999875 -0.00551629
-40.1762 93.6263 13.5979 0.0120293 -0.999666 -0.02286
-39.1111 93.6343 13.6341 0.00846818 -0.999616 -0.0263678
-37.9771 93.6564 13.6639 0.00133135 -0.998468 -0.0553122
-36.7857 93.632 13.6847 -0.00469974 -0.99648 -0.0837029
-35.5003 93.6244 13.7032 -0.0318839 -0.992719 -0.116161
-34.4052 93.5599 13.7051 -0.0482157 -0.966886 -0.250612
-34.1624 93.3825 14.5978 -0.105211 -0.98092 -0.163483
-35.181 93.4671 14.6034 -0.0826386 -0.985874 -0.145679
-36.5819 93.5541 14.6009 -0.0318898 -0.992719 -0.116157
-37.7959 93.5758 14.5903 -0.0234177 -0.99635 -0.0820846
-38.908 93.621 14.5752 -0.0100142 -0.999909 -0.00902404
-39.9578 93.6197 14.5445 0.00123706 -0.999999 0.000906932
-41.0404 93.6175 14.5045 0.00663602 -0.999967 0.0047267
-42.057 93.606 14.4643 0.0109021 -0.999902 0.00874816
-43.2916 93.6191 14.4241 -0.000857339 -0.999777 0.0211115
-44.3059 93.5588 14.3834 0.0662828 -0.997698 0.0143263
-45.6517 93.4722 14.3016 0.0673366 -0.99773 -0.000158326
-46.9378 93.3919 14.215 0.0800825 -0.996739 0.00994781
-48.4971 93.2111 14.1099 0.156663 -0.984842 0.0744515
-49.9379 92.9314 14.0153 0.245047 -0.9686 0.042014
-51.1318 92.5809 13.9217 0.273622 -0.96167 0.0179274
-52.1868 92.2945 13.8129 0.257493 -0.96609 0.0191853
-53.2521 91.9767 13.7015 0.361104 -0.931612 0.0412596
-54.211 91.5468 13.6036 0.408808 -0.912613 0.00367351
-55.1332 91.1202 13.5031 0.517214 -0.854552 0.0472198
-56.0188 90.5406 13.392 0.516743 -0.842198 0.153883
-57.0031 89.8798 13.2419 0.581209 -0.804664 0.121297
-58.0127 89.1208 13.041 0.580977 -0.804873 0.121019
-58.5035 88.8299 13.8782 0.651262 -0.754799 0.0783387
-57.6619 89.5278 14.0634 0.581209 -0.804664 0.121297
-56.7347 90.2237 14.2341 0.581445 -0.804451 0.121574
-55.7502 90.8864 14.3825 0.479945 -0.870127 0.111948
-54.6817 91.4244 14.5247 0.416973 -0.905053 0.0837429
-53.6948 91.8603 14.6419 0.392297 -0.914622 0.0978288
-52.468 92.231 14.7653 0.264255 -0.964444 0.00416799
-51.254 92.5642 14.8905 0.259602 -0.965715 -0.000771026
-49.905 92.982 14.9905 0.245047 -0.9686 0.042015
-48.5526 93.2139 15.0771 0.138642 -0.989692 -0.035882
-46.9358 93.4018 15.1892 0.0800824 -0.996739 0.00994781
-45.9363 93.4631 15.2547 0.0552621 -0.998472 8.17598e-05
-44.5667 93.5401 15.3268 0.0573342 -0.998355 0.000149537
-43.3985 93.601 15.3664 0.014479 -0.99961 -0.0238996
-42.2595 93.6167 15.4008 0.00144785 -0.999974 -0.00705158
-41.0855 93.618 15.4484 0.00236976 -0.999997 0.00070507
-39.7189 93.6209 15.494 -0.0100129 -0.999909 -0.00903265
-38.5241 93.5951 15.5098 -0.034852 -0.999238 -0.0175449
-37.0363 93.5009 15.5168 -0.0901897 -0.994259 -0.0575818
-35.8227 93.3722 15.5086 -0.0824332 -0.991155 -0.104
-34.3721 93.2432 15.4955 -0.127691 -0.975131 -0.181149
-33.5101 93.1337 15.4776 -0.109272 -0.976625 -0.185104
-33.56 92.9786 16.3738 -0.148247 -0.973065 -0.176544
-34.695 93.1227 16.3994 -0.155882 -0.976562 -0.148416
-36.1533 93.3495 16.4333 -0.135431 -0.984136 -0.114606
-37.8406 93.5092 16.4448 -0.074716 -0.995641 -0.0558302
-38.971 93.5702 16.4409 -0.0197318 -0.998547 -0.0501366
-40.3616 93.5898 16.4293 0.00149844 -0.998608 -0.052718
-41.4282 93.5814 16.398 0.00928872 -0.998788 -0.0483269
-42.5583 93.5997 16.3503 -0.00373316 -0.999725 -0.0231344
-43.713 93.5803 16.3203 0.0307151 -0.999442 -0.0130985
-45.1491 93.5068 16.2759 0.0563018 -0.998414 0.000120607
-46.2683 93.4448 16.2129 0.0632468 -0.997918 -0.0126216
-47.6042 93.3047 16.1251 0.137008 -0.990073 -0.03138
-48.5995 93.1719 16.0554 0.13864 -0.989693 -0.035875
-50.0872 92.9269 15.959 0.253845 -0.965644 -0.0556359
-51.2198 92.5674 15.8691 0.254933 -0.966942 -0.00570899
-52.687 92.1751 15.7239 0.271613 -0.962403 0.00248698
-54.0894 91.7677 15.5898 0.289702 -0.956738 -0.0269361
-55.1206 91.2687 15.4555 0.455481 -0.890153 0.01283
-56.0478 90.7923 15.3184 0.47843 -0.878122 -0.00238189
-56.8825 90.2393 15.1839 0.592058 -0.801428 0.0847405
-58.2411 89.0875 14.9102 0.678676 -0.734433 0.00261703
-58.4132 88.9354 14.8704 0.663918 -0.747673 -0.0140715
-58.7826 88.5881 15.7841 0.789401 -0.609803 -0.0706216
-58.0281 89.3202 15.9489 0.692981 -0.720697 0.0193016
-57.2811 90.0427 16.1091 0.644211 -0.763067 0.05216
-56.3952 90.5722 16.2516 0.500947 -0.865299 -0.0175916
-55.4905 91.093 16.3971 0.478429 -0.878123 -0.00238866
-54.2044 91.6521 16.5604 0.375666 -0.923644 -0.0758791
-53.1906 91.9894 16.6631 0.300192 -0.952312 -0.0546425
-51.7759 92.4129 16.8047 0.259783 -0.965516 -0.0170687
-50.6455 92.7127 16.9071 0.287347 -0.957696 -0.0158024
-49.6041 92.9346 16.9753 0.199398 -0.979158 -0.0386134
-48.0203 93.2202 17.0895 0.144646 -0.988902 -0.0339149
-46.9039 93.3753 17.162 0.105333 -0.994097 -0.026012
-45.6996 93.4597 17.2268 0.055441 -0.997134 -0.0514886
-44.3065 93.5354 17.2758 0.0686748 -0.994386 -0.0804984
-43.1913 93.5798 17.3112 -0.00373617 -0.999726 -0.0231289
-42.0272 93.5496 17.3586 -0.0244539 -0.999024 -0.0367712
-40.9022 93.5385 17.3848 0.00150171 -0.998608 -0.0527234
-39.2376 93.5281 17.3848 -0.0130115 -0.998476 -0.0536264
-38.1964 93.464 17.3817 -0.0799505 -0.990121 -0.115192
-36.7005 93.3159 17.369 -0.130795 -0.984069 -0.12042
-35.4922 93.1525 17.3445 -0.159601 -0.979927 -0.119461
-33.9397 92.8679 17.283 -0.155882 -0.976562 -0.148416
-33.3134 92.7703 17.2611 -0.172963 -0.965669 -0.193825
-32.94 92.5122 18.141 -0.208958 -0.963302 -0.168481
-33.9284 92.7509 18.2001 -0.211457 -0.969279 -0.125638
-35.5689 93.0492 18.2711 -0.179314 -0.975723 -0.12574
-36.6228 93.1863 18.3016 -0.126151 -0.983947 -0.126227
-38.3454 93.3657 18.3305 -0.0828998 -0.990235 -0.112084
-39.6179 93.4536 18.346 -0.0119716 -0.995936 -0.0892635
-40.8387 93.4678 18.3512 -0.0375904 -0.997215 -0.0644096
-42.1758 93.5039 18.3377 -0.0203122 -0.99792 -0.0611752
-43.2191 93.5272 18.304 0.0241377 -0.997184 -0.0709984
-44.2459 93.4596 18.2638 0.0686033 -0.994385 -0.0805778
-45.6402 93.3856 18.2089 0.0396111 -0.996197 -0.0776103
-46.8919 93.3267 18.1553 0.0890355 -0.986537 -0.13718
-48.0986 93.1666 18.0899 0.149962 -0.987835 -0.0411518
-49.5485 92.9056 17.9982 0.219652 -0.973453 -0.064363
-50.6045 92.6514 17.9171 0.229527 -0.969068 -0.0906931
-51.7437 92.4037 17.815 0.23979 -0.969308 -0.0542523
-53.106 91.9953 17.6733 0.324117 -0.945798 -0.0203554
-54.3609 91.5091 17.5355 0.375371 -0.923877 -0.0744877
-55.6807 90.8607 17.3483 0.530581 -0.83777 -0.128936
-56.725 90.2391 17.1758 0.537812 -0.828744 -0.154727
-57.6793 89.624 17.0087 0.554648 -0.815357 -0.166009
-58.4493 88.9046 16.84 0.746406 -0.664456 -0.037099
-59.1859 87.9693 16.6242 0.791327 -0.607636 -0.0676706
-59.2513 87.8863 16.6053 0.789401 -0.609803 -0.0706216
-58.928 88.1406 17.6166 0.781727 -0.561797 -0.270718
-58.2065 89.0311 17.8521 0.738566 -0.605892 -0.295661
-57.3993 89.6388 18.0261 0.557907 -0.824669 -0.093062
-56.5446 90.1994 18.1818 0.539877 -0.83572 -0.10052
-55.5406 90.7957 18.3576 0.521579 -0.846349 -0.107932
-54.4493 91.3932 18.5287 0.370988 -0.925437 -0.0770391
-53.376 91.7927 18.6532 0.338641 -0.925638 -0.168869
-51.6982 92.3058 18.8427 0.262326 -0.95029 -0.167733
-50.6451 92.5466 18.9337 0.229527 -0.969068 -0.0906931
-48.7861 92.9883 19.0659 0.171704 -0.97757 -0.12196
-47.0948 93.1667 19.1454 0.110728 -0.984456 -0.136328
-45.9489 93.246 19.193 0.0673012 -0.988148 -0.137967
-44.8682 93.3432 19.2382 0.0870084 -0.993609 -0.0719034
-43.5599 93.424 19.2864 0.066221 -0.995093 -0.0735171
-42.1295 93.4573 19.3228 0.00254408 -0.999371 -0.0353589
-40.9821 93.4385 19.3214 -0.0631713 -0.997221 -0.0394821
-39.9036 93.3706 19.3104 -0.0375952 -0.997215 -0.064414
-38.8431 93.3029 19.2926 -0.0867506 -0.98992 -0.111948
-37.7837 93.2115 19.2723 -0.104067 -0.987462 -0.118697
-35.9241 92.9866 19.2165 -0.123493 -0.985209 -0.118793
-34.4996 92.7395 19.1493 -0.179309 -0.975725 -0.125736
-33.2467 92.4628 19.0761 -0.259454 -0.948604 -0.181202
-33.195 92.4483 19.0722 -0.278024 -0.932071 -0.232262
-33.4336 92.2907 19.9905 -0.278027 -0.932071 -0.232259
-34.82 92.6524 20.0926 -0.193448 -0.964735 -0.178504
-35.9362 92.8646 20.1558 -0.184758 -0.970605 -0.154244
-37.071 93.0087 20.2021 -0.120448 -0.985139 -0.122445
-38.8601 93.1931 20.2516 -0.0876514 -0.989501 -0.114917
-39.9128 93.2506 20.2724 -0.0764753 -0.984776 -0.1561
-41.2143 93.3778 20.2986 -0.0524511 -0.980294 -0.190456
-42.6671 93.3286 20.2889 0.0489454 -0.98497 -0.165644
-43.6932 93.3348 20.2821 -0.0125319 -0.988049 -0.153629
-45.3257 93.2147 20.2327 0.110078 -0.990904 -0.0774088
-46.8756 93.0486 20.1545 0.0887519 -0.990207 -0.10776
-47.9529 92.9388 20.1034 0.109359 -0.984828 -0.134739
-48.9706 92.8325 20.0546 0.171704 -0.97757 -0.12196
-50.0876 92.5656 19.9804 0.243695 -0.961567 -0.126497
-51.2526 92.2562 19.8878 0.281877 -0.951044 -0.126734
-52.3722 91.9518 19.7937 0.300725 -0.938721 -0.168429
-53.4205 91.5912 19.6667 0.339632 -0.924873 -0.171052
-54.8796 91.0279 19.4717 0.474402 -0.860993 -0.183394
-55.8285 90.4813 19.3003 0.514168 -0.84306 -0.157739
-56.7648 89.9424 19.1283 0.541956 -0.819068 -0.188179
-57.5051 89.2536 18.9213 0.692132 -0.6473 -0.319306
-58.2368 88.5765 18.7079 0.738566 -0.605889 -0.295668
-58.9404 87.7269 18.4522 0.775815 -0.575355 -0.258994
-59.3199 87.2808 18.3063 0.775814 -0.575356 -0.258994
-58.9198 87.3851 19.2735 0.775814 -0.575356 -0.258995
-58.2737 88.1931 19.5835 0.77178 -0.615131 -0.161152
-57.2826 89.2092 19.9317 0.726364 -0.671313 -0.147426
-56.1497 90.0822 20.2226 0.568514 -0.793212 -0.218189
-55.2893 90.6037 20.4032 0.474405 -0.86099 -0.183399
-54.3645 91.026 20.5501 0.43342 -0.876721 -0.208583
-53.0831 91.519 20.727 0.346802 -0.923903 -0.161652
-51.8866 91.9342 20.8435 0.289807 -0.946633 -0.141059
-50.5972 92.31 20.942 0.262837 -0.956493 -0.12664
-49.2877 92.5724 21.0309 0.184389 -0.95558 -0.229929
-47.7364 92.7587 21.113 0.102422 -0.972643 -0.208507
-46.5292 92.96 21.1956 0.150213 -0.978832 -0.139011
-45.4029 93.0923 21.2499 0.121776 -0.984329 -0.127542
-44.3871 93.1683 21.2689 0.0231375 -0.978314 -0.205829
-42.7531 93.1704 21.263 -0.00601882 -0.984098 -0.177523
-41.6338 93.1671 21.2569 -0.00554951 -0.976147 -0.217041
-40.2388 93.122 21.2438 -0.076479 -0.984776 -0.156101
-38.8768 93.0521 21.2161 -0.0572747 -0.985455 -0.159997
-37.2741 92.8926 21.1612 -0.13514 -0.977217 -0.16366
-35.9794 92.7032 21.095 -0.197327 -0.964839 -0.173628
-34.4813 92.4169 20.9986 -0.249386 -0.949759 -0.189116
-33.4927 92.1133 20.9074 -0.312918 -0.92419 -0.218986
-32.8657 91.9094 20.8463 -0.315092 -0.918912 -0.237315
-32.8666 91.6794 21.7459 -0.308949 -0.921377 -0.235828
-33.9401 92.0223 21.8583 -0.32122 -0.916405 -0.238789
-35.3947 92.4154 21.991 -0.208544 -0.956429 -0.204333
-36.4871 92.6312 22.0722 -0.166321 -0.971527 -0.168737
-38.1474 92.8283 22.1537 -0.122849 -0.975966 -0.179997
-39.4346 92.9156 22.1982 -0.0608272 -0.983365 -0.171155
-41.0818 92.9934 22.2358 -0.0299352 -0.986025 -0.163889
-42.2251 93.0121 22.2523 -0.018263 -0.98864 -0.149192
-43.2874 92.9798 22.2551 0.0391631 -0.986354 -0.159914
-44.8672 92.9333 22.2557 0.0457685 -0.976574 -0.21026
-46.0624 92.8783 22.2512 0.0462368 -0.976063 -0.212518
-47.2488 92.6754 22.182 0.178504 -0.972386 -0.150341
-48.3878 92.48 22.0929 0.140623 -0.973631 -0.179631
-49.5616 92.2708 22.0022 0.203198 -0.940324 -0.272949
-50.664 92.0531 21.9315 0.218801 -0.937565 -0.270365
-51.9732 91.7512 21.8394 0.290802 -0.906501 -0.306089
-52.9865 91.3384 21.7227 0.391766 -0.867165 -0.30748
-53.9295 90.9445 21.604 0.424765 -0.854686 -0.298474
-54.8722 90.5044 21.4563 0.441787 -0.850803 -0.284533
-55.7551 90.0179 21.2835 0.558239 -0.776676 -0.291793
-56.7141 89.4108 21.0649 0.591393 -0.736218 -0.328995
-57.545 88.6981 20.8028 0.720598 -0.644494 -0.255669
-58.3199 87.8935 20.5053 0.77178 -0.61513 -0.161155
-58.935 87.1241 20.1901 0.818494 -0.540666 -0.194291
-58.9522 87.1004 20.1798 0.83256 -0.499421 -0.239628
-58.8778 86.7872 21.0912 0.832561 -0.499421 -0.239626
-57.6976 88.0798 21.6432 0.722924 -0.561919 -0.402029
-56.59 89.0243 22.0102 0.62211 -0.692726 -0.364841
-55.3374 89.8797 22.3278 0.522248 -0.791284 -0.318003
-53.8365 90.6343 22.5778 0.407532 -0.858143 -0.312262
-52.6391 91.1381 22.7302 0.368874 -0.870703 -0.325282
-51.5796 91.5131 22.8429 0.345666 -0.873499 -0.342804
-49.9829 91.8967 22.9774 0.220699 -0.944856 -0.241947
-48.6318 92.2102 23.0921 0.203336 -0.954422 -0.218479
-46.808 92.5138 23.1979 0.172041 -0.956334 -0.236279
-45.4029 92.6927 23.2379 0.04672 -0.975546 -0.214774
-44.0104 92.7392 23.2379 0.0406531 -0.968255 -0.246637
-42.37 92.8414 23.2459 0.0531833 -0.964584 -0.258361
-41.3536 92.8248 23.228 -0.0416009 -0.983057 -0.178516
-39.866 92.7614 23.1846 -0.0551684 -0.982291 -0.179057
-38.5462 92.678 23.1354 -0.123343 -0.945636 -0.30093
-36.9826 92.452 23.0326 -0.157929 -0.947623 -0.277613
-35.8059 92.2927 22.959 -0.14223 -0.950983 -0.274593
-34.4524 91.9665 22.8294 -0.332039 -0.915847 -0.225773
-33.4027 91.5985 22.7012 -0.351127 -0.884429 -0.3074
-33.1266 91.5084 22.6697 -0.332337 -0.894645 -0.298602
-33.4584 91.3145 23.5907 -0.326913 -0.894149 -0.305983
-34.7727 91.8063 23.7778 -0.350454 -0.872561 -0.340322
-36.0069 92.0511 23.8917 -0.162129 -0.925934 -0.341116
-37.2533 92.2192 23.981 -0.147499 -0.945602 -0.289967
-38.5218 92.3766 24.0649 -0.137027 -0.943329 -0.302247
-39.615 92.4879 24.128 -0.109626 -0.947761 -0.29955
-40.9705 92.5852 24.1851 -0.0193144 -0.956311 -0.291711
-42.2236 92.5811 24.2072 0.0216648 -0.963318 -0.267488
-43.5166 92.5187 24.2148 0.0531873 -0.964584 -0.258357
-44.6989 92.4787 24.2171 0.0198015 -0.969576 -0.24399
-45.8212 92.4153 24.2057 0.167379 -0.930582 -0.325578
-47.2042 92.1715 24.1483 0.1509 -0.936469 -0.31663
-48.81 91.9433 24.0921 0.203332 -0.954423 -0.218479
-49.8414 91.6927 24.0065 0.304332 -0.886791 -0.347827
-51.2187 91.2864 23.8646 0.315483 -0.892787 -0.321563
-52.2791 90.9159 23.7446 0.344661 -0.89107 -0.2953
-53.3049 90.5028 23.6169 0.414149 -0.854395 -0.313831
-54.2583 90.0943 23.491 0.4086 -0.855185 -0.31891
-55.4021 89.4553 23.2777 0.517995 -0.791806 -0.323612
-56.3347 88.7864 23.0266 0.658374 -0.670934 -0.34116
-57.4979 87.688 22.5642 0.764518 -0.56645 -0.307646
-58.6903 86.407 21.9937 0.781577 -0.497006 -0.376991
-58.7733 86.3103 21.9492 0.784085 -0.484892 -0.387415
-58.5797 85.8757 22.8484 0.792649 -0.473996 -0.383453
-57.5099 87.172 23.4486 0.786439 -0.490349 -0.375595
-56.8634 87.8917 23.7658 0.713528 -0.620501 -0.325357
-56.0167 88.5387 24.0269 0.598364 -0.667247 -0.443555
-55.2024 89.0956 24.2343 0.556557 -0.697623 -0.451184
-54.2439 89.7163 24.4569 0.536862 -0.74736 -0.39145
-53.262 90.1683 24.6 0.419678 -0.853551 -0.308741
-51.9952 90.6871 24.7664 0.315483 -0.892787 -0.321563
-50.9782 90.9778 24.8559 0.285815 -0.893124 -0.347331
-49.7923 91.3304 24.9732 0.304332 -0.886791 -0.347827
-48.1877 91.7202 25.0811 0.146633 -0.92525 -0.349874
-47.1453 91.8566 25.1076 0.150901 -0.936469 -0.31663
-45.6129 92.1029 25.1717 0.157336 -0.92921 -0.334388
-44.5257 92.1753 25.1805 0.0367875 -0.950182 -0.309516
-43.4555 92.2273 25.1729 0.0599571 -0.948637 -0.310634
-42.3626 92.2984 25.1667 0.0126968 -0.93521 -0.353867
-41.3625 92.284 25.1353 -0.0370538 -0.948101 -0.315802
-40.1329 92.2274 25.0868 -0.0989707 -0.943961 -0.31487
-39.0211 92.1295 25.031 -0.104406 -0.940164 -0.32433
-37.997 92.0174 24.9573 -0.134377 -0.945809 -0.295616
-36.3958 91.7816 24.8204 -0.195847 -0.931706 -0.305888
-35.0576 91.5248 24.6863 -0.325244 -0.869607 -0.371483
-33.7831 91.1219 24.5135 -0.35045 -0.872564 -0.340318
-34.819 91.0808 25.5132 -0.326034 -0.868314 -0.373807
-36.479 91.4942 25.7292 -0.228523 -0.87744 -0.421754
-37.6101 91.685 25.8447 -0.118248 -0.94188 -0.31445
-38.9446 91.8003 25.9292 -0.105937 -0.936806 -0.333425
-40.0727 91.9062 26.0035 -0.07798 -0.911309 -0.404271
-41.2736 91.9183 26.0437 0.0106443 -0.915807 -0.401477
-42.8449 91.9135 26.1019 -0.0346072 -0.917777 -0.395586
-44.3523 91.8713 26.1386 0.0567479 -0.928822 -0.366154
-45.3572 91.8029 26.1367 0.0916843 -0.925489 -0.367509
-46.4175 91.6408 26.0933 0.155899 -0.933591 -0.32265
-47.8817 91.4075 26.0361 0.146462 -0.925126 -0.350272
-48.8959 91.2575 26.0078 0.231668 -0.910276 -0.343114
-50.4455 90.7604 25.8586 0.327972 -0.878781 -0.346667
-51.809 90.3404 25.7342 0.292757 -0.87145 -0.393533
-52.8265 89.8932 25.5847 0.467652 -0.780388 -0.415086
-53.8523 89.4076 25.4302 0.436573 -0.779422 -0.449339
-55.0507 88.6288 25.1432 0.562918 -0.698424 -0.441959
-56.0805 87.9222 24.872 0.594888 -0.675556 -0.435583
-57.2579 86.8464 24.4079 0.795647 -0.491175 -0.354531
-57.8896 86.0979 24.0559 0.79262 -0.48281 -0.372355
-58.438 85.4242 23.7364 0.800155 -0.469271 -0.373545
-58.3865 84.8558 24.5606 0.800155 -0.469271 -0.373547
-57.7868 85.6077 24.9416 0.805003 -0.481629 -0.346415
-56.679 86.9435 25.5725 0.702404 -0.589354 -0.399112
-55.8248 87.5548 25.8192 0.623633 -0.678616 -0.388024
-54.8836 88.2144 26.0739 0.559553 -0.723555 -0.404189
-53.9217 88.8311 26.3015 0.564485 -0.711481 -0.418512
-52.9518 89.3739 26.4862 0.49773 -0.779683 -0.379947
-51.6715 89.9595 26.6799 0.315612 -0.873401 -0.370891
-50.6596 90.3102 26.7821 0.338141 -0.87444 -0.347871
-49.655 90.6453 26.8799 0.284102 -0.880915 -0.378518
-48.4816 90.9417 26.9609 0.249812 -0.876847 -0.410771
-47.2212 91.1606 27.0076 0.181356 -0.923986 -0.33669
-46.1716 91.3524 27.0467 0.168648 -0.928897 -0.329708
-45.1426 91.404 27.0374 0.0268938 -0.91165 -0.410086
-44.0892 91.4742 27.0359 0.0804393 -0.904655 -0.418485
-42.6663 91.519 27.0038 -0.0355927 -0.918776 -0.393172
-41.0793 91.4835 26.9033 -0.0535602 -0.880911 -0.470241
-39.7493 91.4436 26.8347 -0.0456185 -0.880353 -0.47212
-38.7203 91.3576 26.7627 -0.140227 -0.834464 -0.532922
-37.4266 91.2081 26.6599 -0.113923 -0.849129 -0.515753
-36.0182 90.9901 26.5282 -0.250899 -0.868934 -0.426619
-35.11 90.767 26.3979 -0.273132 -0.85991 -0.431223
-35.495 90.3656 27.2363 -0.312776 -0.738747 -0.597012
-37.0997 90.6732 27.441 -0.120112 -0.809833 -0.574233
-38.1338 90.7762 27.512 -0.150651 -0.818223 -0.554811
-39.2728 90.9024 27.6148 -0.13441 -0.84828 -0.512207
-40.4245 91.0014 27.7188 -0.073658 -0.859897 -0.505125
-41.7693 91.0259 27.8108 -0.0488917 -0.874556 -0.482454
-43.1289 91.1325 27.9289 -0.0948131 -0.862894 -0.496411
-44.4323 91.0196 27.9214 0.0804568 -0.891021 -0.446776
-45.9521 90.9118 27.9484 0.0444362 -0.884161 -0.465065
-47.3407 90.7193 27.9261 0.124541 -0.878365 -0.46148
-48.8367 90.3924 27.8519 0.250653 -0.849151 -0.464883
-49.9187 90.1115 27.7818 0.287523 -0.83387 -0.47116
-50.8741 89.7858 27.6821 0.333251 -0.817803 -0.469193
