-48.0742 100.267 -20.7018 -0.180058 -0.965194 0.17839
-47.9782 99.9855 -21.7397 -0.209528 -0.950199 0.229884
-47.4277 99.6114 -22.6298 -0.217267 -0.928738 0.298521
-46.5927 99.1944 -23.3539 -0.218849 -0.91378 0.339814
-45.6996 98.6298 -24.1406 -0.264557 -0.90364 0.335272
-44.951 97.9847 -24.9622 -0.185182 -0.8418 0.507032
-44.4761 97.3995 -25.755 -0.186559 -0.790255 0.578369
-43.9917 96.244 -26.9644 -0.153363 -0.762054 0.628332
-43.6517 95.387 -27.7599 -0.0900538 -0.695933 0.712438
-43.4908 94.6208 -28.4511 -0.0884608 -0.656924 0.74875
-43.5576 93.6152 -29.4155 0.0321099 -0.669426 0.740371
-43.5654 92.4541 -30.5166 0.0483845 -0.717205 0.69518
-43.3124 91.7025 -31.3097 0.0464788 -0.721764 0.690577
-42.2274 91.662 -31.4258 0.0544489 -0.723649 0.688005
-41.5111 92.1826 -30.9377 0.0580757 -0.724392 0.686938
-40.8998 92.7731 -30.3666 0.0582589 -0.72429 0.687029
-39.9928 93.776 -29.3301 0.0289146 -0.738554 0.673484
-39.529 94.474 -28.5755 0.0347872 -0.743468 0.667867
-39.1045 95.1674 -27.7362 0.0151901 -0.794191 0.607478
-38.6988 96.0504 -26.4679 0.0144496 -0.844642 0.535136
-38.4641 96.6718 -25.4336 -0.0231835 -0.883721 0.467427
-38.2757 97.1548 -24.5173 -0.0248959 -0.882241 0.470139
-38.2681 97.7358 -23.2361 -0.0239479 -0.93208 0.361459
-38.476 98.195 -22.0657 -0.0433795 -0.940555 0.335162
-38.6992 98.488 -20.9577 -0.014043 -0.969981 0.242775
-38.9034 98.7571 -19.9158 -0.15227 -0.969018 0.190822
-39.139 98.9101 -18.8118 -0.153911 -0.98286 0.101482
-39.3938 99.0626 -17.7207 -0.133541 -0.987164 0.0830845
-39.6904 99.0648 -16.6361 -0.0528875 -0.998516 -0.0130245
-40.0375 99.0692 -15.5658 -0.0634102 -0.996558 -0.0429298
-40.3787 99.0189 -14.61 -0.130094 -0.986747 -0.0969882
-40.7788 98.9709 -13.6131 -0.109945 -0.985405 -0.129307
-41.2839 98.8827 -12.608 -0.111131 -0.983596 -0.142085
-41.7903 98.7913 -11.6299 -0.0966326 -0.980619 -0.169608
-42.2541 98.5407 -10.0714 -0.0863522 -0.977126 -0.193882
-42.5774 98.3474 -9.08408 -0.0255754 -0.980278 -0.195964
-43.1173 98.1135 -7.95126 -0.0315503 -0.970072 -0.240519
-43.7104 97.8811 -6.91213 -0.0314879 -0.965035 -0.25931
-44.53 97.7563 -6.41919 -0.0207091 -0.960453 -0.27767
-45.0744 98.0077 -7.27805 -0.0308256 -0.946604 -0.316111
-45.3543 98.3873 -8.44178 -0.085309 -0.958801 -0.270968
-45.6106 98.685 -9.42521 -0.093904 -0.964663 -0.245328
-45.98 99.0343 -10.6321 -0.142696 -0.959342 -0.243516
-46.2863 99.3642 -11.8954 -0.132213 -0.968681 -0.210183
-46.456 99.5989 -12.8552 -0.192567 -0.961821 -0.192151
-46.7121 99.8283 -13.8999 -0.199395 -0.966208 -0.163349
-46.9739 100.071 -15.0157 -0.204433 -0.964432 -0.16743
-47.2168 100.227 -16.0662 -0.236675 -0.967781 -0.0859368
-47.4497 100.378 -17.1237 -0.228783 -0.970264 -0.0782169
-47.671 100.4 -18.1392 -0.151825 -0.988333 0.0121016
-47.876 100.404 -19.2648 -0.174838 -0.978551 0.108339
-48.0062 100.312 -20.222 -0.167002 -0.979016 0.116784
-48.8905 100.602 -19.7617 -0.27468 -0.949733 0.150192
-48.7309 100.669 -18.6253 -0.238725 -0.967038 0.0885831
-48.5267 100.648 -17.4764 -0.220886 -0.972748 -0.0705054
-48.3078 100.524 -16.4564 -0.220886 -0.972748 -0.0705054
-48.076 100.376 -15.3837 -0.223083 -0.965216 -0.128723
-47.8431 100.114 -14.1949 -0.209481 -0.962653 -0.171514
-47.619 99.8783 -13.0885 -0.192561 -0.961824 -0.192145
-47.3955 99.6038 -12.0867 -0.182082 -0.959219 -0.216115
-47.1649 99.3545 -11.1476 -0.164601 -0.956995 -0.237056
-46.8815 99.0474 -10.1968 -0.139117 -0.956308 -0.256785
-46.4441 98.5329 -8.61402 -0.106999 -0.951738 -0.286339
-46.2473 98.1275 -7.35592 -0.0720894 -0.933718 -0.350676
-46.0226 97.699 -6.26121 -0.0308222 -0.946605 -0.316109
-45.6366 97.4458 -5.37516 0.00935662 -0.962151 -0.272355
-44.8422 97.2833 -4.77355 0.0223293 -0.963103 -0.267852
-43.8519 97.2804 -4.63043 0.022221 -0.966991 -0.253283
-43.2566 97.5127 -5.53432 -0.00260832 -0.969721 -0.243919
-42.8658 97.7439 -6.47351 -0.0163077 -0.970424 -0.240815
-42.2737 97.9667 -7.43114 -0.0208424 -0.970528 -0.240085
-41.6946 98.1611 -8.2675 -0.0232053 -0.975404 -0.21802
-41.2002 98.4599 -10.0622 -0.0703892 -0.982867 -0.170347
-40.8478 98.6258 -11.1477 -0.0766133 -0.982749 -0.168153
-40.1634 98.7812 -12.5132 -0.0677827 -0.989446 -0.128072
-39.5926 98.8923 -13.7561 -0.0767878 -0.989722 -0.12064
-39.1873 98.9548 -14.8662 -0.0739378 -0.9946 -0.0728297
-38.8012 99.0094 -16.005 -0.0634153 -0.996558 -0.0429246
-38.5193 99.0031 -17.0666 -0.0789161 -0.996783 0.0139923
-38.2709 98.9694 -18.065 -0.078916 -0.996783 0.0139922
-38.026 98.8317 -19.1785 -0.0387032 -0.987786 0.149193
-37.8126 98.6326 -20.2886 -0.0534383 -0.984613 0.166378
-37.5938 98.388 -21.2934 -0.0384263 -0.959505 0.275822
-37.3288 97.9773 -22.5014 -0.0628094 -0.949028 0.308869
-37.0436 97.6109 -23.4771 -0.0369035 -0.912856 0.403741
-37.1874 97.1501 -24.4163 -0.0341389 -0.897981 0.438338
-37.3027 96.682 -25.3605 0.000542185 -0.880069 0.474213
-37.5736 95.8864 -26.7571 0.0119905 -0.841441 0.540177
-37.8851 95.3606 -27.5601 0.00953659 -0.838241 0.545217
-38.4595 94.4091 -28.7817 0.0809971 -0.785907 0.612243
-39.0878 93.5553 -29.6757 0.0979013 -0.723338 0.683518
-39.6725 92.7865 -30.457 0.0571309 -0.734374 0.67617
-40.2422 92.1659 -31.0625 0.0582615 -0.724293 0.687027
-40.922 91.5431 -31.6608 0.0581866 -0.722571 0.688844
-41.8135 90.8865 -32.2743 0.0544506 -0.723643 0.688012
-43.2705 90.6597 -32.4059 0.0522886 -0.720986 0.690952
-44.2567 90.8764 -32.0946 0.067271 -0.717009 0.69381
-44.4517 91.7748 -31.1506 0.0586598 -0.713859 0.697828
-44.5964 92.4767 -30.4202 0.0539551 -0.715752 0.696247
-44.7533 93.273 -29.5867 0.0636764 -0.684163 0.725001
-44.4551 94.3062 -28.8075 -0.000905401 -0.577726 0.816151
-44.7461 95.096 -28.1825 -0.089254 -0.676428 0.730594
-45.0499 96.4829 -27.0091 -0.174879 -0.637729 0.750146
-45.3169 97.1684 -26.3325 -0.264759 -0.7185 0.640957
-45.9997 98.154 -25.3497 -0.346579 -0.815965 0.460515
-46.6898 98.7853 -24.5841 -0.280681 -0.909063 0.307931
-47.634 99.3007 -23.8404 -0.248435 -0.922843 0.293954
-48.4532 99.7061 -23.1946 -0.228311 -0.934427 0.27335
-49.2004 100.133 -22.3602 -0.227115 -0.94173 0.246557
-49.0548 100.518 -20.5962 -0.256595 -0.94626 0.191573
-49.0374 100.53 -20.4846 -0.274679 -0.949733 0.150196
-47.5056 100.132 -20.7773 -0.193126 -0.95137 0.239997
-46.4007 99.9225 -20.7391 -0.207571 -0.953884 0.21684
-45.1702 99.6363 -20.6852 -0.230288 -0.952831 0.197689
-44.024 99.4694 -20.6514 -0.126047 -0.97831 0.164385
-42.496 99.2681 -20.6043 -0.123703 -0.983964 0.128503
-41.2353 99.0619 -20.5582 -0.204513 -0.956235 0.209258
-39.6127 98.7552 -20.4913 -0.15237 -0.969699 0.190962
-39.5242 98.7399 -20.4873 -0.175186 -0.959861 0.219038
-39.6089 98.9014 -19.6088 -0.141709 -0.981052 0.132117
-41.0807 99.1473 -19.6545 -0.212858 -0.971171 0.107322
-42.1673 99.3462 -19.689 -0.152991 -0.982594 0.105375
-43.325 99.5029 -19.7195 -0.149489 -0.979161 0.137465
-44.519 99.6806 -19.7521 -0.140943 -0.98425 0.106709
-45.5631 99.8929 -19.7869 -0.208977 -0.971774 0.109472
-47.2671 100.232 -19.8394 -0.17485 -0.978616 0.108346
-47.3711 100.249 -19.8425 -0.167005 -0.979016 0.11678
-47.2769 100.33 -18.9006 -0.167431 -0.984289 0.0560594
-46.1511 100.122 -18.8758 -0.195846 -0.975029 0.1047
-44.4127 99.7469 -18.8313 -0.214085 -0.971235 0.104257
-43.3655 99.5985 -18.8109 -0.132258 -0.98831 0.075841
-41.822 99.3381 -18.7718 -0.182856 -0.98262 0.0319656
-40.3048 99.1002 -18.7381 -0.133592 -0.987545 0.0831164
-39.9728 99.0491 -18.7302 -0.153911 -0.98286 0.101482
-40.3088 99.1589 -17.8457 -0.113171 -0.991468 0.0646867
-41.3069 99.2719 -17.8606 -0.14812 -0.987786 0.0483611
-42.3515 99.4639 -17.8788 -0.177733 -0.983628 0.0297806
-43.8265 99.7297 -17.9052 -0.155078 -0.986488 0.0528414
-44.9172 99.9261 -17.9238 -0.166177 -0.984231 -0.0606274
-46.5251 100.226 -17.9442 -0.179055 -0.983644 -0.0195946
-46.7519 100.261 -17.948 -0.151823 -0.988334 0.0120978
-46.5375 100.179 -17.0081 -0.205973 -0.977215 -0.0512441
-44.872 99.8615 -16.9994 -0.167531 -0.983899 -0.0622655
-43.8251 99.6813 -16.9922 -0.157379 -0.985357 -0.065606
-42.7465 99.521 -16.9792 -0.145847 -0.987016 -0.0672931
-41.6849 99.3632 -16.9675 -0.133933 -0.98863 -0.0683522
-40.6584 99.2163 -16.9578 -0.143071 -0.98881 -0.0422488
-40.6161 99.1721 -16.0648 -0.131706 -0.989774 -0.0547741
-41.7623 99.3116 -16.0689 -0.133933 -0.98863 -0.0683522
-42.8683 99.4772 -16.0725 -0.146692 -0.986818 -0.0683507
-44.4242 99.7248 -16.0778 -0.168882 -0.983563 -0.0639004
-45.5102 99.904 -16.0784 -0.165939 -0.982501 -0.0845879
-46.3266 100.055 -16.0755 -0.187995 -0.977225 -0.0984358
-46.187 99.9446 -15.1484 -0.173798 -0.981224 -0.0836281
-44.6686 99.6891 -15.1614 -0.158066 -0.983717 -0.0855336
-43.4766 99.4899 -15.1679 -0.126493 -0.98358 -0.128722
-41.8398 99.2598 -15.1685 -0.133933 -0.98863 -0.0683527
-40.8884 99.1411 -15.169 -0.130094 -0.986747 -0.0969882
-41.247 99.1001 -14.2712 -0.119441 -0.987084 -0.106763
-42.2827 99.2158 -14.2681 -0.130084 -0.983346 -0.126919
-43.9749 99.4318 -14.2611 -0.122905 -0.983798 -0.13052
-45.0764 99.6357 -14.2452 -0.167546 -0.972178 -0.163703
-45.9997 99.776 -14.234 -0.151028 -0.972586 -0.176826
-45.5992 99.5506 -13.3305 -0.149251 -0.973034 -0.175866
-44.4914 99.3839 -13.3483 -0.167544 -0.972179 -0.163695
-43.4992 99.2526 -13.3586 -0.1229 -0.983799 -0.130522
-41.69 99.039 -13.372 -0.111131 -0.983596 -0.142085
-41.5307 99.0212 -13.3736 -0.111127 -0.983596 -0.142088
-41.9958 98.9429 -12.475 -0.0961093 -0.983528 -0.153087
-43.179 99.0629 -12.4648 -0.126053 -0.978363 -0.164061
-44.6893 99.2374 -12.4459 -0.128526 -0.974156 -0.185746
-45.6257 99.3803 -12.4254 -0.15213 -0.969198 -0.19368
-45.3051 99.152 -11.5349 -0.142183 -0.969022 -0.201943
-44.3047 99.0341 -11.5532 -0.104832 -0.978485 -0.177698
-43.0564 98.9056 -11.5697 -0.0966463 -0.980758 -0.169628
-42.702 98.7017 -10.6835 -0.0863599 -0.977213 -0.193899
-43.7006 98.7769 -10.6735 -0.0925492 -0.973724 -0.208076
-44.711 98.8869 -10.655 -0.100229 -0.970314 -0.220102
-45.3601 98.9452 -10.6444 -0.116859 -0.965015 -0.234712
-45.1169 98.7168 -9.76081 -0.0909261 -0.969941 -0.225716
-44.0652 98.6205 -9.77952 -0.0925462 -0.973723 -0.208083
-43.119 98.549 -9.79187 -0.0789448 -0.971087 -0.225295
-43.4932 98.3734 -8.90412 -0.0629054 -0.969337 -0.237548
-44.6316 98.4388 -8.89172 -0.0968851 -0.959386 -0.264938
-44.6755 98.2014 -8.01586 -0.0718909 -0.963623 -0.257414
-43.8507 98.1635 -8.02398 -0.0445461 -0.968416 -0.245329
-46.8874 99.7861 -21.6721 -0.184677 -0.954092 0.235802
-45.6716 99.5628 -21.6233 -0.207578 -0.953882 0.216843
-44.5432 99.3802 -21.5805 -0.163066 -0.954214 0.250769
-43.3265 99.1414 -21.5159 -0.172846 -0.927294 0.332039
-41.7855 98.8892 -21.4487 -0.174098 -0.942486 0.285323
-40.2961 98.6403 -21.3839 -0.1498 -0.939746 0.307305
-39.2365 98.4919 -21.3439 -0.175186 -0.959861 0.219037
-38.9762 98.2115 -22.1875 -0.136952 -0.931432 0.337162
-40.3546 98.3705 -22.2375 -0.1498 -0.939744 0.307313
-41.4831 98.5671 -22.2984 -0.144059 -0.92244 0.358261
-42.7002 98.7464 -22.356 -0.14702 -0.932798 0.329049
-44.3993 99.0344 -22.4466 -0.198549 -0.921136 0.334793
-45.3854 99.2066 -22.4965 -0.211366 -0.906088 0.36651
-46.2447 99.3974 -22.5509 -0.189266 -0.929344 0.317016
-45.5893 98.9035 -23.3869 -0.248433 -0.898217 0.362613
-44.485 98.702 -23.3179 -0.173994 -0.912643 0.369876
-43.2446 98.4782 -23.2307 -0.194059 -0.888888 0.414994
-42.0336 98.253 -23.1435 -0.151736 -0.89897 0.410889
-40.6785 98.1125 -23.097 -0.12154 -0.894302 0.43064
-39.5522 97.9655 -23.0434 -0.153739 -0.917358 0.367178
-38.952 97.548 -23.835 -0.122394 -0.903937 0.409778
-40.5123 97.6805 -23.8879 -0.090673 -0.887829 0.451152
-41.98 97.8653 -23.9644 -0.125024 -0.876165 0.465515
-43.1513 98.0707 -24.0568 -0.192999 -0.888432 0.416461
-44.4944 98.3258 -24.1727 -0.210567 -0.884934 0.415396
-44.2474 97.8277 -24.9659 -0.185181 -0.8418 0.507032
-43.0916 97.6142 -24.8569 -0.227949 -0.838943 0.494179
-41.5129 97.3789 -24.7394 -0.115072 -0.871099 0.477436
-40.3751 97.2615 -24.685 -0.0960248 -0.882137 0.461101
-39.152 97.148 -24.6329 -0.101368 -0.876302 0.470977
-39.3009 96.7377 -25.4284 -0.0786656 -0.858769 0.506289
-40.6602 96.8091 -25.4577 -0.101879 -0.83581 0.539483
-41.68 96.9434 -25.5307 -0.147746 -0.830376 0.537258
-42.8201 97.0942 -25.6146 -0.212754 -0.836885 0.504341
-43.7259 97.2506 -25.7085 -0.197484 -0.834546 0.514328
-43.3649 96.5998 -26.3798 -0.153436 -0.762417 0.628631
-42.1826 96.476 -26.3028 -0.0978772 -0.775893 0.623226
-40.6811 96.3237 -26.2137 -0.101879 -0.83581 0.539483
-39.3997 96.2604 -26.1852 -0.0519366 -0.843932 0.533929
-39.4375 95.7828 -26.9439 -0.0239999 -0.814754 0.57931
-40.678 95.7852 -26.9328 -0.0455874 -0.782203 0.621354
-42.0441 95.896 -27.0032 -0.0964846 -0.777904 0.620932
-43.0893 95.9968 -27.0747 -0.107575 -0.703273 0.702734
-43.1582 96.0026 -27.0794 -0.107578 -0.703272 0.702734
-42.5983 95.3096 -27.6873 -0.0685446 -0.717154 0.693536
-41.5283 95.2793 -27.6736 -0.0293923 -0.729747 0.683086
-39.842 95.2237 -27.6441 0.0096036 -0.78843 0.61505
-39.7514 95.2244 -27.6455 0.0151867 -0.794191 0.607478
-40.4587 94.649 -28.3322 0.0311569 -0.744713 0.666657
-41.4937 94.6542 -28.3268 -0.0298915 -0.713864 0.699646
-42.5982 94.6834 -28.3442 -0.0241002 -0.711354 0.702421
-42.9362 94.0495 -28.9901 -0.0183079 -0.708808 0.705163
-41.7305 94.0273 -28.9765 -0.00118049 -0.730408 0.68301
-40.5923 94.0462 -29.0024 0.0275341 -0.745949 0.665433
-41.3313 93.4217 -29.6507 0.0302867 -0.73116 0.681534
-42.4576 93.3904 -29.6141 0.0442137 -0.725209 0.687108
-42.5386 93.388 -29.6115 0.015166 -0.7072 0.706851
-42.9527 92.7508 -30.2528 0.0466952 -0.717136 0.695367
-41.9469 92.7818 -30.2871 0.0458416 -0.717433 0.695117
-42.5374 92.1336 -30.9171 0.0466928 -0.717136 0.695367
