-22.7044 104.718 0.557984 0.301066 -0.916164 -0.26458
-22.2033 105.122 -0.335713 0.273469 -0.925771 -0.260858
-21.5402 105.552 -1.13259 0.272684 -0.923074 -0.271252
-20.8301 105.955 -1.89542 0.246798 -0.934206 -0.257586
-19.6664 106.567 -2.93585 0.23522 -0.931514 -0.277404
-18.8608 106.954 -3.5769 0.204044 -0.938612 -0.277617
-17.5005 107.522 -4.56161 0.176038 -0.941513 -0.287075
-16.3772 107.969 -5.39857 0.145222 -0.953235 -0.263384
-15.1102 108.37 -6.3201 0.104949 -0.964267 -0.242243
-13.769 108.707 -7.28105 0.0769686 -0.970384 -0.228977
-12.8775 108.911 -7.87463 0.0280581 -0.976187 -0.209883
-11.6612 109.047 -8.65713 -0.0409918 -0.976085 -0.211774
-10.8354 109.017 -9.28104 -0.175718 -0.978118 -0.111391
-9.95154 108.901 -9.88419 -0.290323 -0.951646 -0.100293
-8.75063 108.62 -10.761 -0.398135 -0.907221 -0.0677015
-8.00735 108.27 -11.4932 -0.482 -0.870466 -0.0998259
-7.14885 107.825 -12.0849 -0.516772 -0.852644 -0.0771006
-5.79965 106.952 -12.5849 -0.585613 -0.808469 -0.058612
-4.94943 106.344 -12.6947 -0.581374 -0.811584 -0.0575054
-3.84467 105.51 -12.7637 -0.608951 -0.792904 0.0219532
-2.93076 104.815 -12.7152 -0.571471 -0.817448 0.0721053
-2.09547 104.246 -12.549 -0.586143 -0.804985 0.0883286
-1.65675 104.059 -11.8108 -0.491035 -0.863562 0.112063
-2.75178 104.748 -11.5534 -0.572359 -0.819643 0.024302
-3.56403 105.288 -11.2075 -0.540272 -0.841469 0.00608863
-4.7212 106.07 -11.0699 -0.577136 -0.814698 -0.0563988
-6.15893 107.047 -10.7865 -0.560635 -0.823544 -0.0863963
-7.05309 107.614 -10.3933 -0.538705 -0.838093 -0.0817487
-7.973 108.12 -9.74932 -0.503494 -0.863105 -0.0392759
-8.71469 108.444 -9.12664 -0.29033 -0.951644 -0.100295
-9.55713 108.622 -8.42812 -0.287884 -0.95195 -0.104472
-10.2705 108.738 -7.71486 -0.120043 -0.975204 -0.168069
-11.0307 108.634 -6.91852 -0.0493133 -0.986646 -0.155236
-11.7594 108.539 -6.08237 -0.00789525 -0.979143 -0.194654
-12.3515 108.304 -5.19239 0.0335176 -0.97164 -0.234076
-12.9928 108.115 -4.35778 0.0957555 -0.976538 -0.187278
-13.6634 107.851 -3.5842 0.12183 -0.967574 -0.221164
-14.4536 107.505 -2.6056 0.161268 -0.95627 -0.243295
-15.4415 107.092 -1.56806 0.165301 -0.960124 -0.225472
-16.1918 106.746 -0.829414 0.194671 -0.949421 -0.246378
-16.966 106.421 -0.189133 0.206725 -0.945228 -0.252213
-18.4271 105.925 0.439982 0.217159 -0.947 -0.236711
-19.5238 105.573 0.76682 0.235733 -0.941325 -0.241518
-20.6271 105.201 1.05775 0.264536 -0.929859 -0.255701
-21.6394 104.869 1.21875 0.269394 -0.929162 -0.253087
-22.4666 104.673 0.983241 0.301062 -0.916165 -0.264583
-22.2205 104.374 2.36318 0.302377 -0.920639 -0.246964
-21.1826 104.743 2.29403 0.290003 -0.928963 -0.228487
-20.1614 105.074 2.12613 0.262349 -0.940009 -0.217935
-19.1568 105.411 1.82379 0.231304 -0.952519 -0.198007
-18.1823 105.664 1.68977 0.154419 -0.952012 -0.256831
-16.8696 106.06 1.2712 0.204567 -0.947003 -0.247665
-16.1004 106.408 0.681299 0.208803 -0.954186 -0.214314
-14.9874 106.884 -0.3539 0.204608 -0.954797 -0.215591
-14.021 107.292 -1.30169 0.193578 -0.958049 -0.211352
-13.4058 107.586 -2.06988 0.163994 -0.968093 -0.18502
-12.7613 107.796 -2.8117 0.12804 -0.967296 -0.21896
-11.7331 108.142 -4.01317 0.0634813 -0.985779 -0.155597
-10.9477 108.392 -5.22421 0.0712245 -0.988812 -0.125019
-10.1948 108.506 -6.00579 0.0366002 -0.992839 -0.113717
-9.54989 108.623 -6.82436 0.0366028 -0.992838 -0.11372
-8.39332 108.328 -7.94855 -0.205109 -0.978727 0.00495877
-7.62633 107.879 -8.57898 -0.50631 -0.861555 0.00542604
-6.83115 107.445 -9.15437 -0.530515 -0.846369 -0.018825
-6.02791 106.905 -9.60627 -0.552693 -0.832906 -0.0282315
-4.67789 105.951 -9.92846 -0.605187 -0.795464 -0.0313914
-3.70151 105.284 -10.0389 -0.525641 -0.846438 -0.0851159
-2.5181 104.674 -10.3531 -0.438166 -0.896698 0.0403256
-1.41192 104.067 -10.446 -0.459908 -0.884353 0.07702
-0.0552185 103.359 -10.4442 -0.468582 -0.877426 0.102739
1.06316 102.921 -10.5223 -0.37857 -0.869413 0.300848
2.02884 102.359 -10.6103 -0.444449 -0.820166 0.360268
2.80797 101.715 -11.0602 -0.487176 -0.841729 0.230613
2.39834 101.654 -11.9125 -0.515927 -0.802011 0.300993
1.59696 101.946 -12.5061 -0.527365 -0.800066 0.283027
0.176201 102.683 -13.1018 -0.515919 -0.826567 0.224977
-0.714571 103.247 -13.3019 -0.533519 -0.826961 0.172732
-1.80935 103.886 -13.6349 -0.600814 -0.792522 0.104552
-2.79286 104.628 -13.8013 -0.619937 -0.781072 0.0746673
-3.91008 105.582 -13.9831 -0.666398 -0.743484 -0.0318045
-4.69561 106.231 -13.9104 -0.638744 -0.767049 -0.0603416
-5.54682 106.932 -13.8525 -0.637013 -0.768524 -0.0598791
-6.38436 107.52 -13.6296 -0.589393 -0.800385 -0.109542
-7.21864 108.016 -13.2466 -0.523074 -0.844037 -0.118302
-8.54134 108.631 -12.4658 -0.43695 -0.894424 -0.0904097
-9.50069 109.006 -11.6739 -0.343297 -0.929876 -0.130401
-11.0129 109.333 -10.6245 -0.266217 -0.946753 -0.178566
-11.9018 109.398 -10.0812 -0.0165654 -0.969524 -0.244435
-12.992 109.203 -9.23438 0.010424 -0.972632 -0.230073
-13.9726 109.008 -8.60957 0.0438113 -0.966568 -0.252641
-15.2896 108.678 -7.71727 0.0903015 -0.963853 -0.249467
-16.2076 108.471 -7.19928 0.104945 -0.964267 -0.242247
-17.5159 107.944 -5.98826 0.162405 -0.948548 -0.271584
-18.7214 107.464 -5.15585 0.186485 -0.937892 -0.292543
-19.4766 107.125 -4.5796 0.214572 -0.931038 -0.294824
-20.7528 106.474 -3.53762 0.235277 -0.925245 -0.297438
-21.4807 106.095 -2.94038 0.257435 -0.92706 -0.272557
-22.4043 105.529 -1.92293 0.272379 -0.921546 -0.27664
-23.0357 105.107 -1.12392 0.272901 -0.923052 -0.271111
-23.6709 104.662 -0.302106 0.287156 -0.917633 -0.27474
-24.1438 104.25 0.590274 0.287503 -0.918371 -0.271914
-23.8032 103.949 1.97849 0.328402 -0.911091 -0.248807
-23.076 104.115 2.28184 0.302377 -0.920638 -0.246968
-1.16773 103.796 -11.609 -0.508976 -0.851888 0.123415
0.0556372 103.064 -11.9226 -0.488758 -0.852226 0.181784
0.244956 103.021 -11.6185 -0.488762 -0.852225 0.181777
-0.643967 103.503 -11.5383 -0.459354 -0.873652 0.160393
-0.771552 103.569 -11.543 -0.484165 -0.86277 0.141902
-8.59251 108.492 -9.97614 -0.400923 -0.913572 -0.068169
-8.65406 108.511 -9.97536 -0.292777 -0.951338 -0.0961144
-12.5184 108.766 -7.19403 -0.0410076 -0.976439 -0.211859
-12.7012 108.769 -7.19425 0.0280894 -0.977273 -0.210116
-12.8298 108.559 -6.31921 0.0569175 -0.972086 -0.227616
-13.8154 108.483 -6.34193 0.0802822 -0.971956 -0.221035
-13.0744 108.341 -5.44751 0.0569186 -0.972085 -0.227622
-14.1671 108.256 -5.47176 0.0944688 -0.967252 -0.235584
-15.0367 108.165 -5.49686 0.115575 -0.961822 -0.248074
-14.2934 108.016 -4.60377 0.10862 -0.962128 -0.250022
-15.7645 107.854 -4.64757 0.145291 -0.953657 -0.263494
-16.0996 107.799 -4.66257 0.167929 -0.945005 -0.28065
-17.3141 107.343 -3.85187 0.190294 -0.943988 -0.269583
-16.0698 107.556 -3.79262 0.170502 -0.951441 -0.256301
-14.9696 107.733 -3.74611 0.136486 -0.960542 -0.242344
-14.5775 107.777 -3.73447 0.115619 -0.967853 -0.223366
-15.356 107.434 -2.8893 0.157236 -0.952415 -0.261117
-16.4353 107.259 -2.93454 0.180823 -0.947758 -0.262787
-17.5341 107.053 -2.99107 0.191116 -0.943922 -0.269231
-18.5414 106.866 -3.04466 0.189465 -0.944055 -0.269932
-18.5471 106.865 -3.04499 0.204075 -0.938754 -0.277659
-19.0451 106.491 -2.20352 0.218624 -0.93317 -0.285302
-18.0139 106.714 -2.14081 0.204071 -0.938753 -0.277664
-16.9373 106.919 -2.08517 0.194677 -0.949421 -0.246376
-16.1219 107.076 -2.04408 0.194674 -0.949421 -0.246377
-17.3777 106.606 -1.22538 0.194677 -0.949421 -0.246376
-18.4444 106.379 -1.28598 0.2205 -0.940896 -0.257089
-19.5634 106.133 -1.35396 0.229686 -0.937939 -0.259836
-20.28 105.964 -1.40112 0.241961 -0.934646 -0.26056
-21.0302 105.536 -0.566657 0.259778 -0.928754 -0.264446
-20.0404 105.772 -0.50166 0.237117 -0.935054 -0.263534
-19.0589 106.003 -0.439436 0.229682 -0.937939 -0.259842
-18.8935 106.039 -0.429477 0.2205 -0.940896 -0.257089
-18.0474 106.223 -0.381785 0.218774 -0.941036 -0.25805
