-48.0677 101.982 -23.6423 -0.218474 -0.924389 0.310862
-47.8918 101.601 -24.56 -0.205738 -0.917179 0.341256
-47.1082 101.166 -25.1924 -0.243622 -0.887023 0.392222
-46.3445 100.724 -25.716 -0.245457 -0.886568 0.392103
-45.4881 100.153 -26.3229 -0.278352 -0.848064 0.450896
-44.6448 99.418 -27.1321 -0.245825 -0.795635 0.553656
-44.182 98.7505 -27.8358 -0.240955 -0.733965 0.633709
-43.4835 97.5618 -29.0233 -0.146503 -0.732489 0.661888
-43.0157 96.4819 -30.1059 -0.0739259 -0.748222 0.659034
-42.8194 95.4676 -31.2517 -0.0431797 -0.743892 0.666669
-42.7447 94.7255 -32.0556 -0.0308045 -0.735871 0.676421
-42.6156 93.7919 -33.0963 -0.0175112 -0.742601 0.669426
-41.9553 93.1661 -33.8131 -0.00829387 -0.76806 0.640307
-41.0919 94.1713 -32.6356 -0.0190764 -0.754453 0.655965
-40.5622 94.8337 -31.8388 -0.0286011 -0.758507 0.651036
-40.0819 95.4365 -31.0982 -0.0485059 -0.766363 0.640574
-39.6945 96.0247 -30.3652 -0.0479839 -0.774439 0.630697
-39.2924 96.7829 -29.3301 -0.0772231 -0.795427 0.60111
-39.057 97.3519 -28.5163 -0.105238 -0.82903 0.547892
-38.8895 98.0221 -27.4049 -0.135008 -0.839359 0.526544
-38.867 98.543 -26.5469 -0.138743 -0.86702 0.476854
-38.9265 99.1171 -25.4236 -0.154218 -0.883103 0.44311
-39.1105 99.7097 -24.3214 -0.186675 -0.900973 0.384177
-39.3933 100.134 -23.2491 -0.201346 -0.927713 0.314337
-39.7343 100.56 -22.1605 -0.164363 -0.956349 0.236822
-40.047 100.807 -21.1892 -0.173093 -0.966257 0.19075
-40.3341 101.047 -20.243 -0.186146 -0.972052 0.120708
-40.6637 101.167 -19.2216 -0.129759 -0.987829 0.0857706
-41.1184 101.269 -17.863 -0.116836 -0.991942 -0.0477802
-41.5668 101.282 -16.8634 -0.127036 -0.990916 -0.0441325
-42.2357 101.231 -15.3297 -0.13028 -0.987368 -0.0901755
-42.7884 101.154 -14.2219 -0.131137 -0.978544 -0.15892
-43.7478 101.103 -13.1161 -0.151719 -0.973987 -0.166806
-44.3933 101.35 -13.8493 -0.172298 -0.969429 -0.174704
-44.8714 101.606 -14.9068 -0.192772 -0.971811 -0.131681
-45.3445 101.889 -16.0558 -0.215848 -0.968691 -0.119561
-45.8257 102.102 -17.2152 -0.205966 -0.974261 -0.0916203
-46.2716 102.265 -18.3497 -0.202669 -0.978283 -0.0434432
-46.7334 102.332 -19.8531 -0.200264 -0.976877 0.0748682
-47.2411 102.326 -21.1894 -0.242697 -0.95945 0.143312
-47.7187 102.212 -22.45 -0.20562 -0.950559 0.232716
-48.0352 102.05 -23.3903 -0.218413 -0.941081 0.256589
-48.9829 102.457 -22.8022 -0.275802 -0.932009 0.23497
-49.2878 102.305 -23.7964 -0.2906 -0.913944 0.278289
-49.3461 101.89 -24.9841 -0.299097 -0.896352 0.327252
-48.5779 101.387 -25.6769 -0.270517 -0.89657 0.350688
-47.7292 100.919 -26.155 -0.249612 -0.889956 0.38167
-46.4981 100.223 -26.9389 -0.291537 -0.869954 0.39624
-45.5958 99.325 -27.6803 -0.356097 -0.726541 0.572353
-45.0712 98.5899 -28.4213 -0.280282 -0.728216 0.625414
-44.5816 97.502 -29.2473 -0.169021 -0.670702 0.71818
-44.1743 96.4435 -30.3111 -0.0925418 -0.743917 0.661834
-43.923 95.6549 -31.1035 -0.0438564 -0.721877 0.690323
-43.856 94.808 -32.0205 -0.026109 -0.728443 0.684446
-43.771 94.0967 -32.7734 0.00348174 -0.739651 0.672981
-43.6805 93.1279 -33.8647 0.0335341 -0.762386 0.646253
-43.3807 92.3596 -34.8334 -0.0168505 -0.789562 0.612857
-41.9403 92.0483 -35.1698 -0.0119707 -0.774028 0.633038
-40.8399 92.702 -34.3699 0.00315279 -0.755983 0.654178
-40.3721 93.3075 -33.6456 0.00997519 -0.770349 0.637544
-39.9306 93.9038 -32.8864 -0.0402974 -0.756393 0.652875
-39.2431 94.7838 -31.8729 -0.000626954 -0.758223 0.651265
-38.8277 95.3685 -31.1457 -0.00413344 -0.778189 0.628017
-38.4667 95.9898 -30.3534 -0.0200948 -0.796058 0.604514
-38.158 96.607 -29.4928 -0.0271142 -0.811337 0.583898
-37.7736 97.6762 -27.8078 -0.0367765 -0.85494 0.517421
-37.8127 98.3486 -26.7205 -0.0151508 -0.872712 0.485586
-37.7682 98.7973 -25.8115 -0.0380692 -0.890162 0.453353
-37.9205 99.5137 -24.4649 -0.0602987 -0.88405 0.463487
-38.2197 99.9665 -23.3262 -0.0741818 -0.935008 0.346632
-38.535 100.399 -22.2516 -0.0831122 -0.932707 0.350927
-38.8563 100.647 -21.3167 -0.0850436 -0.971871 0.219562
-39.1891 100.909 -20.3066 -0.0894606 -0.970876 0.222252
-39.5124 101.016 -19.2736 -0.0911615 -0.993674 0.0655862
-39.6624 101.128 -18.1632 -0.118198 -0.990398 0.0171669
-40.4552 101.105 -16.5014 -0.127098 -0.988054 -0.0871386
-40.8848 101.068 -15.4841 -0.12255 -0.985782 -0.113871
-41.4574 100.97 -14.2066 -0.109292 -0.987197 -0.114864
-42.1037 100.839 -12.9506 -0.14155 -0.973876 -0.177562
-42.8337 100.706 -11.7288 -0.12472 -0.970128 -0.208079
-43.8824 100.703 -11.0858 -0.125445 -0.969439 -0.210815
-44.5953 100.967 -11.8339 -0.140498 -0.968046 -0.20772
-45.2326 101.296 -12.7327 -0.171335 -0.957693 -0.231233
-45.6273 101.56 -13.7624 -0.178073 -0.969071 -0.170853
-46.2137 101.953 -15.218 -0.210332 -0.965556 -0.153175
-46.6285 102.194 -16.2969 -0.220718 -0.971853 -0.0823711
-47.0243 102.363 -17.2291 -0.227613 -0.969827 -0.0869264
-47.3803 102.526 -18.1855 -0.268233 -0.962487 -0.0408765
-47.8262 102.638 -19.6021 -0.25321 -0.965431 0.0612123
-48.3269 102.638 -20.9112 -0.240283 -0.960499 0.140377
-48.6736 102.597 -21.9162 -0.266647 -0.944405 0.182979
-48.9769 102.46 -22.7821 -0.269126 -0.932459 0.241021
-47.3437 101.837 -23.5293 -0.231206 -0.931603 0.280462
-46.3651 101.613 -23.4664 -0.201649 -0.936906 0.285562
-45.3218 101.438 -23.4168 -0.171908 -0.941341 0.290388
-44.3415 101.251 -23.362 -0.219142 -0.886804 0.406884
-43.2346 101.016 -23.2905 -0.217094 -0.893324 0.393501
-41.7551 100.675 -23.187 -0.276895 -0.927594 0.250795
-40.5707 100.415 -23.1035 -0.155636 -0.946441 0.282891
-40.0954 100.344 -23.0799 -0.178567 -0.937479 0.298744
-39.9338 100.02 -23.9314 -0.201348 -0.927713 0.314336
-41.0543 100.242 -24.0141 -0.229232 -0.919559 0.319162
-42.3172 100.46 -24.0907 -0.179965 -0.905075 0.385296
-43.3419 100.659 -24.161 -0.210408 -0.89233 0.399344
-44.4876 100.885 -24.2397 -0.203712 -0.891259 0.405164
-46.0858 101.249 -24.3659 -0.240917 -0.884161 0.400272
-46.4953 101.347 -24.4007 -0.224824 -0.902659 0.366961
-45.5419 100.727 -25.2043 -0.247296 -0.886108 0.391991
-44.4623 100.485 -25.108 -0.208832 -0.882091 0.422261
-43.0618 100.199 -24.9926 -0.209769 -0.873956 0.438403
-41.4912 99.9104 -24.8715 -0.191037 -0.873376 0.448018
-40.2774 99.6987 -24.7847 -0.172007 -0.874231 0.454019
-39.6765 99.602 -24.7431 -0.172005 -0.874232 0.454018
-39.7586 99.1933 -25.5612 -0.163117 -0.878723 0.448596
-40.8756 99.379 -25.6469 -0.190265 -0.873725 0.447666
-41.8935 99.5586 -25.729 -0.190651 -0.87355 0.447842
-42.8936 99.7473 -25.8178 -0.205674 -0.875325 0.437612
-43.9181 99.947 -25.9109 -0.212136 -0.872125 0.440905
-44.9822 100.155 -26.0067 -0.244544 -0.860429 0.447058
-44.1105 99.5139 -26.757 -0.245826 -0.795635 0.553656
-43.1174 99.3066 -26.6447 -0.224664 -0.809455 0.542503
-42.0299 99.0786 -26.5234 -0.19409 -0.819277 0.53955
-40.5898 98.8698 -26.4219 -0.14279 -0.839061 0.524964
-39.4871 98.7455 -26.3592 -0.138856 -0.867729 0.477248
-40.0042 98.3284 -27.1792 -0.125412 -0.850901 0.510137
-41.114 98.4552 -27.2451 -0.127551 -0.850856 0.50968
-42.1244 98.5822 -27.3112 -0.194091 -0.819277 0.53955
-43.3472 98.8219 -27.4536 -0.219337 -0.808193 0.546549
-43.2163 98.197 -28.1703 -0.195192 -0.749144 0.632996
-41.7003 98.0056 -28.0522 -0.100113 -0.796323 0.596529
-40.6593 97.8964 -27.991 -0.11863 -0.803558 0.583285
-39.6266 97.8045 -27.9407 -0.105309 -0.829634 0.548286
-39.924 97.2978 -28.7089 -0.0754542 -0.818706 0.569234
-40.9513 97.382 -28.7589 -0.100113 -0.79632 0.596533
-42.1789 97.4706 -28.8085 -0.0815383 -0.788631 0.609437
-42.5748 97.4981 -28.8259 -0.135337 -0.774748 0.617616
-41.8596 96.8702 -29.5275 -0.0864245 -0.771431 0.630416
-40.2144 96.7706 -29.4648 -0.0623547 -0.789112 0.611076
-40.5336 96.2095 -30.1965 -0.0474658 -0.782513 0.620823
-41.658 96.2685 -30.2361 -0.0708845 -0.762169 0.643486
-42.161 96.2916 -30.2521 -0.055312 -0.75253 0.656231
-41.9533 95.672 -30.9445 -0.0555442 -0.751918 0.656913
-40.8912 95.6365 -30.9203 -0.0385952 -0.762085 0.646325
-41.1795 95.04 -31.6262 -0.0286769 -0.757695 0.651978
-41.7574 95.0535 -31.6358 -0.0421143 -0.75488 0.65451
-40.3597 100.645 -22.2178 -0.155635 -0.94644 0.282893
-41.6819 100.896 -22.2894 -0.262009 -0.935425 0.237342
-42.7284 101.154 -22.3562 -0.246987 -0.942823 0.223792
-43.7038 101.373 -22.4119 -0.200994 -0.955328 0.216679
-44.9068 101.611 -22.4717 -0.19844 -0.955645 0.217633
-46.3634 101.898 -22.54 -0.185318 -0.949229 0.254208
-46.5513 101.935 -22.5494 -0.218509 -0.941469 0.256691
-46.6583 102.114 -21.6004 -0.245111 -0.958401 0.146247
-45.2382 101.89 -21.5509 -0.177392 -0.96563 0.189976
-44.0202 101.646 -21.5023 -0.200997 -0.955327 0.216681
-42.9569 101.411 -21.4558 -0.215768 -0.967617 0.131005
-41.9659 101.151 -21.3987 -0.259231 -0.952588 0.1593
-40.9357 100.935 -21.3494 -0.177446 -0.964856 0.193819
-40.6561 100.887 -21.3367 -0.173089 -0.966258 0.190752
-41.0287 101.136 -20.4529 -0.181805 -0.963424 0.196877
-42.3404 101.402 -20.5045 -0.215773 -0.967617 0.130998
-43.5983 101.618 -20.5434 -0.202627 -0.975313 0.0877915
-44.6878 101.869 -20.5798 -0.218496 -0.974215 0.0562602
-45.8735 102.105 -20.6178 -0.189223 -0.980089 0.0601611
-45.9688 102.19 -19.66 -0.200269 -0.976876 0.0748678
-44.869 101.964 -19.6354 -0.224046 -0.973532 0.0451583
-43.635 101.674 -19.6072 -0.200279 -0.979314 0.0288428
-42.5727 101.49 -19.5813 -0.166107 -0.985734 0.0271629
-41.5686 101.318 -19.5561 -0.190481 -0.98068 0.0445419
-42.2209 101.462 -18.6465 -0.16141 -0.986409 0.0307241
-43.2512 101.63 -18.662 -0.166107 -0.985734 0.0271544
-44.3049 101.849 -18.6777 -0.19922 -0.979812 -0.0167343
-45.3352 102.062 -18.6927 -0.223471 -0.974529 -0.0188089
-45.3669 102.051 -17.739 -0.213096 -0.976535 -0.0311313
-44.0843 101.76 -17.7348 -0.223488 -0.971334 -0.0810192
-42.9648 101.543 -17.7274 -0.164815 -0.984264 -0.0637258
-41.9004 101.368 -17.72 -0.162255 -0.984575 -0.0654635
-42.3173 101.375 -16.7943 -0.144675 -0.98796 -0.054811
-43.3894 101.557 -16.7958 -0.167367 -0.983944 -0.0619833
-44.5238 101.782 -16.7941 -0.216926 -0.9723 -0.0870401
-44.7848 101.839 -16.7917 -0.210343 -0.97319 -0.0930458
-44.385 101.639 -15.8562 -0.192877 -0.972337 -0.131752
-42.6961 101.343 -15.867 -0.177061 -0.978364 -0.107022
-42.6645 101.337 -15.867 -0.153719 -0.98318 -0.0986304
-43.9357 101.452 -14.925 -0.164174 -0.979434 -0.117287
