-48.1742 102.464 -24.5701 -0.287388 -0.911386 0.294591
-47.8982 102.011 -25.5858 -0.28539 -0.883799 0.370595
-46.807 101.388 -26.2722 -0.252516 -0.886953 0.385526
-45.8704 100.825 -26.8421 -0.249601 -0.839639 0.482395
-44.8714 100.085 -27.6219 -0.242956 -0.801803 0.541035
-44.2859 99.4399 -28.202 -0.241832 -0.761073 0.601901
-43.7844 98.833 -28.8326 -0.177357 -0.76159 0.621688
-43.209 97.8616 -29.7648 -0.14261 -0.751425 0.643047
-42.9073 97.1454 -30.5568 -0.108149 -0.748974 0.653713
-42.7085 96.4198 -31.3552 -0.086738 -0.762966 0.639934
-42.486 95.7521 -32.1463 -0.0641757 -0.770218 0.634543
-42.2988 95.025 -33.0035 -0.0160296 -0.782221 0.622765
-42.2566 94.3411 -33.8681 -0.0110071 -0.784519 0.620007
-41.8014 93.4153 -34.9968 -0.00321034 -0.776583 0.629954
-41.0284 94.1781 -34.057 -0.00455047 -0.787127 0.616539
-40.4994 94.9945 -32.9758 -0.0254233 -0.79062 0.611776
-39.9566 95.7727 -31.9149 -0.0491664 -0.795431 0.604046
-39.5767 96.4229 -31.0161 -0.0510571 -0.799681 0.59825
-39.2926 97.0718 -30.1247 -0.092361 -0.808534 0.581149
-38.9868 97.911 -28.9042 -0.0948403 -0.809046 0.580044
-38.8298 98.4671 -28.0366 -0.108297 -0.844288 0.524833
-38.7213 99.1504 -26.9341 -0.08267 -0.863498 0.494985
-38.8826 99.757 -25.8293 -0.167913 -0.863698 0.475217
-39.1756 100.343 -24.7481 -0.157922 -0.897865 0.410972
-39.5942 100.957 -23.3706 -0.124226 -0.941701 0.312677
-39.95 101.303 -22.4885 -0.175097 -0.939947 0.292357
-40.4183 101.57 -21.4436 -0.203075 -0.96834 0.145181
-40.8192 101.779 -20.4979 -0.179041 -0.979941 0.0822561
-41.1812 101.898 -19.5721 -0.186819 -0.980943 0.0533827
-41.7083 102.001 -18.137 -0.172984 -0.983632 -0.0504517
-42.2467 102.026 -16.8896 -0.168907 -0.981352 -0.0874709
-42.7744 102.016 -15.9999 -0.174154 -0.978042 -0.114469
-43.4791 102.046 -15.2207 -0.16965 -0.978483 -0.117432
-44.3375 102.292 -16.0372 -0.16757 -0.978988 -0.1162
-44.8844 102.511 -17.0944 -0.176307 -0.979788 -0.0905306
-45.6509 102.744 -18.3522 -0.226712 -0.972507 -0.0532108
-46.1569 102.924 -19.413 -0.233121 -0.971473 -0.0108451
-46.5653 102.928 -20.5823 -0.234521 -0.968365 0.0852643
-46.9789 102.937 -21.5958 -0.252864 -0.954735 0.143915
-47.4768 102.868 -22.5955 -0.253809 -0.942196 0.217251
-47.8957 102.733 -23.561 -0.243066 -0.928888 0.275747
-48.1693 102.495 -24.4694 -0.287388 -0.911386 0.294591
-49.2059 102.957 -24.1126 -0.321086 -0.895701 0.30761
-49.4756 102.644 -25.3073 -0.333468 -0.893384 0.300762
-49.0728 102.074 -26.3623 -0.29428 -0.879423 0.374186
-47.7639 101.382 -27.008 -0.280401 -0.881247 0.380187
-46.9095 100.938 -27.3776 -0.311528 -0.861245 0.400308
-46.1798 100.394 -27.9023 -0.349195 -0.792957 0.489282
-45.1707 99.2975 -28.7962 -0.294922 -0.772458 0.562431
-44.7287 98.5471 -29.3639 -0.203625 -0.687775 0.692337
-44.313 97.8572 -30.021 -0.136817 -0.725219 0.674787
-44.0274 97.1445 -30.7017 -0.0742563 -0.743704 0.664372
-43.6661 95.6972 -32.2557 -0.0476824 -0.747583 0.661761
-43.5381 94.9191 -33.1772 -0.0210596 -0.779933 0.625509
-43.5403 93.9708 -34.3211 0.00650476 -0.765117 0.643858
-43.5801 93.3149 -35.1005 0.00783004 -0.789492 0.612441
-42.7614 92.5237 -36.2204 -0.0436265 -0.844513 0.527553
-41.6255 92.4766 -36.1666 -0.0731729 -0.784891 0.615298
-40.428 93.3171 -35.1099 -0.00189452 -0.743033 0.669252
-39.8459 94.2496 -33.9364 -0.0135798 -0.796015 0.605125
-39.3859 94.9217 -32.9977 -0.043599 -0.800245 0.598076
-38.9374 95.4656 -32.2425 -0.0446889 -0.79864 0.600145
-38.3768 96.4643 -30.8661 -0.0454482 -0.799994 0.598284
-37.9042 97.4423 -29.444 -0.0459022 -0.826915 0.56045
-37.6809 98.2882 -28.1285 -0.0603973 -0.846714 0.52819
-37.4428 98.986 -27.0074 -0.0826772 -0.8635 0.494981
-37.7281 99.5445 -25.9645 -0.0911853 -0.88873 0.449256
-38.0538 100.22 -24.5752 -0.112125 -0.911425 0.392334
-38.1974 100.718 -23.5326 -0.142792 -0.920302 0.360014
-38.9291 101.191 -22.2397 -0.162421 -0.961545 0.221473
-39.5008 101.54 -20.8757 -0.115439 -0.977782 0.174973
-39.8853 101.714 -19.9453 -0.0831109 -0.992367 0.0911104
-40.5314 101.847 -18.2378 -0.114032 -0.993213 -0.0226312
-40.9265 101.866 -17.2201 -0.121218 -0.989873 -0.0627947
-41.3354 101.821 -16.2447 -0.133627 -0.986109 -0.0986081
-41.9046 101.802 -15.2574 -0.136089 -0.984279 -0.111603
-42.8192 101.76 -14.0462 -0.117942 -0.983896 -0.134305
-43.7842 101.812 -13.5432 -0.160664 -0.970255 -0.180811
-44.6014 102.029 -14.0283 -0.155676 -0.972626 -0.172522
-45.1742 102.359 -15.1015 -0.208511 -0.966589 -0.142302
-45.6124 102.555 -16.1238 -0.206335 -0.97352 -0.0984085
-46.3228 102.88 -17.3585 -0.245664 -0.962338 -0.116422
-47.0262 103.12 -18.331 -0.233119 -0.971474 -0.0108522
-47.544 103.198 -20.0902 -0.262375 -0.962753 0.0170174
-47.9931 103.236 -21.1966 -0.311235 -0.944511 0.105033
-48.4366 103.256 -22.1092 -0.28067 -0.938725 0.190059
-48.8905 103.103 -23.203 -0.302373 -0.921871 0.241935
-49.125 103.018 -23.8503 -0.317409 -0.907944 0.270882
-47.4519 102.243 -24.6199 -0.22922 -0.922577 0.310338
-46.462 102.043 -24.5594 -0.206669 -0.930382 0.302783
-45.3642 101.823 -24.49 -0.201028 -0.929273 0.309904
-43.9661 101.539 -24.3972 -0.208955 -0.923419 0.321924
-42.6002 101.257 -24.2948 -0.233081 -0.910068 0.34271
-41.5703 101.011 -24.2003 -0.202924 -0.904657 0.374723
-39.9613 100.773 -24.1055 -0.17152 -0.92232 0.346275
-39.7939 100.37 -24.927 -0.157921 -0.897865 0.410973
-41.1645 100.592 -25.0249 -0.166497 -0.902168 0.39796
-42.3554 100.839 -25.1296 -0.221922 -0.863273 0.453332
-43.7541 101.124 -25.2501 -0.192263 -0.870391 0.453271
-44.9948 101.339 -25.3297 -0.180457 -0.87713 0.445061
-46.1569 101.605 -25.4287 -0.228536 -0.88573 0.404046
-46.9247 101.775 -25.4897 -0.228534 -0.88573 0.404048
-45.6706 101.083 -26.2632 -0.245449 -0.878078 0.410773
-44.6619 100.849 -26.1605 -0.213098 -0.878197 0.428205
-43.5507 100.64 -26.0666 -0.204013 -0.863429 0.461378
-42.4189 100.417 -25.9629 -0.217636 -0.866877 0.448507
-41.2013 100.177 -25.8489 -0.213332 -0.870436 0.443656
-40.0854 100.019 -25.775 -0.157002 -0.8669 0.473113
-39.8226 99.9802 -25.7558 -0.165504 -0.863398 0.476606
-39.7889 99.5298 -26.5575 -0.163091 -0.863086 0.477999
-40.8462 99.6801 -26.631 -0.163706 -0.827487 0.53709
-42.2155 99.9128 -26.7509 -0.186835 -0.828193 0.528384
-43.1962 100.093 -26.844 -0.200703 -0.833529 0.51473
-44.1758 100.273 -26.9375 -0.244076 -0.842535 0.480169
-43.741 99.6747 -27.6862 -0.211242 -0.775796 0.594573
-42.5909 99.4774 -27.573 -0.1975 -0.794363 0.574439
-41.2178 99.2451 -27.4421 -0.188596 -0.826897 0.529785
-39.7964 99.043 -27.3325 -0.138702 -0.827522 0.54403
-39.4137 98.9951 -27.3077 -0.123524 -0.83607 0.534536
-39.4626 98.5171 -28.0867 -0.108296 -0.844288 0.524833
-40.6643 98.6554 -28.1655 -0.171357 -0.818619 0.548178
-41.8226 98.8113 -28.2577 -0.154007 -0.80976 0.56619
-43.1451 99.018 -28.3869 -0.180408 -0.789588 0.586518
-42.6266 98.3525 -29.062 -0.14272 -0.751993 0.643536
-41.6028 98.2321 -28.9865 -0.159663 -0.781769 0.602781
-40.0527 98.0563 -28.8759 -0.0923663 -0.808535 0.581153
-39.9304 97.5093 -29.6161 -0.0898879 -0.808022 0.582254
-41.0812 97.5979 -29.6708 -0.124866 -0.795488 0.592964
-42.1109 97.7154 -29.75 -0.110912 -0.769257 0.629239
-42.2343 97.129 -30.4642 -0.10815 -0.748976 0.653711
-41.2079 97.053 -30.413 -0.0729637 -0.777765 0.624306
-40.1925 96.9839 -30.368 -0.0805929 -0.778521 0.622423
-40.1962 96.4093 -31.0871 -0.0658399 -0.789289 0.610482
-41.4061 96.4847 -31.1388 -0.0653262 -0.776958 0.626154
-41.9625 96.5153 -31.1589 -0.065329 -0.776956 0.626156
-41.6613 95.9166 -31.8631 -0.0641726 -0.770218 0.634545
-40.7255 95.879 -31.8374 -0.037435 -0.793705 0.60715
-40.7485 101.197 -23.2928 -0.185291 -0.933411 0.307265
-42.5204 101.546 -23.4088 -0.235246 -0.934564 0.266925
-43.8572 101.828 -23.4983 -0.201027 -0.929273 0.309904
-45.3107 102.104 -23.5738 -0.193054 -0.9349 0.297812
-46.524 102.355 -23.6433 -0.208335 -0.930563 0.301079
-47.0589 102.463 -23.6746 -0.22922 -0.922577 0.310339
-46.7729 102.636 -22.7244 -0.21749 -0.957259 0.190668
-45.4804 102.432 -22.6726 -0.185981 -0.952737 0.240214
-44.3401 102.171 -22.6128 -0.254062 -0.954309 0.15731
-42.7923 101.846 -22.5285 -0.161316 -0.971496 0.1737
-41.7789 101.628 -22.4669 -0.200202 -0.941138 0.272358
-40.8188 101.473 -22.4232 -0.164904 -0.946482 0.277449
-41.0455 101.688 -21.5382 -0.203075 -0.96834 0.145181
-42.7028 101.991 -21.6099 -0.181889 -0.977376 0.107948
-44.0457 102.248 -21.6685 -0.240395 -0.960757 0.138407
-45.102 102.49 -21.714 -0.226586 -0.966642 0.119424
-46.0644 102.699 -21.7527 -0.188079 -0.970693 0.149602
-46.028 102.789 -20.8014 -0.202717 -0.976026 0.0792436
-44.9765 102.57 -20.7668 -0.228712 -0.970616 0.0748003
-43.9017 102.308 -20.7263 -0.208759 -0.97356 0.0927427
-42.179 101.998 -20.6685 -0.176579 -0.978172 0.109538
-41.703 101.916 -20.6545 -0.171264 -0.978938 0.111125
-41.9988 102.045 -19.7452 -0.171243 -0.984489 0.0381719
-43.2262 102.275 -19.7755 -0.203201 -0.979136 0.00137187
-44.3731 102.502 -19.8044 -0.228712 -0.970616 0.0748015
-45.3499 102.719 -19.8315 -0.217974 -0.973592 0.067859
-44.9199 102.602 -18.8715 -0.226712 -0.972507 -0.053208
-43.8859 102.403 -18.8507 -0.167796 -0.9854 -0.0288451
-42.8878 102.206 -18.8352 -0.179456 -0.983691 0.0121598
-42.4036 102.13 -18.8298 -0.155585 -0.987556 0.0229381
-42.766 102.175 -17.9075 -0.168329 -0.984169 -0.0554641
-43.8406 102.368 -17.9109 -0.176457 -0.983192 -0.0468609
-44.1168 102.415 -17.9132 -0.167796 -0.9854 -0.0288447
-44.3356 102.452 -17.9165 -0.167793 -0.9854 -0.0288468
