-20.8334 106.172 -0.448372 0.242464 -0.93394 -0.26202
-20.3299 106.567 -1.32019 0.24566 -0.928473 -0.278547
-19.4729 107.009 -2.08386 0.226386 -0.933027 -0.279513
-18.8405 107.388 -2.80639 0.2283 -0.930048 -0.287905
-18.2119 107.757 -3.52895 0.1954 -0.938748 -0.283832
-17.4016 108.147 -4.25136 0.196104 -0.937734 -0.286702
-16.5103 108.528 -4.9125 0.159328 -0.949089 -0.271307
-15.6445 108.822 -5.48676 0.153582 -0.953903 -0.257842
-14.7995 109.094 -6.02028 0.119698 -0.961257 -0.248011
-13.3433 109.515 -7.03207 0.103322 -0.96547 -0.238929
-12.525 109.689 -7.5889 0.038359 -0.968599 -0.245652
-11.2994 109.855 -8.39389 -0.0539786 -0.982713 -0.177091
-10.1098 109.838 -9.27328 -0.164148 -0.983687 -0.0735854
-9.24957 109.674 -10.1809 -0.379771 -0.922383 -0.0421913
-8.19164 109.367 -11.2802 -0.425918 -0.8998 -0.0633445
-7.38654 108.942 -11.7854 -0.489454 -0.869239 -0.0697
-6.5086 108.535 -12.5976 -0.518844 -0.84818 -0.0920735
-4.95737 107.534 -13.0601 -0.565774 -0.8228 -0.0477437
-3.73671 106.67 -13.3468 -0.595124 -0.803166 -0.0184113
-2.69487 105.875 -13.4302 -0.573087 -0.818428 0.000898202
-1.35 104.927 -13.1314 -0.603242 -0.793533 0.0800269
-0.338246 104.311 -12.9966 -0.552027 -0.817294 0.165219
0.565493 103.716 -12.9192 -0.515489 -0.836488 0.180605
-0.247015 104.318 -12.6553 -0.532533 -0.83325 0.14514
-1.20269 104.853 -12.9409 -0.513038 -0.849206 0.125061
-1.8892 105.367 -12.3025 -0.538004 -0.842754 0.0152517
-2.75111 105.923 -12.0556 -0.525745 -0.850366 0.0120014
-3.68488 106.575 -11.586 -0.58341 -0.81205 -0.0143807
-4.5779 107.191 -11.3875 -0.562796 -0.826008 -0.031166
-5.51784 107.806 -11.221 -0.556563 -0.830591 -0.0101861
-6.82322 108.588 -10.5095 -0.483077 -0.875083 -0.0294191
-7.77798 109.055 -9.89605 -0.379765 -0.922385 -0.0421944
-8.66964 109.443 -9.18227 -0.389871 -0.920771 0.0134842
-9.38959 109.66 -8.50453 -0.153929 -0.982365 -0.101799
-10.2557 109.647 -7.4457 -0.0929524 -0.982855 -0.149637
-10.9829 109.486 -6.44858 -0.0334337 -0.9814 -0.189041
-11.757 109.317 -5.61752 0.0977191 -0.969678 -0.223322
-12.5204 109.024 -4.61597 0.102277 -0.973015 -0.206836
-13.4712 108.624 -3.45864 0.139502 -0.964317 -0.22478
-14.5522 108.157 -2.31446 0.169504 -0.952237 -0.253163
-15.2299 107.815 -1.54705 0.20747 -0.948805 -0.238169
-15.9821 107.475 -0.85288 0.221341 -0.943992 -0.2444
-17.3733 106.941 -0.0848565 0.220442 -0.938478 -0.265685
-18.3053 106.649 0.141901 0.229269 -0.933952 -0.274095
-19.32 106.397 0.166276 0.223814 -0.93954 -0.258393
-20.5526 106.085 0.157469 0.239269 -0.939406 -0.245493
-20.3271 105.827 1.37192 0.276088 -0.938388 -0.207262
-21.344 105.549 1.33524 0.264459 -0.939497 -0.217733
-22.2587 105.456 0.673126 0.275939 -0.922047 -0.271072
-22.2397 105.79 -0.487674 0.266112 -0.927602 -0.262183
-21.7603 106.213 -1.42965 0.2585 -0.925389 -0.277096
-21.1159 106.599 -2.14447 0.25267 -0.928005 -0.273797
-20.1874 107.118 -2.98873 0.230983 -0.927824 -0.292818
-19.3951 107.587 -3.87142 0.224293 -0.929585 -0.292515
-18.5805 108.064 -4.61502 0.197982 -0.922161 -0.329814
-17.7239 108.449 -5.29435 0.158465 -0.931196 -0.328272
-16.8207 108.812 -5.96273 0.13469 -0.942951 -0.304018
-15.9864 109.104 -6.54686 0.118265 -0.945405 -0.303682
-15.0798 109.385 -7.17172 0.096838 -0.956476 -0.275187
-14.1998 109.638 -7.76445 0.0899098 -0.957105 -0.275439
-13.3058 109.878 -8.45582 0.0530474 -0.967915 -0.245174
-12.1113 110.068 -9.32791 -0.053977 -0.982712 -0.177096
-11.2071 110.19 -9.90087 -0.139992 -0.959029 -0.213377
-9.88187 110.057 -11.1439 -0.319816 -0.933559 -0.143792
-9.22952 109.877 -11.9391 -0.410115 -0.910641 -0.0503923
-8.24437 109.478 -12.7387 -0.424357 -0.892298 -0.129879
-7.39697 109.106 -13.3212 -0.47403 -0.873893 -0.107738
-6.23901 108.473 -13.918 -0.563654 -0.82247 -0.076405
-5.22722 107.794 -14.2456 -0.577652 -0.814254 -0.0570981
-4.0741 106.964 -14.4524 -0.604885 -0.795334 -0.0393028
-3.23735 106.326 -14.5118 -0.640048 -0.765582 0.00936078
-2.43165 105.622 -14.435 -0.603264 -0.793989 0.0751959
-1.59912 104.999 -14.3265 -0.635256 -0.759408 0.123339
-0.711427 104.284 -14.1947 -0.545729 -0.806297 0.228177
0.402267 103.582 -14.0111 -0.548613 -0.802838 0.233298
1.61336 102.875 -13.7173 -0.518649 -0.806964 0.28251
2.47461 102.448 -13.3536 -0.518646 -0.806966 0.28251
3.26563 102.22 -12.6722 -0.46109 -0.832721 0.305177
2.51458 103.029 -11.5824 -0.475079 -0.829508 0.292026
1.32431 103.731 -11.4018 -0.449211 -0.839842 0.304752
0.35412 104.147 -11.5316 -0.363997 -0.912158 0.187058
-1.04144 104.88 -11.1906 -0.496702 -0.86772 0.0186771
-1.93829 105.435 -11.0434 -0.525745 -0.850366 0.0120013
-2.83062 105.97 -10.8162 -0.514602 -0.857429 -0.000353853
-4.01499 106.771 -10.4186 -0.562798 -0.826007 -0.0311671
-4.98611 107.434 -10.1933 -0.569086 -0.822136 -0.0151944
-5.93574 108.084 -9.80825 -0.523481 -0.850321 -0.0147572
-6.74953 108.523 -9.32747 -0.479346 -0.877557 -0.0109948
-7.45447 109.004 -8.76763 -0.338019 -0.938387 0.0719184
-8.26363 109.35 -8.05612 -0.350526 -0.929466 0.108079
-9.20192 109.562 -6.96862 -0.0152682 -0.999799 -0.0130029
-9.82568 109.446 -6.16467 0.0140448 -0.98908 -0.146678
-10.4964 109.322 -5.37495 0.0111505 -0.989254 -0.145784
-11.1188 109.181 -4.60269 0.115939 -0.972746 -0.200805
-11.7322 108.928 -3.73457 0.117283 -0.971038 -0.20802
-12.3922 108.663 -2.91774 0.143108 -0.966012 -0.215271
-13.3414 108.28 -1.94196 0.168301 -0.958912 -0.228338
-14.0153 107.979 -1.15495 0.167242 -0.960204 -0.223694
-14.7817 107.581 -0.231566 0.209321 -0.947161 -0.243046
-15.7498 107.189 0.461909 0.215152 -0.950171 -0.224737
-16.7322 106.822 0.950445 0.233254 -0.942267 -0.240263
-17.6477 106.459 1.31072 0.230057 -0.931973 -0.280178
-18.7659 106.165 1.39546 0.208359 -0.939674 -0.271293
-19.7884 105.95 1.3561 0.117824 -0.969177 -0.113901
-19.9883 105.942 1.31678 0.157499 -0.967982 -0.0766481
-18.6042 106.832 -0.752911 0.226479 -0.93597 -0.269569
-17.5863 107.062 -0.689677 0.220448 -0.938513 -0.265701
-16.7976 107.478 -1.53825 0.212471 -0.940919 -0.263681
-17.9081 107.245 -1.60302 0.220448 -0.938513 -0.265701
-18.8911 107.027 -1.66552 0.224473 -0.936005 -0.271121
-18.3222 107.426 -2.51695 0.2283 -0.930048 -0.287905
-17.2516 107.635 -2.45595 0.194696 -0.939764 -0.280958
-15.8681 107.911 -2.37915 0.190046 -0.946907 -0.259325
-15.4544 107.989 -2.35858 0.19005 -0.946906 -0.259326
-14.7003 108.368 -3.21144 0.149829 -0.956743 -0.249387
-16.2162 108.089 -3.28683 0.177146 -0.946166 -0.270905
-17.4527 107.862 -3.35323 0.196105 -0.937733 -0.286705
-17.4951 107.854 -3.35571 0.196104 -0.937733 -0.286705
-16.456 108.316 -4.1795 0.165063 -0.944276 -0.284775
-15.1909 108.52 -4.1213 0.177154 -0.946164 -0.270906
-13.904 108.71 -4.07114 0.141593 -0.961886 -0.233939
-13.2371 109.017 -4.9375 0.11911 -0.968059 -0.220624
-14.2512 108.884 -4.9718 0.125919 -0.957914 -0.257963
-15.3625 108.74 -5.01209 0.153584 -0.953903 -0.257838
-14.0172 109.144 -5.84883 0.113491 -0.964599 -0.238051
-12.9378 109.253 -5.81944 0.0931537 -0.966341 -0.239808
-12.464 109.296 -5.80781 0.0931575 -0.96634 -0.239808
-12.7227 109.493 -6.69988 0.0745653 -0.972933 -0.218728
-11.7215 109.547 -6.68315 0.0559237 -0.978713 -0.197467
-11.6146 109.552 -6.68139 0.0112563 -0.981046 -0.193449
-11.5316 109.549 -6.68127 -0.0334337 -0.9814 -0.189041
