-48.1097 102.856 -25.7727 -0.294589 -0.897462 0.328298
-47.2873 102.12 -26.824 -0.283938 -0.864622 0.41348
-46.5063 101.61 -27.2979 -0.289684 -0.850839 0.438357
-45.5802 101.006 -27.8614 -0.289254 -0.82337 0.48516
-44.8418 100.397 -28.3533 -0.317102 -0.778281 0.541964
-44.1669 99.7158 -28.9369 -0.267425 -0.77961 0.563694
-43.4393 98.8211 -29.8488 -0.184917 -0.76691 0.614536
-43.1091 98.1676 -30.535 -0.126174 -0.756643 0.641414
-42.8167 97.448 -31.3599 -0.10251 -0.770072 0.629668
-42.6517 96.6183 -32.3654 -0.0983193 -0.779192 0.619026
-42.4968 95.9683 -33.1188 -0.0510715 -0.774578 0.629778
-42.2857 95.0776 -34.2635 -0.0346975 -0.800046 0.598808
-42.2364 94.4798 -35.0641 -0.0170043 -0.79801 0.602404
-41.3065 94.7124 -34.7099 -0.0325112 -0.807358 0.589166
-40.757 95.2003 -34.0109 -0.0346968 -0.800048 0.598805
-40.274 95.7549 -33.2046 -0.0622882 -0.809377 0.583977
-39.7222 96.7084 -31.8569 -0.0801047 -0.794173 0.602389
-39.2226 97.6591 -30.4939 -0.0798824 -0.81561 0.573056
-38.9733 98.3872 -29.3908 -0.0843235 -0.834465 0.544571
-38.8869 99.0675 -28.3655 -0.122345 -0.836997 0.53217
-38.9422 99.7893 -27.1575 -0.128162 -0.861671 0.490715
-39.2281 100.635 -25.6801 -0.118244 -0.894434 0.428513
-39.6416 101.189 -24.592 -0.225517 -0.884876 0.407599
-40.0426 101.661 -23.6657 -0.20246 -0.919544 0.336822
-40.5585 102.113 -22.3893 -0.151233 -0.965571 0.211661
-41.1042 102.425 -21.1115 -0.1443 -0.982812 0.114881
-41.5457 102.597 -20.1996 -0.129188 -0.988007 0.0602636
-42.1673 102.722 -19.0701 -0.18414 -0.982838 0.0110196
-42.7661 102.789 -18.082 -0.181947 -0.982452 -0.0356337
-43.4387 102.881 -17.2887 -0.179843 -0.980176 -0.0831389
-44.5311 103.148 -17.9334 -0.222753 -0.973144 -0.0532693
-45.3553 103.344 -19.3257 -0.230998 -0.972929 0.00705296
-45.998 103.467 -20.4757 -0.218013 -0.975673 0.0230777
-46.4521 103.524 -21.4178 -0.238569 -0.961937 0.129987
-47.2643 103.503 -22.9203 -0.282942 -0.935746 0.205663
-47.7142 103.338 -24.0277 -0.270234 -0.929408 0.251174
-48.0868 103.075 -25.1517 -0.294589 -0.897462 0.328299
-48.951 103.598 -24.5373 -0.307328 -0.890877 0.334497
-49.279 103.338 -25.5323 -0.316457 -0.890137 0.327691
-49.331 102.979 -26.4801 -0.327697 -0.860573 0.389373
-48.79 102.457 -27.2321 -0.315795 -0.860841 0.398411
-47.9164 101.922 -27.6617 -0.308208 -0.855257 0.416585
-47.1023 101.396 -28.139 -0.308895 -0.848856 0.428762
-46.2748 100.826 -28.5971 -0.393169 -0.812864 0.429732
-45.4824 100.034 -29.187 -0.353684 -0.706866 0.606432
-44.8368 99.3734 -29.6908 -0.273569 -0.737829 0.617065
-44.3095 98.015 -30.9512 -0.126174 -0.756643 0.641414
-43.8871 97.2972 -31.7374 -0.115322 -0.759255 0.640388
-43.7529 96.4961 -32.6215 -0.0826591 -0.749995 0.655832
-43.7054 95.7297 -33.5102 -0.0510698 -0.774576 0.62978
-43.3511 94.5801 -34.9627 -0.0270055 -0.792172 0.609548
-43.1453 93.7283 -36.103 -0.0383068 -0.829297 0.555475
-42.5159 93.1048 -37.048 -0.081575 -0.826222 0.555397
-41.3195 92.9971 -36.9766 -0.0844861 -0.775949 0.622687
-40.4113 93.8884 -35.8014 -0.0224622 -0.805771 0.591801
-39.8335 94.776 -34.5994 0.000393092 -0.817056 0.576558
-39.3656 95.3249 -33.6954 -0.0592848 -0.825755 0.560002
-38.7307 96.2721 -32.317 -0.067997 -0.802729 0.592403
-38.3464 96.8901 -31.4481 -0.0706158 -0.798526 0.597803
-37.98 97.6863 -30.2945 -0.0595302 -0.823894 0.563609
-37.7997 98.3072 -29.3519 -0.0583742 -0.833664 0.549178
-37.7762 99.1109 -28.0754 -0.0744494 -0.854755 0.513632
-37.8377 99.6834 -27.1213 -0.0832522 -0.871729 0.481668
-37.9661 100.182 -26.1741 -0.112332 -0.879427 0.462155
-38.2782 100.872 -24.854 -0.107365 -0.916154 0.386179
-38.8402 101.397 -23.7152 -0.116303 -0.941646 0.313188
-39.2049 101.797 -22.6928 -0.221312 -0.924453 0.310497
-39.6433 102.106 -21.7712 -0.157253 -0.971199 0.175022
-40.0783 102.321 -20.7613 -0.16328 -0.976826 0.138386
-40.5072 102.471 -19.6856 -0.120836 -0.992671 0.00170379
-41.2251 102.559 -18.4865 -0.119883 -0.992244 -0.0266984
-41.9583 102.623 -17.2375 -0.16226 -0.985999 -0.0384498
-42.5926 102.639 -16.3204 -0.18405 -0.979025 -0.0873867
-43.3659 102.732 -15.7363 -0.166916 -0.977792 -0.120991
-44.6368 103.046 -16.16 -0.232024 -0.9669 -0.101152
-45.4957 103.316 -16.9638 -0.222753 -0.973144 -0.0532693
-45.8788 103.434 -17.9427 -0.207075 -0.977629 -0.0368964
-46.2895 103.579 -18.8583 -0.30307 -0.95248 -0.0145929
-46.8615 103.734 -19.8277 -0.308738 -0.950096 0.0446931
-47.2733 103.822 -20.8111 -0.293666 -0.953028 0.0685184
-47.7431 103.869 -21.7198 -0.302641 -0.938662 0.165294
-48.4887 103.765 -23.2391 -0.286342 -0.928483 0.235063
-48.9363 103.611 -24.4902 -0.308381 -0.907507 0.279297
-46.962 102.833 -24.8941 -0.261318 -0.90138 0.345294
-45.4318 102.485 -24.7728 -0.194118 -0.896467 0.398327
-44.3659 102.272 -24.6986 -0.211988 -0.929216 0.302684
-42.7471 101.901 -24.5641 -0.243043 -0.917259 0.31554
-41.6601 101.693 -24.4895 -0.186507 -0.939719 0.286608
-40.4083 101.47 -24.4059 -0.21417 -0.902971 0.372525
-40.2183 101.053 -25.207 -0.215513 -0.883268 0.416404
-41.2139 101.246 -25.2885 -0.19903 -0.884069 0.422858
-42.2398 101.433 -25.3638 -0.192848 -0.886619 0.420377
-44.0468 101.797 -25.5101 -0.227866 -0.869196 0.438835
-45.1389 102.047 -25.6097 -0.23953 -0.869165 0.43264
-46.2904 102.289 -25.7037 -0.288022 -0.883475 0.369481
-47.2587 102.56 -25.8091 -0.283128 -0.880994 0.379063
-47.4418 102.61 -25.8287 -0.288545 -0.874002 0.390977
-45.9108 101.804 -26.5277 -0.288918 -0.851179 0.438201
-44.8392 101.555 -26.4191 -0.235202 -0.845678 0.479071
-43.7101 101.305 -26.3067 -0.236696 -0.844851 0.479794
-42.6926 101.123 -26.2267 -0.193114 -0.886639 0.420213
-41.6427 100.933 -26.1435 -0.199033 -0.884072 0.422852
-40.6205 100.733 -26.052 -0.21519 -0.839827 0.498382
-39.8536 100.135 -26.7585 -0.120438 -0.870136 0.477869
-40.9833 100.343 -26.8647 -0.21519 -0.839828 0.498379
-42.2238 100.567 -26.9737 -0.189372 -0.838383 0.511129
-43.2697 100.749 -27.0636 -0.238188 -0.844017 0.480522
-44.3134 100.978 -27.1795 -0.236699 -0.844849 0.479795
-45.3635 101.221 -27.3016 -0.288152 -0.85152 0.438044
-43.8939 100.398 -27.9255 -0.217753 -0.780939 0.585422
-42.8311 100.189 -27.8092 -0.202309 -0.7908 0.577673
-41.6978 99.9981 -27.7056 -0.192349 -0.836821 0.512574
-40.6653 99.8201 -27.6089 -0.203789 -0.838401 0.505524
-39.6912 99.6838 -27.5383 -0.128182 -0.861796 0.490791
-39.4985 99.1949 -28.2976 -0.108809 -0.820792 0.560768
-40.6252 99.31 -28.3603 -0.148304 -0.816047 0.558635
-41.8692 99.5012 -28.4696 -0.17756 -0.80004 0.57307
-43.3602 99.7407 -28.612 -0.186789 -0.800344 0.569702
-43.5123 99.7651 -28.6276 -0.202309 -0.790797 0.577677
-42.9945 99.1365 -29.3213 -0.184914 -0.76691 0.614537
-41.6279 98.9379 -29.1955 -0.168663 -0.809108 0.562936
-40.1367 98.7492 -29.0801 -0.127874 -0.822593 0.554066
-39.9566 98.7295 -29.0677 -0.118345 -0.821734 0.557447
-39.646 98.1898 -29.7975 -0.0965767 -0.827736 0.552743
-41.2383 98.3589 -29.9045 -0.124633 -0.787598 0.603453
-42.2664 98.467 -29.9758 -0.124627 -0.788423 0.602376
-42.6467 98.5061 -30.0033 -0.154853 -0.778078 0.608782
-42.3196 97.917 -30.7055 -0.113839 -0.778966 0.616647
-41.185 97.7998 -30.6232 -0.124633 -0.787598 0.603453
-40.38 97.7174 -30.5675 -0.0775968 -0.815118 0.574074
-41.0936 97.2397 -31.3388 -0.0740598 -0.791729 0.606367
-42.1817 97.3287 -31.4024 -0.10251 -0.770072 0.629668
-41.6459 96.7183 -32.0797 -0.0983191 -0.779192 0.619026
-40.5425 96.6542 -32.0346 -0.0680178 -0.789235 0.610312
-40.3985 96.6461 -32.0289 -0.0740649 -0.791726 0.606369
-40.9037 96.1206 -32.7649 -0.0651649 -0.79942 0.597229
-41.9326 96.1774 -32.8061 -0.083179 -0.784323 0.614751
-41.2761 95.6085 -33.5106 -0.0368776 -0.792736 0.608448
-41.1905 95.6059 -33.5088 -0.0495914 -0.801207 0.596328
-40.7929 101.837 -23.5757 -0.139898 -0.93758 0.318391
-42.1051 102.039 -23.6458 -0.218221 -0.928855 0.299346
-43.2034 102.309 -23.7296 -0.243038 -0.917263 0.315533
-44.6841 102.601 -23.8238 -0.187358 -0.939828 0.285694
-45.8415 102.849 -23.9028 -0.227141 -0.933814 0.276403
-46.7408 103.062 -23.9709 -0.277217 -0.925987 0.25632
-46.114 103.183 -23.0167 -0.232375 -0.931626 0.279419
-45.0481 102.939 -22.9494 -0.204663 -0.938058 0.279573
-43.899 102.685 -22.8811 -0.2417 -0.957817 0.155457
-42.9181 102.452 -22.8149 -0.231265 -0.960762 0.153146
-41.595 102.193 -22.7426 -0.145331 -0.966273 0.212593
-41.2283 102.141 -22.7259 -0.146413 -0.965953 0.213301
-41.6758 102.398 -21.8607 -0.14424 -0.966591 0.211889
-42.6707 102.539 -21.8961 -0.188014 -0.965011 0.182769
-43.6852 102.781 -21.9537 -0.22797 -0.965096 0.128915
-44.9902 103.062 -22.0226 -0.236502 -0.965882 0.105544
-45.8752 103.291 -22.0728 -0.218287 -0.964101 0.151196
-45.7175 103.36 -21.1244 -0.258849 -0.959773 0.108779
-44.0879 102.965 -21.0532 -0.214024 -0.971462 0.102251
-42.9151 102.704 -21.0025 -0.176755 -0.980302 0.0881224
-42.1988 102.608 -20.9833 -0.15105 -0.98228 0.110947
-42.2646 102.702 -20.0811 -0.128869 -0.987683 0.0887437
-43.3323 102.881 -20.1045 -0.224223 -0.970619 0.0873065
-44.4724 103.141 -20.1431 -0.200927 -0.978659 0.0430619
-44.8446 103.217 -20.1525 -0.224522 -0.974352 0.0150722
-44.6017 103.166 -19.2146 -0.231 -0.972928 0.00705667
-43.0216 102.879 -19.1837 -0.189486 -0.981734 -0.0171333
-42.9024 102.854 -19.1824 -0.181979 -0.982657 -0.0356341
