-13.7983 110.88 -4.04751 0.160515 -0.947243 -0.277206
-12.1432 111.12 -3.99149 0.12861 -0.957839 -0.256913
-11.2245 111.482 -4.97194 0.0714775 -0.968662 -0.237874
-10.6858 111.772 -5.9585 0.0372823 -0.971111 -0.231414
-10.1181 111.945 -6.77695 0.000907219 -0.978459 -0.20644
-9.82125 112.165 -7.7144 -0.0629932 -0.978182 -0.17703
-8.89002 112.089 -8.14726 -0.183087 -0.975078 -0.125306
-8.57615 112.16 -9.15699 -0.24655 -0.962695 -0.0485349
-7.44067 111.773 -9.69587 -0.31 -0.950317 0.0282469
-7.26203 111.771 -10.7164 -0.394471 -0.914814 -0.0711983
-8.14855 112.055 -10.0626 -0.380926 -0.916962 -0.118644
-8.97941 112.235 -9.23944 -0.143616 -0.975114 -0.160683
-9.91304 112.215 -8.0476 -0.124331 -0.985725 -0.113523
-10.5656 112.063 -7.29544 -0.00165507 -0.970638 -0.240538
-11.3487 111.819 -6.32462 0.0736574 -0.963763 -0.256389
-12.0279 111.591 -5.65488 0.100549 -0.9623 -0.250642
-13.3132 111.177 -4.77788 0.133121 -0.94995 -0.281967
-13.3907 111.141 -4.69975 0.151835 -0.946683 -0.284143
-14.4064 111.104 -5.12037 0.151872 -0.946635 -0.284283
-15.0497 110.739 -4.24596 0.171291 -0.941164 -0.290544
-15.4681 110.303 -3.14253 0.190618 -0.938667 -0.287161
-15.283 110.056 -2.17471 0.190441 -0.941738 -0.277241
-14.1068 110.237 -1.91452 0.204473 -0.941842 -0.266691
-13.0979 110.499 -2.20143 0.167402 -0.954987 -0.244902
-11.9574 110.837 -2.78242 0.151289 -0.959009 -0.239608
-11.0914 111.15 -3.49108 0.151234 -0.959199 -0.238885
-10.4514 111.395 -4.2218 0.111028 -0.970075 -0.215717
-9.67397 111.668 -5.22134 0.0546995 -0.984127 -0.168821
-9.02351 111.84 -6.00523 0.0552809 -0.983872 -0.170117
-8.4783 112.023 -6.9518 -0.0015079 -0.988349 -0.0222347
-7.44526 111.844 -8.03725 -0.00741292 -0.992383 0.117676
-6.74937 111.563 -8.76562 -0.330579 -0.943567 0.019967
-6.22439 111.361 -9.64076 -0.330582 -0.943566 0.0199688
-4.9091 110.554 -10.9055 -0.468721 -0.882627 0.0356443
-4.01936 109.976 -11.4599 -0.539436 -0.840972 0.0421165
-3.18799 109.422 -11.8752 -0.539661 -0.840787 0.0429291
-2.25418 108.761 -12.251 -0.566199 -0.823503 0.0338723
-1.45552 108.207 -12.589 -0.563516 -0.825764 0.0237526
-0.102366 107.284 -13.0998 -0.557561 -0.829535 0.0315777
0.825644 106.767 -13.3096 -0.483362 -0.865822 0.109568
1.97589 106.075 -13.5478 -0.422186 -0.894061 0.149714
3.01726 105.625 -13.8569 -0.295828 -0.909967 0.287069
3.94436 105.104 -14.368 -0.315556 -0.894536 0.316148
4.66734 104.579 -15.0242 -0.384376 -0.847584 0.36396
4.67736 104.237 -15.964 -0.427019 -0.859378 0.28129
3.45641 104.658 -16.4316 -0.387447 -0.878041 0.280943
2.15992 105.33 -16.257 -0.461742 -0.858882 0.220266
1.16799 105.907 -16.1731 -0.473756 -0.853752 0.216016
0.272764 106.533 -16.0887 -0.585668 -0.769455 0.254818
-0.453653 107.232 -16.0682 -0.610546 -0.789612 0.0612003
-1.65215 108.22 -15.9165 -0.618132 -0.78436 0.0163046
-2.94413 109.143 -15.6632 -0.582583 -0.812731 0.00631355
-4.09511 109.951 -15.189 -0.569629 -0.821793 0.0133749
-4.90173 110.511 -14.6178 -0.566028 -0.824368 0.00545615
-6.19292 111.285 -13.6715 -0.514097 -0.857695 -0.00794119
-7.20948 111.79 -12.7496 -0.447881 -0.893668 -0.0275597
-7.94091 112.12 -11.9542 -0.434269 -0.89954 -0.0473159
-8.95538 112.414 -10.9043 -0.272443 -0.95809 -0.0885215
-9.72332 112.569 -10.2087 -0.217587 -0.961383 -0.147515
-10.5779 112.451 -8.98847 -0.12173 -0.971177 -0.200504
-11.4359 112.24 -8.07416 0.029049 -0.973813 -0.225487
-12.4035 111.914 -7.03843 0.088515 -0.958263 -0.270915
-13.524 111.512 -6.00568 0.133119 -0.949949 -0.281973
-13.6198 111.467 -5.90844 0.151873 -0.946634 -0.284286
-6.78843 111.566 -11.478 -0.437593 -0.899157 -0.00536823
-5.59991 110.92 -11.8613 -0.496632 -0.867788 -0.0173319
-4.80326 110.46 -12.2995 -0.530502 -0.847268 0.00533515
-3.95088 109.892 -12.6829 -0.552518 -0.833481 0.00579208
-3.10551 109.32 -13.0055 -0.561889 -0.82683 0.0251256
-2.29645 108.758 -13.3632 -0.563104 -0.826003 0.0251672
-1.46192 108.16 -13.8135 -0.562961 -0.825014 0.0479509
-0.640172 107.593 -14.1442 -0.553649 -0.831335 0.0485242
0.36234 106.845 -14.4775 -0.543507 -0.830553 0.12158
-0.673122 107.552 -14.7482 -0.594616 -0.794208 0.125164
-1.96666 108.472 -14.5074 -0.572277 -0.818691 0.0473707
-2.99392 109.207 -14.2256 -0.567691 -0.822346 0.036269
-3.98157 109.891 -13.7398 -0.560672 -0.827658 0.0250839
-4.81956 110.464 -13.2184 -0.530503 -0.847268 0.005342
-5.80138 111.048 -12.5007 -0.502558 -0.864423 -0.00622383
-6.54553 111.45 -11.8675 -0.437596 -0.899156 -0.00536597
1.12711 106.325 -14.6122 -0.527855 -0.836486 0.144425
1.09901 106.305 -14.8781 -0.564586 -0.800005 0.188201
2.34422 105.541 -15.1427 -0.444503 -0.860404 0.249242
2.86507 105.276 -15.2428 -0.375416 -0.895429 0.23931
2.53663 105.426 -15.196 -0.409961 -0.877917 0.244274
