-8.87818 113.513 -7.46177 -0.0537606 -0.973356 -0.216868
-8.75622 113.536 -7.58114 -0.0744432 -0.962005 -0.262687
-9.66338 113.787 -8.23983 -0.0744432 -0.962005 -0.262687
-8.70507 113.789 -9.37462 -0.262308 -0.962473 -0.0520053
-8.13271 113.727 -10.2964 -0.262846 -0.959834 -0.098137
-7.1368 113.317 -11.9611 -0.387618 -0.921811 0.00408418
-6.40066 112.952 -13.0695 -0.429973 -0.901991 0.0391703
-5.6318 112.588 -13.8292 -0.463929 -0.884937 0.00199198
-4.31019 111.818 -15.0892 -0.494081 -0.869383 0.00753071
-3.33922 111.203 -15.8056 -0.539886 -0.841067 0.0336246
-2.39415 110.584 -16.1897 -0.556427 -0.829992 0.0322632
-1.56092 109.975 -16.6682 -0.575724 -0.81679 0.0373629
-0.632928 109.258 -17.041 -0.589978 -0.804516 0.0681307
0.465367 108.363 -17.2073 -0.614903 -0.769388 0.152488
1.65081 107.42 -17.482 -0.526833 -0.802951 0.253971
2.76596 106.778 -17.7904 -0.448725 -0.834518 0.310192
3.72044 106.243 -18.0359 -0.366697 -0.8842 0.289345
5.06739 105.698 -17.9899 -0.374802 -0.887463 0.267262
5.30817 105.915 -16.894 -0.337266 -0.897787 0.281695
4.68862 106.401 -16.0425 -0.305436 -0.91391 0.267257
3.90481 106.855 -15.4068 -0.312168 -0.912071 0.265854
2.44191 107.485 -14.654 -0.496216 -0.867434 0.0364385
1.5541 108.059 -14.427 -0.53735 -0.839154 0.0841164
0.30114 108.885 -14.0237 -0.538161 -0.840592 0.0588037
-0.622324 109.522 -13.6587 -0.548373 -0.834803 0.0489027
-1.86005 110.387 -12.8058 -0.534308 -0.844183 0.0367997
-2.72676 110.926 -12.5457 -0.523816 -0.850999 0.0376351
-3.47571 111.441 -11.9775 -0.496301 -0.857699 0.120559
-4.55328 112.111 -11.0333 -0.4874 -0.870729 0.0653609
-5.40315 112.628 -9.84491 -0.388051 -0.920905 0.0304646
-6.47643 113.245 -8.5204 -0.37181 -0.910982 0.178518
-7.66286 113.383 -6.94788 -0.0927403 -0.981326 -0.15694
-8.60568 113.183 -5.8873 0.00694624 -0.972538 -0.232641
-9.20022 113.035 -5.0924 0.0652445 -0.973336 -0.219907
-10.3284 112.777 -4.2173 0.0682207 -0.982821 -0.171274
-11.4849 112.746 -4.64034 0.103644 -0.964318 -0.243615
-11.4396 113.029 -5.83697 0.0776111 -0.961039 -0.260477
-10.7958 113.343 -6.64492 0.0435263 -0.960407 -0.270328
-9.68548 113.782 -8.2182 -0.0364423 -0.961787 -0.268625
-7.71052 113.515 -8.65424 -0.26177 -0.965113 -0.00587335
-7.24459 113.403 -9.31363 -0.274828 -0.947335 0.102781
-6.69378 113.136 -10.9382 -0.388055 -0.920903 0.0304611
-5.3618 112.521 -11.5947 -0.444741 -0.892275 0.0578433
-4.60722 112.057 -12.3297 -0.494463 -0.868276 0.0400342
-3.90209 111.633 -12.9256 -0.507603 -0.86064 0.0357528
-3.14008 111.134 -13.745 -0.517934 -0.855043 0.0254089
-2.00693 110.416 -13.99 -0.550686 -0.83332 0.0481926
-1.3006 109.919 -14.5755 -0.561906 -0.825872 0.0425674
-0.357842 109.268 -14.807 -0.552878 -0.830976 0.061676
0.727368 108.502 -15.1867 -0.530422 -0.841249 0.104658
1.76896 107.788 -15.5096 -0.504989 -0.8483 0.148258
2.87459 107.127 -16.0013 -0.460574 -0.871628 0.167208
3.89615 106.466 -16.9853 -0.35233 -0.9153 0.195165
2.55012 107.17 -16.6411 -0.466318 -0.866494 0.178144
1.41926 107.885 -16.3256 -0.555156 -0.819838 0.14024
0.463725 108.562 -16.0339 -0.555167 -0.825242 0.0993413
-0.708358 109.424 -15.8479 -0.566392 -0.820108 0.0778545
-1.67765 110.124 -15.4411 -0.57343 -0.817342 0.055945
-2.56471 110.739 -14.9628 -0.545135 -0.837734 0.0313978
-3.39742 111.273 -14.5654 -0.522729 -0.85242 0.0116411
-4.20526 111.768 -13.954 -0.495713 -0.868384 0.0123107
-4.09166 111.732 -13.1229 -0.491394 -0.870278 0.0338785
-4.9418 112.221 -12.8973 -0.492924 -0.86928 0.0369559
-5.40984 112.541 -11.6546 -0.421717 -0.906209 0.0261958
-6.73017 113.15 -10.9862 -0.400539 -0.916119 0.00865277
-7.39082 113.443 -9.50835 -0.325469 -0.940704 -0.0445156
-7.45384 113.45 -9.40862 -0.262303 -0.962475 -0.0520072
-7.65851 113.501 -8.70112 -0.261767 -0.965113 -0.00587723
