-7.14803 114.066 -9.58049 -0.343479 -0.937258 -0.017988
-5.99736 113.669 -10.7601 -0.381575 -0.916645 0.0699077
-6.67411 113.908 -10.1845 -0.381227 -0.922655 -0.0580896
-6.71111 113.92 -10.1354 -0.381223 -0.922656 -0.058091
-7.63324 114.325 -10.5094 -0.317171 -0.942083 -0.0824962
-8.22405 114.364 -9.46487 -0.250564 -0.956729 -0.14329
-8.81591 114.316 -8.39138 -0.293626 -0.941033 -0.160195
-9.42788 114.173 -7.4691 -0.0556303 -0.986341 -0.155038
-10.0559 113.943 -6.11542 -0.0341973 -0.973826 -0.224709
-9.62864 113.72 -5.21145 0.0267539 -0.979504 -0.197562
-8.61405 113.8 -5.58531 -0.0269408 -0.980863 -0.189699
-7.81434 113.878 -6.2926 -0.0931018 -0.992843 -0.0748031
-7.07871 113.88 -7.24016 -0.0787064 -0.993955 -0.0751674
-6.50767 113.77 -8.0543 -0.206563 -0.963269 0.0619874
-5.69511 113.611 -9.09692 -0.29585 -0.953513 -0.0272879
-5.06523 113.243 -10.3299 -0.457418 -0.88143 0.117687
-4.41262 112.84 -11.1293 -0.467679 -0.880444 0.0757288
-3.73331 112.446 -11.7674 -0.469196 -0.880875 0.060924
-2.96263 111.97 -12.4757 -0.486843 -0.870326 0.074274
-2.24811 111.52 -13.0697 -0.513449 -0.854371 0.0738712
-0.963623 110.651 -13.8963 -0.527244 -0.848188 0.0509051
-0.0433263 110.042 -14.3113 -0.542289 -0.837748 0.0622897
1.04739 109.296 -14.5486 -0.520319 -0.847621 0.0934063
2.32241 108.51 -15.1498 -0.500656 -0.860767 0.0866897
3.4802 107.893 -15.7257 -0.394104 -0.903384 0.169056
4.33532 107.448 -16.3031 -0.36338 -0.909818 0.195293
5.15078 106.862 -17.1928 -0.383412 -0.882247 0.273196
5.34327 106.477 -18.2034 -0.333662 -0.902217 0.273142
4.53315 106.632 -18.6385 -0.356548 -0.867718 0.346323
2.88211 107.572 -18.4179 -0.46916 -0.84666 0.243665
1.55074 108.384 -18.0845 -0.505797 -0.838052 0.204544
0.629221 109.149 -17.8189 -0.597591 -0.793428 0.113333
-0.166459 109.752 -17.6034 -0.583573 -0.805808 0.10058
-1.10477 110.498 -17.2282 -0.584396 -0.808309 0.0637878
-1.8456 111.031 -16.8146 -0.570015 -0.820775 0.0375559
-3.29729 111.999 -15.8302 -0.533578 -0.845672 -0.0115101
-4.0744 112.457 -15.0546 -0.489035 -0.872201 0.00176728
-4.86582 112.892 -14.4423 -0.477847 -0.87804 0.0266091
-5.51573 113.267 -13.7679 -0.458977 -0.887902 0.00426095
-6.40467 113.72 -12.7898 -0.440133 -0.89593 0.0593879
-7.08293 114.131 -11.4021 -0.418775 -0.906463 0.0543341
-7.17293 114.181 -11.2505 -0.400003 -0.914558 -0.00188003
-5.14435 113.123 -12.5284 -0.436175 -0.898316 0.0527196
-4.43605 112.705 -13.426 -0.459239 -0.886977 0.0486916
-3.79684 112.337 -14.0992 -0.480375 -0.875307 0.0499272
-3.0006 111.834 -14.7931 -0.501595 -0.863575 0.0513774
-2.1046 111.276 -15.4205 -0.515638 -0.855251 0.0488995
-1.3741 110.766 -15.9277 -0.551015 -0.830386 0.0827167
-0.638565 110.234 -16.37 -0.547356 -0.832699 0.0836328
0.130098 109.659 -16.6944 -0.577904 -0.80553 0.130948
1.01501 108.984 -16.9398 -0.56901 -0.810544 0.138164
2.35232 108.097 -17.269 -0.463281 -0.869122 0.159647
3.43173 107.618 -17.0487 -0.433808 -0.874407 0.21731
2.58421 108.17 -16.4018 -0.406074 -0.8953 0.183144
1.68532 108.709 -16.051 -0.52315 -0.840584 0.140475
0.850095 109.306 -15.768 -0.560112 -0.815563 0.145367
-0.186747 110.022 -15.558 -0.543696 -0.835014 0.0845357
-1.04968 110.634 -15.088 -0.540345 -0.838657 0.064576
-1.84102 111.155 -14.6224 -0.529679 -0.846926 0.0464344
-2.68474 111.693 -14.0768 -0.501553 -0.863606 0.0512701
-3.41894 112.153 -13.5034 -0.501512 -0.863636 0.0511662
-4.10878 112.566 -12.8706 -0.46022 -0.886303 0.0515277
-4.93816 113.022 -12.4796 -0.461204 -0.885628 0.0543532
-5.03934 113.084 -12.3356 -0.448689 -0.891972 0.0535343
