-12.0584 13.3703 0.200214 0.123132 -0.992389 3.53261e-06
-11.6439 13.4227 -0.380555 0.124349 -0.992237 -0.0017793
-12.0403 13.3726 0.0996883 0.123564 -0.992336 -0.00136202
-12.9741 13.2418 0.229899 0.163408 -0.986524 -0.00778064
-12.365 13.3335 1.03992 0.142271 -0.989604 -0.00433535
-11.3297 13.4628 1.05195 0.111165 -0.993706 0.00259919
-10.1938 13.5733 0.836023 0.0787137 -0.996762 0.00153746
-8.83867 13.6588 0.976978 0.0542827 -0.998446 -0.00433359
-7.89557 13.6829 1.05722 0.0187916 -0.999821 0.00214393
-6.93447 13.6764 1.08099 -0.0145187 -0.99989 0.00309507
-5.76953 13.644 1.09432 -0.0502892 -0.998721 0.00257631
-4.53939 13.5692 1.12564 -0.0807479 -0.996734 -0.000400545
-3.52043 13.4832 1.14132 -0.11104 -0.99359 -0.000927349
-2.47129 13.3477 1.08136 -0.136953 -0.990493 -0.00958142
-1.68445 13.2352 0.534281 -0.149462 -0.988707 -0.0109769
-1.81033 13.2567 -0.792584 -0.144462 -0.989507 0.00272661
-2.86666 13.3972 -1.0332 -0.114052 -0.993383 0.013491
-3.85989 13.5127 -1.05545 -0.0959143 -0.99511 -0.00302426
-5.03292 13.6061 -1.04884 -0.080517 -0.996728 0.00707781
-6.11944 13.6616 -1.05129 -0.0190324 -0.999806 -0.00506176
-7.10509 13.6725 -1.06471 0.000722391 -0.999988 -0.00476427
-8.09656 13.6759 -1.0129 0.0144522 -0.999629 0.00256144
-9.42357 13.6226 -0.944917 0.0596192 -0.998084 0.00219551
-10.8222 13.5187 -1.03689 0.0853965 -0.996247 0.000340044
-12.0988 13.367 -1.10441 0.123957 -0.992286 -0.00157091
-12.9537 13.2521 -0.59269 0.136671 -0.990604 0.00488054
-12.9781 13.2431 -0.11201 0.166738 -0.985933 -0.0103897
-13.7415 13.1155 -0.121061 0.164976 -0.986282 -0.00552202
-13.682 13.1363 -1.37473 0.179972 -0.98367 9.21381e-05
-12.8067 13.2768 -1.79297 0.132709 -0.99111 -0.00653511
-11.8088 13.4051 -1.78381 0.123754 -0.992309 -0.00291712
-10.2968 13.5561 -1.74554 0.075835 -0.99712 0.000134693
-9.08097 13.6341 -1.7623 0.0434026 -0.999049 0.00425652
-7.96923 13.6766 -1.80164 0.0130072 -0.999796 -0.000304981
-6.70568 13.6765 -1.83187 0.000219495 -0.999977 -0.00647084
-5.19391 13.6138 -1.77617 -0.0545235 -0.998408 -0.000934093
-3.93935 13.5226 -1.79172 -0.0959143 -0.99511 -0.0030243
-3.00173 13.4101 -1.77326 -0.119222 -0.992868 -0.00013936
-2.10835 13.2958 -1.74058 -0.149546 -0.988648 0.00616804
-1.22482 13.1522 -1.48756 -0.160036 -0.987064 0.00590362
-0.891099 13.103 -0.548783 -0.190983 -0.981593 -0.000253011
-0.880475 13.104 0.564281 -0.191295 -0.98152 0.00504085
-1.38951 13.1897 1.65131 -0.150114 -0.988586 0.0127547
-2.69247 13.3766 1.83783 -0.129352 -0.991598 0.00113718
-4.04254 13.5306 1.85233 -0.0864502 -0.996255 -0.00126241
-4.99187 13.6087 1.82979 -0.0617466 -0.997894 0.00785398
-6.48538 13.6775 1.84131 -0.029851 -0.99936 0.00395182
-7.61369 13.6884 1.81665 0.00880854 -0.999854 -0.00309724
-8.6493 13.6577 1.7458 0.0459781 -0.998861 -0.0127344
-10.0691 13.5844 1.63656 0.0787137 -0.996762 0.00153746
-11.2421 13.4725 1.73872 0.0962897 -0.995351 0.000316768
-12.4062 13.3251 1.83325 0.130347 -0.991454 -0.00535175
-13.4517 13.1598 1.60351 0.158556 -0.987279 0.0118741
-13.7333 13.114 0.392454 0.164976 -0.986282 -0.00552202
-14.4785 12.9804 0.346588 0.195874 -0.980584 -0.00940794
-14.3574 13.0031 1.89354 0.191604 -0.981461 0.00468808
-13.2077 13.207 2.56703 0.175287 -0.984485 0.00558448
-12.2741 13.3414 2.56453 0.133857 -0.990993 0.00382129
-11.009 13.4958 2.45128 0.0982028 -0.995155 -0.000134792
-10.0432 13.5871 2.38909 0.0792644 -0.996736 -0.000178082
-8.81534 13.6487 2.48416 0.044065 -0.998908 0.0155056
-7.81288 13.6793 2.55083 0.0206958 -0.999774 -0.00359884
-6.52347 13.6808 2.5899 -0.0263812 -0.99949 0.000427981
-5.26056 13.6256 2.56288 -0.0479087 -0.998831 0.00141626
-4.21863 13.5456 2.57469 -0.0870587 -0.9962 0.00261571
-2.62801 13.3691 2.57237 -0.129365 -0.991589 0.00406617
-1.71765 13.2502 2.47892 -0.139733 -0.990092 0.00694553
-0.513533 13.0332 2.2503 -0.184247 -0.982859 -0.00469021
-0.198229 12.9762 1.23042 -0.18835 -0.982096 -0.00329527
-0.125764 12.954 -0.0112858 -0.191138 -0.981557 0.00239455
-0.213316 12.9665 -1.19568 -0.200942 -0.979578 0.00210822
-0.57874 13.0339 -2.21634 -0.18265 -0.983089 0.0132282
-1.5712 13.21 -2.4687 -0.149545 -0.988648 0.00616686
-2.51429 13.3421 -2.5011 -0.139134 -0.990174 0.0140273
-3.57568 13.479 -2.52261 -0.107783 -0.993947 0.0127057
-4.69111 13.5756 -2.50823 -0.0695872 -0.997566 0.00440616
-6.03266 13.6541 -2.55578 -0.0345054 -0.99936 -0.000607277
-7.08188 13.6828 -2.59248 -0.0139246 -0.999785 -0.0011993
-8.05807 13.6686 -2.54814 0.0262994 -0.999625 0.00756399
-9.41619 13.6155 -2.51597 0.0457478 -0.998774 0.0161087
-10.3593 13.5518 -2.46521 0.0752813 -0.997162 -0.00100927
-11.5272 13.4423 -2.47127 0.110072 -0.993778 0.00549009
-12.5556 13.3103 -2.53132 0.128171 -0.991751 -0.00133021
-13.6311 13.1465 -2.50243 0.176988 -0.984175 0.00557316
-14.4673 12.9925 -1.87605 0.179973 -0.98367 9.29194e-05
-14.4509 12.9946 -0.653343 0.200433 -0.979698 -0.00358317
-14.4683 12.9851 0.0683332 0.195874 -0.980584 -0.00940794
-15.1822 12.8448 -0.178067 0.19782 -0.980213 -0.00535266
-15.2101 12.8341 1.07436 0.190283 -0.981729 0.000871234
-15.0986 12.8594 2.11063 0.202121 -0.979257 -0.00379902
-14.7993 12.9169 3.02597 0.203359 -0.978939 -0.00575196
-13.7271 13.1218 3.2431 0.183609 -0.982862 -0.00302085
-12.6461 13.2878 3.31493 0.140354 -0.990075 -0.00725822
-11.6699 13.4256 3.23921 0.11799 -0.99288 0.000459159
-10.5149 13.5444 3.15749 0.0982033 -0.995155 -0.000134022
-9.52338 13.6182 3.16111 0.0642453 -0.99793 -0.00299252
-8.56156 13.6647 3.23745 0.0194248 -0.999805 0.0019512
-7.4751 13.687 3.30903 0.00491915 -0.999862 0.00106572
-6.28582 13.6749 3.34511 -0.0263807 -0.99949 0.000429358
-4.94676 13.607 3.31491 -0.0522999 -0.998627 -0.00299042
-3.30953 13.4543 3.3294 -0.104312 -0.99449 -0.0104199
-2.41061 13.3437 3.29769 -0.134974 -0.990817 -0.0013927
-1.21281 13.1598 3.21762 -0.170671 -0.985308 -0.00635714
0.21114 12.8821 3.04846 -0.204718 -0.97882 -0.000895266
0.469925 12.8293 2.19164 -0.208755 -0.977862 -0.0103317
0.527424 12.8336 1.22374 -0.234939 -0.972009 -0.000301377
0.582402 12.8094 0.0139593 -0.206497 -0.978381 0.0114267
0.529483 12.8157 -0.97917 -0.208964 -0.977846 0.000777057
0.538485 12.8087 -1.90388 -0.220086 -0.975466 0.0053139
0.272983 12.8687 -3.01847 -0.224127 -0.974554 -0.00334583
-0.772861 13.0731 -3.18698 -0.170817 -0.985251 4.88572e-05
-1.68316 13.2246 -3.22914 -0.150746 -0.988457 0.00274042
-2.79915 13.3789 -3.24789 -0.132964 -0.991101 0.00195721
-4.07456 13.5177 -3.25072 -0.0909318 -0.995817 -0.00892113
-5.08558 13.6006 -3.25288 -0.0689937 -0.997614 -0.0023301
-6.20913 13.6567 -3.31606 -0.0273187 -0.999627 0.000211746
-7.46598 13.6799 -3.34906 0.0116978 -0.99973 0.0102667
-8.39372 13.6525 -3.28087 0.0443063 -0.999003 0.00151518
-9.40216 13.6038 -3.24122 0.048092 -0.998841 -0.00219469
-10.3468 13.552 -3.18561 0.0819267 -0.996554 0.000638845
-11.5002 13.4452 -3.20083 0.108676 -0.993925 -0.0024902
-12.8939 13.2676 -3.27619 0.150599 -0.988305 0.0047124
-14.4884 12.9885 -3.18331 0.171417 -0.985168 0.00486318
-15.1832 12.8432 -2.39968 0.215994 -0.976341 0.010274
-15.1967 12.8445 -1.1679 0.2011 -0.979553 -0.00586813
-15.1795 12.8455 -0.295979 0.199766 -0.979843 -0.00129741
-15.899 12.6957 -0.441676 0.234918 -0.972003 -0.00489596
-15.9568 12.6767 0.733255 0.229305 -0.97334 -0.00541743
-15.8997 12.6834 1.67012 0.232943 -0.972452 -0.00612026
-15.8003 12.6956 2.99342 0.214141 -0.976754 -0.00324493
-15.3044 12.8042 3.84162 0.195852 -0.980397 0.00341388
-14.01 13.072 3.94968 0.200625 -0.979371 0.024124
-13.0024 13.2421 4.07967 0.151066 -0.988447 0.00070158
-11.9238 13.39 4.00549 0.128245 -0.991732 -0.00448518
-10.8469 13.5107 3.90664 0.101356 -0.994847 0.00264189
-9.78335 13.6019 3.89338 0.0651193 -0.997873 0.0029856
-8.7844 13.6625 3.98029 0.0373912 -0.999173 0.000148028
-7.70454 13.6861 4.06025 0.0209295 -0.999773 0.00383651
-6.52061 13.6767 4.06823 -0.00888107 -0.99996 0.00118457
-5.48245 13.6329 4.05823 -0.0524286 -0.998621 -0.00266201
-4.34813 13.5557 4.05501 -0.102237 -0.99471 -0.000728027
-2.9773 13.4179 4.08157 -0.115866 -0.993112 0.001861
-2.0862 13.2926 4.02552 -0.141929 -0.989864 -0.00353086
-1.14176 13.1426 3.97211 -0.170671 -0.985308 -0.00635715
0.221772 12.8803 3.94489 -0.204698 -0.978816 0.00433184
1.05436 12.7052 3.63935 -0.204718 -0.97882 -0.000895802
1.23091 12.6658 2.6833 -0.231635 -0.972803 0.000354039
1.24357 12.6615 1.54672 -0.236704 -0.971577 -0.000239469
1.29638 12.6484 0.512585 -0.235761 -0.971809 -0.00186147
1.28097 12.6438 -0.4982 -0.232648 -0.972319 0.0217049
1.27588 12.6384 -1.45026 -0.238529 -0.971128 -0.00372402
1.29876 12.6321 -2.82105 -0.222106 -0.97501 0.000984037
0.509421 12.8173 -3.86655 -0.22159 -0.975131 -0.0034715
-0.597611 13.0404 -3.93981 -0.166211 -0.986075 0.00254781
-1.88343 13.2519 -3.99266 -0.163397 -0.986544 0.00386825
-2.81546 13.3763 -3.9926 -0.128958 -0.99163 0.00633488
-3.82665 13.5017 -3.99145 -0.0867117 -0.996204 -0.00474446
-4.82605 13.5844 -3.97732 -0.0757427 -0.997103 -0.00144899
-5.75702 13.637 -4.05109 -0.0495758 -0.998743 0.00733538
-6.9443 13.6643 -4.10342 -0.00372214 -0.99983 0.0180401
-8.05302 13.6622 -4.07084 0.0338186 -0.999397 0.00385752
-9.10427 13.6199 -4.00738 0.0443062 -0.999003 0.00151377
-10.0261 13.5686 -3.93152 0.0716405 -0.997394 0.00848754
-11.2973 13.4692 -3.91766 0.108676 -0.993925 -0.00249032
-12.7435 13.284 -4.00864 0.141518 -0.98977 0.012005
-14.1852 13.0416 -3.98264 0.169808 -0.985477 -0.00102763
-15.5602 12.7608 -3.78806 0.213029 -0.977035 -0.00344453
-15.9545 12.6706 -2.71449 0.219003 -0.975678 -0.0075885
-15.9423 12.6799 -1.78414 0.237038 -0.97143 0.0116554
-15.899 12.696 -0.503617 0.234918 -0.972003 -0.00489525
-16.6574 12.5124 -0.446054 0.234918 -0.972003 -0.00489481
-16.68 12.5028 -1.54314 0.238706 -0.971048 0.00853546
-16.6883 12.5015 -2.55843 0.222046 -0.974958 -0.0123831
-16.6758 12.5071 -3.66367 0.248599 -0.968344 0.00417106
-16.371 12.5713 -4.57365 0.227282 -0.973807 0.00648626
-15.4742 12.7826 -4.72796 0.216005 -0.976172 -0.0028265
-14.4837 12.978 -4.71963 0.193657 -0.981055 0.00448955
-13.2954 13.1869 -4.76042 0.154818 -0.987845 0.0138842
-12.0114 13.3715 -4.70743 0.128216 -0.991694 0.0101278
-10.9551 13.4995 -4.63055 0.0739012 -0.997258 -0.000592997
-9.68972 13.5895 -4.70036 0.0629335 -0.997972 0.002148
-8.47193 13.6446 -4.81847 0.0407558 -0.999165 -0.00277477
-7.48083 13.6667 -4.86163 -0.00403107 -0.999922 -0.0117877
-6.5615 13.6628 -4.84452 -0.0162711 -0.999739 -0.00156516
-5.40685 13.6168 -4.77571 -0.0505433 -0.998721 -0.00161549
-4.14576 13.5268 -4.74042 -0.0838159 -0.996477 0.00303957
-2.576 13.348 -4.75062 -0.137496 -0.990426 0.00307202
-1.48717 13.1868 -4.73667 -0.154424 -0.987944 0.00526548
-0.511834 13.0216 -4.69255 -0.170151 -0.985404 0.00525977
0.432256 12.8353 -4.67502 -0.201581 -0.97947 -0.00179083
1.39743 12.6184 -4.66066 -0.22159 -0.975131 -0.00347151
1.97463 12.4637 -3.77061 -0.274533 -0.961572 -0.00329113
2.02303 12.4514 -2.26924 -0.285411 -0.958343 0.010907
1.97651 12.4648 -1.06176 -0.235588 -0.971724 0.00899047
2.02254 12.468 0.494101 -0.253688 -0.967262 0.00678446
1.98274 12.4793 1.55925 -0.239291 -0.970946 -0.00173837
1.99809 12.4831 2.66629 -0.235228 -0.971909 0.00503182
1.95064 12.4803 3.88661 -0.245349 -0.969326 -0.0145541
1.36733 12.6375 4.66706 -0.23352 -0.972114 0.00431058
0.0644423 12.9095 4.69788 -0.19293 -0.981135 -0.0123081
-1.06304 13.1198 4.70269 -0.172558 -0.984915 -0.012891
-2.36749 13.3332 4.79161 -0.137421 -0.990488 -0.00272619
-3.31633 13.4589 4.84166 -0.115866 -0.993112 0.00186103
-4.4106 13.5631 4.82332 -0.0846472 -0.996394 -0.00574214
-5.59534 13.6384 4.78561 -0.049527 -0.998766 0.00363945
-6.5096 13.6774 4.79405 -0.0102832 -0.999938 0.00346838
-7.41675 13.688 4.79284 0.00206832 -0.999891 0.000852536
-8.46258 13.6716 4.75789 0.0187167 -0.999815 -0.000658729
-9.48971 13.6233 4.6524 0.0591463 -0.998228 0.000274172
-10.5817 13.5336 4.63613 0.0868998 -0.996191 -0.00716448
-11.958 13.3822 4.75411 0.129944 -0.991464 -0.00934005
-13.2391 13.1987 4.79939 0.161113 -0.986909 -0.00731842
-14.3557 13.0176 4.63125 0.158945 -0.987271 -0.00451301
-15.3956 12.7932 4.66261 0.211336 -0.977401 0.00484973
-16.3394 12.5723 4.57586 0.237027 -0.971442 0.0108636
-16.5598 12.5224 3.7199 0.246287 -0.968958 0.00315975
-16.5992 12.5141 2.67351 0.250898 -0.967717 -0.0122987
-16.6683 12.5006 1.67869 0.231161 -0.972843 -0.0118572
-16.6871 12.5032 0.561303 0.23413 -0.972205 3.40375e-05
-16.6576 12.5103 -0.0453244 0.234523 -0.972104 -0.00243085
-17.4285 12.3247 -0.0754627 0.267135 -0.96277 -0.0163371
-17.4713 12.2759 0.954048 0.295014 -0.955193 -0.0143853
-17.4223 12.2924 1.9389 0.288893 -0.957359 -0.00139226
-17.4044 12.2845 2.92575 0.26707 -0.963373 -0.0242127
-17.3683 12.3082 4.46531 0.265464 -0.964058 0.010965
-16.8878 12.4441 5.41589 0.24957 -0.968279 0.00172391
-15.6514 12.7437 5.45494 0.221868 -0.975008 0.00382508
-14.3145 13.0229 5.38082 0.174913 -0.984407 -0.00284265
-13.2176 13.1967 5.53303 0.158946 -0.987271 -0.00451436
-12.2456 13.3358 5.51337 0.139856 -0.990143 0.00762052
-10.996 13.4966 5.39755 0.0994702 -0.994931 -0.00352349
-9.85764 13.5965 5.38261 0.0814074 -0.996656 0.00103844
-8.88304 13.6556 5.48196 0.0479621 -0.998832 -0.00132669
-7.8004 13.6829 5.53188 0.0132764 -0.999896 0.00563826
-6.81728 13.6835 5.53454 -0.0133318 -0.99991 0.001804
-5.75202 13.6482 5.52595 -0.0470773 -0.998891 0.000364059
-4.3754 13.5557 5.58591 -0.0823172 -0.996564 0.00269114
-3.37733 13.4661 5.5912 -0.123467 -0.9923 0.00186618
-2.226 13.3131 5.51749 -0.143633 -0.989535 0.00217119
-1.17737 13.1347 5.44001 -0.170302 -0.985357 0.00824997
-0.266688 12.9724 5.43528 -0.184276 -0.982861 0.0042487
0.982699 12.7228 5.4815 -0.214605 -0.976699 0.00203245
2.06398 12.46 5.45296 -0.257533 -0.966198 0.0104762
2.64412 12.3011 4.47846 -0.254295 -0.967097 0.00734446
2.7003 12.2881 3.57139 -0.279153 -0.960243 0.00280534
2.72077 12.2853 2.32082 -0.278466 -0.960385 -0.0108121
2.72276 12.2891 1.13644 -0.253668 -0.967265 0.00713538
2.73082 12.277 -0.291633 -0.268025 -0.963125 0.0156646
2.71361 12.2627 -1.39445 -0.274335 -0.961551 0.00775799
2.7442 12.2333 -2.60205 -0.271441 -0.962257 0.0192394
2.70635 12.2562 -4.30436 -0.280323 -0.959458 -0.0222171
2.26817 12.3898 -5.29362 -0.271707 -0.962335 -0.00927035
1.38989 12.6183 -5.47329 -0.224369 -0.974491 0.00503824
0.484685 12.8259 -5.41868 -0.210893 -0.977461 -0.00181832
-0.516147 13.0211 -5.4329 -0.170661 -0.985328 -0.00183488
-1.5475 13.195 -5.50509 -0.153231 -0.98814 -0.000914032
-2.7629 13.3724 -5.51289 -0.138474 -0.990337 -0.000576326
-3.78106 13.4831 -5.48946 -0.0975568 -0.995195 -0.00834112
-4.93191 13.5852 -5.50232 -0.0706113 -0.99747 0.00819935
-6.24633 13.6474 -5.5808 -0.02851 -0.999556 0.00865803
-7.18579 13.6741 -5.61677 -0.017897 -0.999717 0.00225535
-8.59772 13.6416 -5.57399 0.0320921 -0.999436 0.00167003
-9.58811 13.5896 -5.46204 0.0551236 -0.998454 0.00712759
-10.7677 13.5128 -5.35973 0.077059 -0.997025 0.00164575
-11.8727 13.3921 -5.45011 0.137693 -0.990465 -0.00434579
-12.8648 13.2511 -5.48541 0.146864 -0.989144 -0.00285257
-13.7555 13.1163 -5.48988 0.186821 -0.98238 0.00529323
-14.8942 12.896 -5.47235 0.193007 -0.981196 0.00161808
-15.9406 12.6765 -5.50522 0.235277 -0.971891 -0.00855605
-16.8419 12.4559 -5.43 0.253807 -0.967196 -0.00186502
-17.3242 12.3228 -4.67304 0.270417 -0.962729 0.00533405
-17.4101 12.3015 -3.45618 0.269867 -0.962898 0.000378946
-17.4145 12.3022 -2.39719 0.274434 -0.961575 0.00776518
-17.4301 12.3114 -1.14395 0.277935 -0.960479 0.0152371
-17.4257 12.3255 -0.214822 0.237647 -0.971334 0.000260662
-17.4258 12.3253 -0.175738 0.234523 -0.972104 -0.00243085
-18.1719 12.0864 -0.048116 0.30768 -0.951391 -0.0137535
-18.2034 12.054 0.911278 0.289885 -0.957053 0.00393562
-18.1517 12.0706 2.4048 0.289252 -0.957249 -0.00285677
-18.0995 12.0938 3.78924 0.271646 -0.962177 0.0205862
-18.1613 12.0944 5.12957 0.266632 -0.963782 0.00566182
-17.6202 12.2455 6.15787 0.261181 -0.965289 -0.00127526
-16.7539 12.4798 6.25038 0.261181 -0.965289 -0.00127521
-15.3407 12.8172 6.19988 0.213408 -0.97671 -0.00442848
-14.2653 13.0293 6.18543 0.174913 -0.984407 -0.00284353
-13.3606 13.1751 6.32227 0.155238 -0.987864 0.00115606
-12.0921 13.3635 6.28983 0.125644 -0.991925 -0.00187041
-11.1368 13.4719 6.17375 0.111432 -0.993707 -0.0113615
-10.243 13.5658 6.10459 0.081408 -0.996656 0.00103757
-9.19398 13.6397 6.20219 0.0479605 -0.998832 -0.0013263
-8.20532 13.6817 6.26732 0.0279859 -0.999489 0.00101617
-7.06196 13.6834 6.27155 -0.00300827 -0.999984 -0.0047999
-5.94225 13.6575 6.27731 -0.049051 -0.998784 -0.00294915
-4.65993 13.5865 6.32942 -0.0633246 -0.997982 -0.00467855
-3.68358 13.4989 6.33362 -0.115656 -0.993282 -0.00378103
-2.55623 13.3627 6.2977 -0.143633 -0.989536 0.00217147
-1.45576 13.1892 6.20811 -0.163145 -0.986556 0.00254053
-0.565106 13.0294 6.17035 -0.182231 -0.983253 0.0023072
0.448044 12.8417 6.2156 -0.18116 -0.983407 0.00775397
1.77603 12.5502 6.25886 -0.237247 -0.971107 0.00864154
2.84839 12.2564 6.1811 -0.276258 -0.961015 0.00683912
3.38555 12.0929 5.54562 -0.283738 -0.958886 0.00547855
3.44586 12.0679 4.54609 -0.291425 -0.956533 0.0107506
3.43739 12.0709 3.57633 -0.293086 -0.956076 -0.00440038
3.44766 12.0694 2.23033 -0.29011 -0.956991 0.00181036
3.44906 12.0718 1.20064 -0.293565 -0.95588 -0.0106173
3.48572 12.0615 0.294653 -0.310652 -0.950476 0.00897654
3.43605 12.0523 -0.946864 -0.280631 -0.959652 0.0119201
3.44755 12.0446 -2.11728 -0.27144 -0.962258 0.0192404
3.44736 12.022 -3.11295 -0.282238 -0.959161 0.0075392
3.4516 12.0453 -4.2465 -0.269305 -0.96232 -0.0376075
3.37194 12.0771 -5.42289 -0.288934 -0.957182 0.0178844
2.59563 12.3039 -6.20349 -0.275718 -0.961035 -0.00286763
1.7014 12.5424 -6.2939 -0.241513 -0.970228 0.0040116
0.636908 12.7924 -6.23958 -0.214215 -0.976641 0.000619663
-0.404542 13.0031 -6.1754 -0.184114 -0.982805 0.000974988
-1.3656 13.1626 -6.24665 -0.162067 -0.986774 0.00337824
-2.63809 13.3526 -6.2724 -0.132554 -0.991167 0.00405252
-3.83339 13.4946 -6.24838 -0.0910935 -0.995799 -0.00209658
-5.02281 13.5877 -6.28676 -0.0694213 -0.997579 0.0041188
-5.94116 13.6406 -6.32172 -0.0306338 -0.999509 -0.00663958
-7.44401 13.667 -6.36626 -0.00516035 -0.999925 0.0111503
-8.74788 13.6368 -6.32809 0.0292488 -0.999572 1.02893e-05
-10.2384 13.5511 -6.12347 0.079684 -0.996668 0.00437718
-11.2204 13.4727 -6.18026 0.0958495 -0.995025 0.0168531
-12.3431 13.327 -6.2603 0.141696 -0.989907 -0.000377141
-13.327 13.1837 -6.22892 0.144469 -0.989509 0.0009292
-14.714 12.9302 -6.19978 0.189914 -0.981788 0.00345566
-15.8834 12.6964 -6.27592 0.220341 -0.975098 -0.00200078
-16.7559 12.4767 -6.23916 0.244023 -0.969769 0.000914683
-17.8092 12.1942 -5.98575 0.265211 -0.964159 -0.00714758
-18.0682 12.1122 -4.95819 0.268624 -0.963212 -0.00215863
-18.1002 12.1067 -3.72024 0.280141 -0.959956 0.00246821
-18.1426 12.0952 -2.26168 0.277578 -0.960686 0.00419235
-18.1603 12.0977 -1.29606 0.276301 -0.960996 0.0112447
-18.1892 12.0886 -0.579507 0.307679 -0.951391 -0.0137546
-18.9487 11.8435 -0.385993 0.29666 -0.954807 -0.0183589
-18.8818 11.8468 0.515634 0.295014 -0.955193 -0.014386
-18.875 11.8588 1.70733 0.281948 -0.959389 0.00883022
-18.8476 11.878 2.77384 0.263632 -0.964623 0.00031452
-18.8384 11.8899 4.15217 0.276942 -0.960641 0.0217461
-18.9019 11.866 5.07828 0.304621 -0.952468 0.00313804
-18.7681 11.9105 6.45917 0.301488 -0.953395 -0.00842635
-17.9469 12.1552 7.10773 0.278893 -0.960085 -0.00853086
-16.454 12.5559 6.96765 0.257227 -0.966337 -0.00516432
-15.119 12.85 6.92118 0.194932 -0.980698 -0.0152719
-14.1872 13.0419 6.99296 0.213781 -0.976866 -0.00550733
-13.2013 13.1985 7.08584 0.150906 -0.988547 -0.00119854
-12.2096 13.3487 7.04419 0.131506 -0.991141 0.000290001
-11.2433 13.4586 6.92967 0.113487 -0.993531 0.00421169
-10.2059 13.5693 6.85042 0.0873036 -0.996081 -0.00173959
-8.9335 13.6538 6.97568 0.0504507 -0.998652 0.00285621
-7.48321 13.6821 7.00505 -0.00641906 -0.999955 0.0028529
-6.4706 13.6791 7.01176 -0.0264645 -0.999357 -0.00509393
-4.96549 13.602 7.16261 -0.0571745 -0.99833 -0.00547097
-3.77988 13.5079 7.07977 -0.10501 -0.994114 -0.0183171
-2.78064 13.392 7.02106 -0.133092 -0.990913 -0.00624358
-1.31391 13.1644 6.99055 -0.155984 -0.987755 -0.00293851
-0.0554377 12.9436 6.93688 -0.180088 -0.983562 0.0132011
0.879341 12.7486 6.9817 -0.210289 -0.977627 -0.000454931
2.37678 12.3919 7.02224 -0.257903 -0.966008 -0.00750411
3.49965 12.0699 6.98029 -0.284951 -0.958504 0.00854272
4.16846 11.8632 6.28242 -0.298554 -0.954361 0.0066467
4.13428 11.8645 5.37554 -0.295131 -0.955419 0.00828531
4.29612 11.8048 4.18285 -0.292256 -0.956304 0.00317507
4.15267 11.8489 2.68784 -0.302158 -0.953253 0.000982482
4.17937 11.8424 1.68637 -0.306956 -0.951707 0.00140327
4.21516 11.8245 0.659421 -0.311744 -0.950148 0.00592648
4.18925 11.8234 -0.420638 -0.30956 -0.950804 0.0120266
4.12578 11.8407 -1.72459 -0.304192 -0.952611 -0.000230555
4.13756 11.8322 -2.63981 -0.284457 -0.958472 0.0203682
4.17932 11.8102 -3.93255 -0.29361 -0.955648 -0.0178162
4.28363 11.8014 -4.85981 -0.303095 -0.952705 -0.00381419
4.10563 11.8498 -6.13297 -0.278772 -0.960327 -0.00761671
3.50966 12.0481 -6.87816 -0.2789 -0.959769 -0.032518
2.36248 12.3653 -7.00683 -0.257239 -0.966347 0.000821815
1.35102 12.6261 -7.03722 -0.239535 -0.970812 0.00333806
0.29216 12.8586 -6.99466 -0.198202 -0.980151 0.00451241
-0.745117 13.0639 -6.93488 -0.184557 -0.982433 0.0058632
-2.46388 13.3267 -7.01966 -0.136063 -0.990669 0.00630241
-3.56236 13.4719 -7.00201 -0.103422 -0.994341 -0.000242448
-4.4792 13.546 -7.06884 -0.0823549 -0.996585 -0.0012005
-5.43414 13.6046 -7.07965 -0.060226 -0.998154 0.00779928
-6.7336 13.6581 -7.09913 -0.00593855 -0.999948 -0.00823999
-7.97331 13.662 -7.07601 0.0149102 -0.999737 -0.00432019
-9.28591 13.6078 -7.08376 0.061489 -0.998088 0.00574979
-10.1895 13.551 -7.03639 0.0796838 -0.996668 0.00437725
-11.3762 13.4353 -7.01293 0.116193 -0.992963 0.0228832
-12.348 13.3256 -7.0206 0.127158 -0.991684 0.00703735
-13.8511 13.0988 -6.9345 0.152739 -0.988239 0.00732471
-15.2944 12.8162 -6.95842 0.196987 -0.980397 -0.00388541
-16.1904 12.6198 -7.04087 0.244795 -0.969574 -0.00104484
-17.3356 12.3301 -6.979 0.253403 -0.967302 -0.00480721
-18.5987 11.9737 -6.69068 0.282081 -0.959366 -0.00571935
-18.7758 11.9094 -5.48758 0.284389 -0.958656 -0.0100835
-18.7701 11.9091 -4.56748 0.280225 -0.959932 0.00221884
-18.8643 11.8853 -3.16393 0.280056 -0.95998 0.00271679
-18.8647 11.8892 -2.01365 0.276813 -0.96089 0.00804609
-18.8808 11.8785 -1.10991 0.29666 -0.954807 -0.0183593
-9.92377 13.589 -0.0150792 0.0721439 -0.997381 0.00515219
-9.06298 13.645 0.236582 0.0634633 -0.997982 -0.00202284
-7.8803 13.6817 0.349993 0.0231523 -0.99965 0.00950658
-6.70834 13.6715 0.378929 -0.0137876 -0.999904 0.00142083
-5.59953 13.6357 0.342982 -0.0634331 -0.997861 -0.0157875
-5.17272 13.608 0.381689 -0.0578277 -0.998237 -0.00451057
-3.96391 13.5174 0.432431 -0.093272 -0.995587 0.0103843
-2.999 13.4257 0.312107 -0.11104 -0.99359 -0.000927375
-2.72803 13.3922 -0.22658 -0.129257 -0.991445 0.00810931
-4.13486 13.5331 -0.29417 -0.0943941 -0.995501 -0.00826802
-5.05212 13.6103 -0.369566 -0.0810697 -0.996706 0.00206784
-5.98374 13.6582 -0.243216 -0.0176116 -0.999841 0.00279747
-6.96574 13.674 -0.333365 -0.0106025 -0.999916 0.00547399
-7.78158 13.683 -0.0236716 0.0144522 -0.999629 0.00256262
-8.8447 13.6453 -0.233983 0.0319163 -0.999405 0.00623216
-9.74404 13.6022 0.018232 0.0678029 -0.997682 0.00156559
-9.81442 13.5971 0.026294 0.0721434 -0.997381 0.00515277
