22.549 74.8925 -0.229592 0.084869 -0.996382 -0.00327584
23.3162 74.9251 0.401612 0.0389193 -0.999237 0.00338781
24.5023 74.9442 0.32619 -0.0139835 -0.999901 -0.000932355
25.3938 74.9288 0.315543 -0.0501183 -0.998599 -0.00721141
26.3107 74.8692 0.496971 -0.0613737 -0.997959 -0.0176424
27.2384 74.8016 0.518642 -0.0836072 -0.996492 -0.00323319
28.1051 74.7142 0.377569 -0.141776 -0.989812 0.0131301
29.1602 74.5642 0.464752 -0.146853 -0.989101 0.00723203
30.2789 74.3636 0.27442 -0.180797 -0.983307 -0.0204753
31.3672 74.1449 0.466783 -0.209281 -0.977829 -0.00686206
32.45 73.9153 0.0862256 -0.237012 -0.9711 -0.00408056
31.71 74.0753 -0.226239 -0.208173 -0.97808 -0.0048102
30.8463 74.2605 -0.500905 -0.208217 -0.978071 -0.00481954
29.8051 74.4671 -0.514916 -0.166809 -0.985778 -0.0117586
29.1848 74.5613 0.0677315 -0.143149 -0.989633 -0.00568795
28.3723 74.6739 -0.304407 -0.133476 -0.991017 -0.00835769
27.372 74.7926 -0.287611 -0.0823261 -0.996604 -0.000927597
26.205 74.8887 -0.23881 -0.0717742 -0.997287 -0.0100344
25.1831 74.9343 -0.503962 -0.0265062 -0.99957 0.00179137
24.264 74.9426 -0.41771 -0.00252996 -0.999927 0.011808
23.2418 74.9182 -0.351216 0.0375828 -0.999266 0.00740007
22.5614 74.8936 -0.234022 0.0604914 -0.997808 -0.000981721
22.426 74.8861 -1.05601 0.0340999 -0.999412 0.00346799
21.7244 74.8238 -0.176827 0.0828754 -0.996559 -0.00112628
21.8787 74.8379 0.824564 0.0790327 -0.99684 0.00798119
23.1542 74.914 1.10196 0.0257707 -0.999585 -0.00326321
24.2615 74.9458 1.10623 0.00749201 -0.999685 -0.00879869
25.3836 74.9212 1.11229 -0.0259133 -0.999568 -0.0138476
26.4068 74.8627 1.17757 -0.0693758 -0.997574 0.00493088
27.5188 74.7756 1.191 -0.0878306 -0.996131 0.00288152
28.6062 74.6503 1.14446 -0.151935 -0.98839 0.00133026
29.5934 74.4883 1.14462 -0.184924 -0.982749 0.00264932
30.6076 74.2974 1.12048 -0.186504 -0.982451 0.00123824
31.7129 74.0658 1.1728 -0.216788 -0.976207 0.00474796
32.6255 73.8681 1.11588 -0.237005 -0.971102 -0.00407389
33.2346 73.7012 0.493217 -0.264073 -0.964501 0.00141585
33.1426 73.7237 -0.801924 -0.263874 -0.964552 0.00286317
32.3203 73.9468 -1.10645 -0.23675 -0.971185 0.000972978
31.3715 74.151 -1.13569 -0.210526 -0.977566 -0.00543073
30.4107 74.3552 -1.18926 -0.207026 -0.978331 0.00302816
29.4385 74.5259 -1.16668 -0.152825 -0.988249 -0.00303411
28.4174 74.6745 -1.0947 -0.132234 -0.991191 -0.00723419
26.9701 74.8254 -1.05041 -0.0824775 -0.996593 0.000570881
25.9399 74.9058 -1.13229 -0.0365284 -0.999332 -0.00140536
24.5183 74.9336 -1.16011 -0.00047855 -0.999984 0.00569249
23.5687 74.9249 -1.10397 0.0358404 -0.999339 0.00543633
23.1422 74.9104 -1.09163 0.0341035 -0.999412 0.00347198
23.2536 74.917 -1.82424 0.0408974 -0.999047 -0.0152707
24.2274 74.9297 -1.86561 -0.00617766 -0.999955 0.00142025
25.7285 74.9129 -1.89391 -0.0213517 -0.999729 0.00924807
27.078 74.8209 -1.86898 -0.0905845 -0.995853 -0.00846035
28.2311 74.7038 -1.8714 -0.132275 -0.991201 -0.00428962
29.3701 74.5365 -1.87164 -0.161191 -0.98686 -0.0111697
30.3106 74.3743 -1.8775 -0.202806 -0.9792 -0.00109576
31.2082 74.1923 -1.85433 -0.198585 -0.98007 -0.00520828
32.6483 73.8646 -1.84902 -0.246329 -0.969052 -0.00195914
33.5695 73.6071 -1.56721 -0.277213 -0.960781 -0.00726378
33.9074 73.5028 -0.757793 -0.277929 -0.960567 -0.00820533
33.9517 73.4918 0.149864 -0.283618 -0.958929 0.0038588
33.9026 73.5157 1.13696 -0.273056 -0.961952 0.00366267
33.1899 73.7099 1.76716 -0.267459 -0.96353 -0.00874061
32.0072 74.004 1.89519 -0.222514 -0.974826 -0.00645507
30.778 74.2646 1.88658 -0.188081 -0.982154 -0.000169741
29.6629 74.4773 1.91038 -0.174238 -0.98464 -0.000193897
28.7279 74.6325 1.84326 -0.157748 -0.987459 -0.000850215
27.6403 74.7656 1.8991 -0.110141 -0.993701 -0.0206642
26.4931 74.8581 1.88988 -0.0706279 -0.9975 0.00220676
25.0537 74.9314 1.83759 -0.0268296 -0.999535 0.0145156
24.1017 74.942 1.82899 0.0107198 -0.999844 0.00177716
23.1051 74.9198 1.88189 0.0227437 -0.999702 0.00884551
21.5982 74.8242 1.89496 0.0726636 -0.997308 0.000474781
21.0906 74.7622 0.905509 0.117579 -0.99304 0.00683236
21.0065 74.7564 -0.0436033 0.105964 -0.99432 -0.0067189
21.0583 74.7631 -1.02368 0.104737 -0.994476 0.00324128
21.4901 74.8058 -1.73364 0.0913816 -0.995815 0.0014581
22.5265 74.8869 -1.80452 0.0374915 -0.99923 -0.00590209
23.0056 74.9068 -1.82138 0.0408919 -0.999047 -0.0152695
22.9029 74.9138 -2.55247 0.0505622 -0.998614 -0.00614799
21.799 74.8385 -2.54588 0.0957551 -0.995352 -0.0102947
20.8016 74.7416 -2.44963 0.0935599 -0.995584 -0.00442095
20.3331 74.6785 -1.68965 0.112291 -0.993612 -0.0024243
20.269 74.6698 -0.549412 0.155623 -0.987805 -0.00127633
20.3219 74.6702 0.762329 0.114338 -0.993389 -0.00257251
20.4032 74.681 1.71678 0.124961 -0.992157 -0.00286107
21.0231 74.7577 2.5635 0.126143 -0.992012 -6.58461e-05
22.4437 74.8762 2.64174 0.0624308 -0.998049 0.000383736
23.6643 74.9386 2.57212 0.0107248 -0.999844 0.00177059
24.7704 74.9373 2.54682 -0.00777375 -0.999942 -0.00294367
25.6857 74.9242 2.58382 -0.0228651 -0.999474 -0.0153463
26.6901 74.8472 2.59713 -0.0794113 -0.996818 -0.00685431
27.9608 74.7237 2.58915 -0.107464 -0.994199 0.00439822
28.9913 74.5891 2.58096 -0.163232 -0.986582 0.00325612
29.926 74.4314 2.66029 -0.179814 -0.983644 0.00367903
30.9182 74.2404 2.63063 -0.190558 -0.981657 0.00551739
31.9961 73.9958 2.62554 -0.235208 -0.971922 0.00676985
32.9243 73.7759 2.61385 -0.247849 -0.968487 -0.0131994
34.3809 73.3716 2.27263 -0.270404 -0.962678 -0.0115612
34.5931 73.2978 1.23851 -0.319062 -0.94765 0.00833229
34.6326 73.2847 -0.23019 -0.322041 -0.946724 -0.00139432
34.5863 73.303 -1.14079 -0.321229 -0.946998 -0.00266027
34.3702 73.3731 -2.18918 -0.300061 -0.953767 0.0134409
33.2366 73.7109 -2.59801 -0.283603 -0.958858 0.00307738
32.3026 73.9432 -2.56683 -0.232619 -0.972552 0.00558106
30.8202 74.2751 -2.57699 -0.198944 -0.979988 -0.00670053
29.7065 74.4898 -2.60314 -0.1682 -0.985696 -0.00561354
28.6234 74.6528 -2.60916 -0.133542 -0.99104 -0.00246387
27.1977 74.8095 -2.64168 -0.0988653 -0.994981 0.0154435
25.5997 74.9087 -2.64991 -0.0213517 -0.999729 0.00924807
24.1912 74.9322 -2.59519 -0.0118614 -0.999926 -0.00284612
23.5392 74.9398 -2.55325 0.0145134 -0.999486 -0.00905301
23.5083 74.9437 -3.27885 0.0130817 -0.999695 0.00214025
22.544 74.8899 -3.31111 0.0602258 -0.99818 0.00296708
21.3905 74.8069 -3.29183 0.108582 -0.993948 0.000228588
20.4079 74.685 -3.18515 0.145382 -0.989369 0.00363556
19.601 74.5706 -2.62164 0.162326 -0.986454 -0.00314761
19.5636 74.5568 -1.40765 0.17763 -0.984019 0.0123958
19.5789 74.5633 0.134347 0.158862 -0.987293 0.0013133
19.5968 74.5621 1.18048 0.162086 -0.986698 -0.0115355
19.6044 74.5504 2.10366 0.154122 -0.988048 -0.0026509
19.7473 74.5715 3.03584 0.156349 -0.987699 0.00221826
20.6712 74.7066 3.32642 0.131809 -0.991247 -0.00741737
21.6223 74.8247 3.32985 0.066796 -0.997745 -0.00400903
22.6347 74.8879 3.35863 0.0623414 -0.998054 -0.00118799
23.9673 74.935 3.30606 -0.0013138 -0.999995 -0.00287831
25.0215 74.9323 3.29233 -0.0277845 -0.999368 -0.00041311
26.1947 74.8867 3.29568 -0.0576854 -0.997761 -0.013821
27.3404 74.7904 3.32944 -0.0816499 -0.996645 -0.00216765
28.545 74.6505 3.30794 -0.120997 -0.99262 -0.00811957
29.5193 74.5019 3.35847 -0.170804 -0.985305 1.89995e-05
30.7618 74.2739 3.39392 -0.19229 -0.981331 0.00370542
32.002 73.9996 3.3687 -0.237553 -0.971359 0.0024001
33.4604 73.6289 3.33487 -0.263987 -0.964437 0.00317449
34.5646 73.314 3.19025 -0.293121 -0.955761 0.000143496
35.2396 73.0929 2.64519 -0.321206 -0.946931 -0.0121569
35.2683 73.0789 1.54153 -0.3152 -0.948874 0.0169276
35.2795 73.0638 0.340098 -0.322042 -0.946723 -0.0013906
35.2998 73.0598 -0.738774 -0.321192 -0.947011 -0.00258731
35.1812 73.1046 -2.02492 -0.320468 -0.947251 -0.00401368
34.9068 73.1882 -3.01339 -0.306133 -0.951978 0.00449983
34.0239 73.4706 -3.36116 -0.296334 -0.95504 -0.00925756
32.7274 73.8462 -3.30719 -0.249764 -0.968117 0.00215049
31.8077 74.0674 -3.28229 -0.222827 -0.974773 -0.0025049
30.9039 74.2631 -3.30221 -0.20529 -0.978666 -0.00196423
29.8436 74.4655 -3.32032 -0.175222 -0.984529 -6.17866e-05
28.7705 74.6282 -3.32374 -0.121473 -0.992594 -0.00119078
27.3775 74.7851 -3.36422 -0.104727 -0.994501 0.000701461
26.1881 74.8772 -3.38488 -0.0324296 -0.999195 0.00520975
25.0753 74.9248 -3.3574 -0.0431436 -0.998953 -0.0151928
24.1386 74.9397 -3.31127 -0.00857747 -0.999865 -0.0139789
23.8156 74.9422 -3.29136 -0.00699403 -0.999911 -0.0107411
23.8227 74.9447 -4.03774 0.0315687 -0.999432 0.0117765
24.7306 74.943 -4.06509 -0.0196465 -0.999673 0.000573194
26.1925 74.8826 -4.12117 -0.0444068 -0.99901 -0.00255286
27.1173 74.8199 -4.10091 -0.0891349 -0.995849 -0.000571027
28.6006 74.65 -4.03681 -0.126082 -0.992011 -0.00426819
29.8093 74.4675 -4.03525 -0.171306 -0.985193 0.00696501
31.3551 74.1633 -4.0215 -0.213046 -0.977029 -0.00504652
32.3262 73.9482 -3.98524 -0.249764 -0.968117 0.00215034
33.8664 73.5225 -4.10446 -0.265115 -0.964168 0.00271691
34.7475 73.239 -4.07989 -0.31243 -0.949923 0.0058172
35.6588 72.9338 -3.55835 -0.343241 -0.93923 0.00570003
35.8394 72.8719 -2.34639 -0.348497 -0.937309 0.00153186
35.9648 72.8267 -1.30177 -0.351258 -0.93627 -0.00110208
35.9786 72.8165 0.0415273 -0.35415 -0.935182 -0.00345075
35.9302 72.8296 1.1154 -0.363583 -0.931524 0.000111957
35.9711 72.8177 2.01969 -0.370138 -0.928966 0.00455799
35.9429 72.8429 3.54014 -0.345623 -0.937953 -0.00172186
35.1818 73.1008 3.94565 -0.31869 -0.947798 -0.00872283
34.1912 73.4266 4.04678 -0.315147 -0.949004 -0.0065421
32.6666 73.8338 4.10301 -0.247587 -0.968824 -0.00387725
31.4096 74.1435 4.11762 -0.219181 -0.975433 -0.0077931
30.4934 74.3263 4.13782 -0.190869 -0.981615 -0.00058462
29.5956 74.4887 4.09666 -0.170822 -0.985302 -8.64617e-06
28.3745 74.6678 4.0583 -0.122788 -0.992432 -0.00161509
27.1323 74.8074 4.06031 -0.0912253 -0.995795 -0.00516215
25.9041 74.8932 4.04204 -0.0490546 -0.99878 0.00573924
24.3311 74.9317 4.06822 -0.0065079 -0.999957 -0.00656746
23.4252 74.9274 4.06837 0.0508483 -0.998661 -0.00953298
22.1058 74.854 4.09665 0.0667943 -0.997745 -0.0040191
21.1069 74.7634 4.07519 0.134033 -0.990975 -0.00192399
20.0515 74.6206 4.10684 0.147571 -0.988955 -0.00160569
19.1261 74.4704 3.89681 0.171239 -0.985162 -0.00236056
18.8948 74.4307 2.99476 0.177687 -0.984057 -0.0076246
18.857 74.4335 1.73617 0.18179 -0.983313 -0.00282946
18.8619 74.4422 0.800462 0.164897 -0.986281 -0.00766797
18.8364 74.4415 -0.15076 0.162095 -0.986775 -0.00066556
18.8318 74.4284 -1.18679 0.168661 -0.985547 0.0158625
18.8305 74.4235 -2.32896 0.186857 -0.982287 -0.0127312
18.8585 74.4383 -3.27681 0.190735 -0.981614 -0.00638832
19.6651 74.5702 -3.91159 0.152024 -0.988319 0.0106613
20.9253 74.7461 -4.01867 0.12902 -0.991565 -0.0123376
22.0945 74.863 -4.06723 0.0618531 -0.998085 -0.000845971
22.9932 74.9183 -4.05706 0.0465088 -0.998771 0.00526422
23.142 74.9231 -4.0501 0.0315734 -0.999432 0.0117746
23.5035 74.9265 -4.77714 0.0298347 -0.999465 -0.0133738
22.3801 74.8811 -4.81444 0.0613779 -0.998108 0.0021662
21.4358 74.8222 -4.79799 0.0956434 -0.994813 -0.00638228
20.3184 74.6694 -4.70451 0.139341 -0.990243 -0.00164156
18.9954 74.4592 -4.65053 0.154606 -0.987944 0.00487011
18.1926 74.3114 -4.14812 0.197258 -0.98035 0.00167263
18.0923 74.2873 -2.8775 0.177559 -0.984103 -0.00376344
18.111 74.2977 -1.635 0.169676 -0.985357 0.016777
18.1212 74.3135 -0.572056 0.198395 -0.97969 -0.000991656
18.1198 74.3112 0.456195 0.202289 -0.979117 -0.00047223
18.1015 74.2918 1.42279 0.189649 -0.981721 -0.0160364
18.0992 74.2915 2.41429 0.1818 -0.983311 -0.00283229
18.1573 74.2938 3.4666 0.177705 -0.984054 -0.00767205
18.4181 74.3395 4.63581 0.181788 -0.983337 0.00147366
19.5449 74.5367 4.88655 0.162751 -0.986663 -0.00270608
20.6959 74.7063 4.8324 0.134025 -0.990976 -0.00192134
21.8864 74.8344 4.79893 0.072721 -0.99735 -0.00196528
22.8692 74.8944 4.82347 0.0471658 -0.998882 0.00323824
24.5464 74.9254 4.81429 -0.0065079 -0.999957 -0.00656746
25.4479 74.9198 4.7696 -0.0277747 -0.999369 -0.000416008
26.4947 74.8608 4.72841 -0.0712813 -0.997352 -0.00195992
27.8628 74.7299 4.81971 -0.109858 -0.993844 -0.00499279
28.8875 74.599 4.81571 -0.127703 -0.991791 -0.00647792
29.9447 74.4253 4.87185 -0.161539 -0.986842 -0.0054606
30.8581 74.247 4.87834 -0.19922 -0.979891 -0.011201
31.9744 74.0011 4.84781 -0.240002 -0.970757 -0.00530103
32.9217 73.766 4.85183 -0.240861 -0.97054 -0.00621232
34.1733 73.4247 4.80197 -0.27493 -0.961375 -0.0130862
35.2629 73.0679 4.7213 -0.315244 -0.949008 0.000177435
36.1414 72.7584 4.64178 -0.339383 -0.940604 0.0091225
36.6757 72.5586 3.89864 -0.36654 -0.930324 0.012098
36.6983 72.537 2.85206 -0.367641 -0.929917 0.00974289
36.6541 72.5493 1.90048 -0.361928 -0.932139 -0.00880048
36.6477 72.5565 0.878913 -0.357032 -0.934082 -0.00433337
36.6987 72.5449 -0.266423 -0.355501 -0.93466 -0.00508405
36.677 72.5551 -1.21918 -0.371737 -0.928338 -0.000623935
36.4661 72.6344 -2.78029 -0.370935 -0.928634 0.006804
36.4023 72.6634 -3.91691 -0.355349 -0.9345 -0.0166721
35.9998 72.8181 -4.5953 -0.342269 -0.939545 -0.00926025
35.1482 73.1035 -4.81139 -0.309735 -0.950814 0.00415272
34.2319 73.4013 -4.85481 -0.301168 -0.953479 0.0132258
32.9821 73.77 -4.78086 -0.260786 -0.965372 -0.00120591
31.7129 74.0857 -4.75053 -0.220325 -0.975399 0.00738972
30.7012 74.3099 -4.78405 -0.191478 -0.98124 -0.000338443
29.3219 74.5479 -4.74026 -0.171139 -0.98523 -0.00118713
28.4224 74.6759 -4.76545 -0.126088 -0.992002 -0.00587461
26.9024 74.8281 -4.83824 -0.0730151 -0.997301 -0.00773495
25.9795 74.8939 -4.84844 -0.0391467 -0.999199 0.00304627
24.3475 74.9502 -4.74067 -0.0196541 -0.999673 0.000562202
23.5252 74.9271 -4.77547 0.02983 -0.999466 -0.0133723
23.3528 74.9319 -5.51696 0.0419095 -0.998996 -0.0038799
21.9615 74.8522 -5.56562 0.0604996 -0.998157 0.00477702
20.9294 74.7578 -5.48813 0.139832 -0.990159 -0.0057443
19.5645 74.5485 -5.41178 0.158874 -0.987288 0.0046684
18.6151 74.3888 -5.4254 0.194676 -0.980813 0.0103814
17.49 74.1656 -5.02226 0.198635 -0.980049 0.00687725
17.3781 74.1477 -4.08381 0.204573 -0.978745 -0.00783048
17.3691 74.1414 -2.89391 0.221437 -0.975059 0.0150013
17.3907 74.152 -1.91658 0.226247 -0.974069 -0.00142286
17.3973 74.1491 -0.815139 0.226579 -0.973948 -0.008887
17.3823 74.1431 0.0887693 0.21493 -0.976513 0.0150925
17.3747 74.1569 1.08718 0.202289 -0.979117 -0.000471715
17.3284 74.1422 2.04365 0.222311 -0.974893 -0.012727
17.4032 74.1448 3.05995 0.22238 -0.97481 -0.0171273
17.4061 74.1548 4.48435 0.194269 -0.980271 0.0226384
17.8658 74.2379 5.38866 0.179459 -0.98376 0.000892161
18.8097 74.4138 5.64585 0.16931 -0.985392 0.00795911
20.048 74.6169 5.60012 0.146788 -0.989036 -0.00425675
21.2692 74.7805 5.52263 0.132884 -0.991121 -0.0046603
22.5635 74.8823 5.54905 0.0599471 -0.998116 0.000626295
23.8565 74.9316 5.5417 0.0317399 -0.999456 -0.00896811
24.8174 74.9268 5.54132 -0.0186743 -0.999804 -0.0065654
26.0728 74.8849 5.46792 -0.0582054 -0.998304 0.00147689
27.09 74.8041 5.47395 -0.0950503 -0.995465 0.00382352
28.3362 74.6654 5.54634 -0.128191 -0.991733 -0.00573538
29.4573 74.5024 5.55249 -0.159013 -0.987275 -0.00198069
30.6653 74.2788 5.59889 -0.199622 -0.979822 -0.0100521
31.8325 74.0334 5.58821 -0.231811 -0.972648 -0.00801616
33.1564 73.7036 5.60756 -0.255293 -0.966675 -0.0095587
34.1165 73.4304 5.5733 -0.274901 -0.96138 -0.0133437
35.1182 73.117 5.50205 -0.313718 -0.949515 0.00160506
36.2175 72.7391 5.49069 -0.349507 -0.936844 0.00243389
37.31 72.2901 4.8203 -0.40083 -0.915713 -0.0109168
37.4117 72.2612 3.51069 -0.37139 -0.928415 0.0107276
37.3833 72.2667 2.57138 -0.366201 -0.930519 0.00192764
37.316 72.2957 1.37525 -0.366836 -0.930191 -0.01326
37.3592 72.282 0.269775 -0.378273 -0.925645 0.00953193
37.378 72.2714 -0.653178 -0.378607 -0.925522 -0.00810536
37.3442 72.2883 -1.67612 -0.372531 -0.928014 0.00179948
37.1901 72.3461 -2.59011 -0.373321 -0.927693 0.00422164
37.1361 72.3708 -3.71097 -0.364205 -0.930986 -0.024905
37.2615 72.3502 -4.83824 -0.366233 -0.929931 -0.0225303
36.4247 72.666 -5.40768 -0.348104 -0.937444 -0.0047773
35.5037 72.9863 -5.53428 -0.30912 -0.951023 0.000391979
34.4286 73.3352 -5.58945 -0.305242 -0.952267 -0.0010988
32.9452 73.7765 -5.51724 -0.259241 -0.965772 0.00776026
31.5688 74.1125 -5.51515 -0.225049 -0.974292 -0.00165471
30.5033 74.3464 -5.50887 -0.178384 -0.98393 -0.00308759
29.5558 74.5118 -5.45648 -0.172381 -0.985007 -0.00674316
28.2687 74.6998 -5.50543 -0.118973 -0.992858 -0.000733553
26.6313 74.8536 -5.57474 -0.0730193 -0.997301 -0.00773862
24.9231 74.9371 -5.49691 -0.0273585 -0.999561 -0.00447665
23.8716 74.9468 -5.4786 0.02983 -0.999466 -0.0133723
23.8768 74.9559 -6.19227 -0.0146769 -0.999873 0.00328803
22.5081 74.8817 -6.30763 0.057247 -0.998341 0.00519447
21.4539 74.7958 -6.27554 0.0856868 -0.995974 0.0263426
19.9813 74.6144 -6.14688 0.160991 -0.986955 0.00121273
19.0711 74.4658 -6.18487 0.160674 -0.987002 -0.00153301
18.1781 74.2989 -6.21841 0.189318 -0.981864 -0.0101265
17.2183 74.0965 -6.06591 0.21819 -0.975741 -0.0179729
16.7052 73.9823 -4.8814 0.241903 -0.970057 0.0217199
16.6402 73.9772 -3.89312 0.240703 -0.970591 -0.00382027
16.6684 73.9817 -2.54226 0.22942 -0.973322 0.00343629
16.6846 73.9876 -1.6269 0.227175 -0.973842 -0.0039615
16.655 73.9721 -0.496101 0.227733 -0.973517 0.00865025
16.6252 73.9858 0.679759 0.214511 -0.976604 0.0151674
16.5882 73.9711 1.79337 0.239669 -0.970846 -0.00407368
16.6443 73.9773 2.72976 0.222425 -0.974834 -0.0148476
16.7437 73.983 3.70365 0.222378 -0.97481 -0.0171143
16.6467 74.0192 5.12762 0.194269 -0.980271 0.0226382
17.2194 74.1097 6.17959 0.188064 -0.981983 -0.0184533
18.1996 74.3054 6.33093 0.192996 -0.981197 0.00225319
19.4476 74.5167 6.36774 0.153231 -0.988175 0.00546417
20.4484 74.668 6.30199 0.131441 -0.99132 -0.00281888
21.5858 74.7999 6.23654 0.0807378 -0.9967 -0.00822163
22.587 74.8811 6.25211 0.0750151 -0.997114 -0.00957236
24.0806 74.9341 6.26435 0.0179605 -0.999727 -0.00151442
24.9997 74.9197 6.26799 -0.0193742 -0.999793 0.00625433
26.5392 74.8444 6.17607 -0.0771547 -0.996943 -0.0123581
27.5523 74.7628 6.21464 -0.11162 -0.993599 -0.000950366
28.587 74.6297 6.31269 -0.127055 -0.99189 -0.00342097
29.7652 74.4516 6.27949 -0.161051 -0.986942 -0.0021789
31.0113 74.2087 6.33306 -0.208651 -0.977837 -0.00792687
32.3331 73.908 6.31918 -0.231808 -0.972649 -0.00800889
33.6098 73.5621 6.38986 -0.268872 -0.963002 -0.0182816
34.5849 73.2851 6.2941 -0.279795 -0.959945 -0.0148158
35.7266 72.9173 6.29217 -0.326514 -0.94501 -0.00805537
36.6508 72.5687 6.27736 -0.359799 -0.933026 -0.00270951
37.8119 72.0813 6.03223 -0.411627 -0.91128 0.0114523
38.0246 71.9734 5.13914 -0.400838 -0.91571 -0.0109161
38.0889 71.9944 3.8734 -0.381531 -0.923924 -0.0122167
38.044 72.0031 2.80633 -0.36968 -0.929143 0.00325524
38.0094 72.0182 1.73023 -0.391103 -0.920028 0.0053405
38.0242 71.9966 0.766525 -0.406674 -0.913457 0.000172441
38.0689 71.9859 -0.327852 -0.378445 -0.925582 0.000715791
38.0427 71.9991 -1.47049 -0.408203 -0.912856 -0.00244866
37.9632 72.0316 -2.38828 -0.389689 -0.920927 0.00603662
37.828 72.0836 -3.28518 -0.390731 -0.919986 -0.0287147
38.0039 72.0254 -4.4096 -0.381882 -0.923708 -0.0264399
38.123 71.9954 -5.32054 -0.417708 -0.908532 -0.00646193
37.4013 72.2911 -6.22435 -0.361958 -0.932123 0.0112689
36.5644 72.6142 -6.1974 -0.361356 -0.932373 0.00996088
35.4006 73.0166 -6.28831 -0.32518 -0.94562 0.00698391
34.5192 73.305 -6.3133 -0.308018 -0.95138 0.00103156
33.4206 73.6389 -6.26933 -0.262617 -0.964862 0.00785224
32.4163 73.9136 -6.19314 -0.258716 -0.965922 0.0057491
31.0487 74.2436 -6.27495 -0.207075 -0.97802 -0.0050764
30.0914 74.4233 -6.20803 -0.178384 -0.983931 -0.00308726
28.7137 74.6408 -6.21375 -0.151167 -0.988482 0.00585866
27.2312 74.8134 -6.28074 -0.103349 -0.994583 0.00570411
26.2764 74.8754 -6.28743 -0.0626501 -0.998021 -0.00539602
24.6987 74.9399 -6.20426 -0.0195527 -0.999808 0.00114574
24.6339 74.9411 -6.20253 -0.0195576 -0.999808 0.00114889
24.8879 74.9352 -7.02395 -0.028105 -0.999531 0.00665202
25.8488 74.8993 -7.07729 -0.0366532 -0.999254 0.0121455
26.7832 74.8477 -7.04886 -0.079205 -0.99668 0.00299953
27.7778 74.7524 -7.01712 -0.103359 -0.994582 0.00570754
28.9413 74.6004 -7.04084 -0.147384 -0.989049 0.00776702
29.8281 74.4646 -6.95113 -0.140426 -0.990086 -0.00312885
31.5145 74.1319 -7.01143 -0.225009 -0.974187 0.0117817
32.5135 73.8819 -7.04937 -0.253837 -0.967221 0.0071015
34.1741 73.4155 -7.01359 -0.278287 -0.960322 0.0184081
35.7458 72.8952 -7.01008 -0.320708 -0.947152 0.00706995
36.6836 72.5585 -7.09991 -0.362941 -0.931764 0.00948635
37.6535 72.1764 -7.22889 -0.372181 -0.927902 0.0219027
38.6019 71.7882 -6.59509 -0.424977 -0.90519 -0.00496467
38.8982 71.6401 -5.48223 -0.417714 -0.908529 -0.00645381
38.7278 71.719 -4.20665 -0.416888 -0.908949 0.00305145
38.6724 71.7254 -3.32956 -0.390852 -0.920005 -0.0170599
38.796 71.6731 -2.40816 -0.407694 -0.913063 -0.0100694
38.762 71.6773 -1.41268 -0.408211 -0.912852 -0.00245301
38.7248 71.6935 0.0970711 -0.412665 -0.910812 -0.00905238
38.7178 71.6936 1.02342 -0.40849 -0.91269 0.00952012
38.692 71.7156 2.19899 -0.412001 -0.911107 0.0117975
38.6847 71.7181 3.56851 -0.42868 -0.903456 0.00086138
38.7438 71.6808 4.52039 -0.43227 -0.901702 -0.00876467
38.6943 71.6825 5.73656 -0.403982 -0.914722 0.00908268
38.135 71.9451 6.92448 -0.420289 -0.90738 0.00435801
37.3309 72.3083 7.03464 -0.348198 -0.937421 0.000658053
36.1764 72.7387 7.1544 -0.339253 -0.940525 -0.0178855
35.2304 73.0827 7.00957 -0.326507 -0.945013 -0.00805004
33.8131 73.4989 7.14358 -0.275766 -0.961203 0.000901952
32.8246 73.7788 7.08927 -0.272756 -0.962061 0.00655125
31.5227 74.0833 7.07083 -0.222161 -0.974956 -0.0102924
30.6121 74.293 7.02345 -0.199473 -0.979875 0.00751455
29.5464 74.4851 7.09905 -0.162808 -0.986653 -0.00315523
28.4027 74.6507 7.08879 -0.126189 -0.991995 -0.00444572
27.3702 74.7822 6.88881 -0.0963632 -0.994887 0.00232701
26.4004 74.8559 6.93691 -0.0781237 -0.99694 0.00286957
25.4705 74.9105 7.04232 -0.0552313 -0.998402 -0.0119651
24.5038 74.9296 7.05498 0.00470863 -0.999955 -0.00822975
23.1237 74.9083 7.04849 0.0501316 -0.998517 -0.00368994
22.1951 74.8441 7.03971 0.0750051 -0.997115 -0.0095675
21.0285 74.7458 6.98547 0.088004 -0.996067 -0.0102613
19.6593 74.5578 7.07449 0.146491 -0.989121 0.00765561
18.0819 74.284 7.09951 0.19291 -0.981214 0.0021275
17.078 74.0823 7.09114 0.202312 -0.979308 0.00499565
16.0164 73.8359 6.16348 0.253171 -0.96732 -0.0129875
15.8935 73.8178 5.24955 0.259792 -0.965643 -0.00649148
16.0041 73.8235 3.82337 0.206939 -0.977338 0.0445711
15.9059 73.803 2.36638 0.229012 -0.973406 0.00576896
15.7539 73.7667 1.43443 0.239306 -0.970902 -0.00810508
15.8473 73.8028 0.383118 0.253665 -0.967133 -0.00505427
15.8723 73.793 -0.547886 0.221397 -0.974849 0.0255405
15.9706 73.8147 -1.98281 0.238445 -0.971152 0.00203153
15.9632 73.8092 -3.254 0.235871 -0.971783 0.00147688
15.806 73.7718 -4.27027 0.241304 -0.970324 0.0089533
16.036 73.8126 -5.64036 0.227745 -0.973708 0.00497728
16.236 73.8705 -6.84268 0.259142 -0.965598 -0.00948272
17.1679 74.0962 -6.93233 0.214864 -0.976577 -0.011452
18.1709 74.3062 -7.05301 0.182229 -0.983202 -0.00399313
19.1593 74.4822 -6.96626 0.175128 -0.984543 0.00212975
20.0491 74.6278 -6.88948 0.160365 -0.987048 -0.00427891
21.2082 74.78 -6.99728 0.114986 -0.993277 0.0133459
22.1321 74.8586 -7.03704 0.0835447 -0.996388 -0.0152187
23.0994 74.9125 -7.01298 0.0550232 -0.998484 0.00173577
24.1822 74.9488 -6.96377 -0.00978066 -0.999937 0.00543389
24.214 74.9485 -6.96377 -0.0146616 -0.999873 0.00329468
