21.8916 77.5172 0.358394 0.0910231 -0.995843 0.00344402
22.801 77.5901 0.370632 0.0561367 -0.998417 0.00358275
23.8313 77.6472 -0.179461 0.0192449 -0.999076 -0.0035225
24.5317 77.6303 0.382914 -0.0169678 -0.999852 -0.00284161
25.8967 77.6001 0.279278 -0.0299828 -0.999533 -0.00592976
26.8197 77.5458 0.308987 -0.0923981 -0.995551 0.000542634
27.6457 77.4641 0.0429155 -0.118578 -0.992764 -0.00939902
29.0922 77.2674 0.251358 -0.133957 -0.990978 -0.00413548
30.0806 77.0928 0.192958 -0.183899 -0.982944 -0.00175408
31.1003 76.8846 0.126962 -0.2081 -0.978107 -0.00029679
32.1581 76.6454 0.246888 -0.247876 -0.96876 0.00785099
33.1557 76.3893 0.386031 -0.267546 -0.963349 0.00879086
34.2749 76.0625 0.314224 -0.293421 -0.955828 0.00290856
34.686 75.9239 -0.341351 -0.309157 -0.950984 0.00713596
33.7578 76.2129 -0.36579 -0.277558 -0.960708 -0.00113452
32.7657 76.4888 -0.208444 -0.246611 -0.969115 9.57622e-05
31.7829 76.7375 -0.236772 -0.2352 -0.97189 0.00873042
30.8922 76.9315 -0.298898 -0.207447 -0.978158 -0.0131391
29.8765 77.1314 -0.252573 -0.183616 -0.982998 -0.00017754
28.5878 77.338 -0.296045 -0.134155 -0.990952 -0.00408897
27.6778 77.4616 -0.379256 -0.125229 -0.992061 0.00259345
26.3144 77.5778 -0.297057 -0.0817637 -0.99653 0.0155588
25.9025 77.6002 0.221606 -0.0307779 -0.999515 -0.0046715
25.1472 77.6232 -0.248281 -0.0197312 -0.999776 -0.0074115
23.9712 77.6464 -0.385583 -0.0186416 -0.999787 -0.00889957
22.548 77.5735 -0.286107 0.0566395 -0.998391 0.00271025
21.3655 77.4621 -0.452066 0.0934627 -0.995536 0.0131207
20.8373 77.4135 0.242886 0.145698 -0.988977 -0.00218775
21.7275 77.5021 0.332898 0.091026 -0.995843 0.00343641
21.8053 77.5107 1.11033 0.0920578 -0.995751 0.00209515
22.9909 77.5987 1.0624 0.0453772 -0.998956 0.00529513
24.0753 77.6309 1.04015 -0.00944076 -0.999843 -0.0150177
25.1505 77.6179 1.05201 -0.0234714 -0.999692 -0.00439644
26.5382 77.5698 1.00665 -0.0725832 -0.996624 -0.0107312
27.5124 77.4638 1.01175 -0.105576 -0.994355 -0.00789788
28.6781 77.3204 0.979713 -0.133795 -0.991001 -0.00396342
29.9075 77.1245 0.960882 -0.185933 -0.982562 0.000559733
31.2001 76.8631 0.938345 -0.208128 -0.978102 -0.000326789
32.7345 76.5002 1.06069 -0.252415 -0.967618 0.00148645
33.9764 76.1585 1.04526 -0.294975 -0.955346 0.00593809
34.8769 75.8633 0.980969 -0.31907 -0.947729 0.00205789
35.6912 75.591 0.529529 -0.326893 -0.944992 -0.000974327
35.6524 75.6013 -0.550148 -0.338188 -0.941078 -0.000663434
34.7236 75.9159 -1.14164 -0.303756 -0.952742 -0.00320883
33.7453 76.2181 -1.1045 -0.276473 -0.961017 -0.00313405
32.4612 76.5628 -0.977237 -0.240864 -0.970523 0.00832101
31.2495 76.8559 -1.02427 -0.229542 -0.973256 0.00913941
30.2581 77.0639 -1.04069 -0.177147 -0.984171 -0.00521144
29.1769 77.2529 -1.02793 -0.150927 -0.988533 0.00493114
28.1952 77.3944 -1.08274 -0.125219 -0.992062 0.00258835
27.2136 77.5096 -1.06131 -0.094035 -0.995275 -3.97447e-06
25.9856 77.5977 -1.03082 -0.0674392 -0.99769 -0.00324457
25.0026 77.6296 -1.00506 -0.0261809 -0.999654 -0.00244573
23.9643 77.653 -1.11571 0.0137809 -0.998404 0.0268892
22.7836 77.5756 -1.06572 0.0661881 -0.99764 0.0182832
21.626 77.4775 -1.14223 0.0894849 -0.99582 0.0173613
20.652 77.3526 -1.1446 0.144037 -0.989185 0.0276744
19.998 77.2663 -0.576823 0.168809 -0.985647 0.00180155
19.9391 77.2623 0.31658 0.166997 -0.985873 0.0129357
20.4991 77.3612 1.02999 0.143474 -0.989289 -0.00479848
21.5346 77.4857 1.11661 0.108079 -0.993931 -0.00786035
21.2023 77.4447 1.84274 0.103159 -0.994618 -0.0096367
20.2662 77.3134 1.80658 0.169117 -0.985545 -0.0100395
19.2926 77.1502 1.42724 0.172243 -0.985023 -0.00411381
19.1714 77.1265 0.315442 0.187802 -0.982124 0.00135554
19.2126 77.1269 -0.601267 0.195714 -0.98049 0.0183306
19.466 77.1756 -1.66717 0.181426 -0.983267 -0.00836852
20.4776 77.3493 -1.87273 0.151285 -0.987929 -0.0212637
21.6553 77.4832 -1.87647 0.0906512 -0.995661 -0.0142423
22.6673 77.5604 -1.81235 0.0685264 -0.997431 -0.0185394
23.7044 77.6149 -1.81691 0.0508525 -0.998493 -0.0206313
24.9753 77.635 -1.78776 -0.0234068 -0.999692 -0.00828988
26.2578 77.5784 -1.78071 -0.063077 -0.998005 0.00278089
27.4892 77.4717 -1.83219 -0.114938 -0.993372 0.00147629
28.7351 77.3184 -1.82184 -0.140221 -0.99001 0.00754243
30.0333 77.1059 -1.77764 -0.176937 -0.984221 0.000380806
31.2784 76.8442 -1.76118 -0.233906 -0.972259 0.000615682
32.4841 76.5534 -1.74925 -0.234662 -0.972076 -0.00138266
33.3657 76.3287 -1.81489 -0.271987 -0.962301 -0.000255441
34.4711 75.9971 -1.91759 -0.302406 -0.953178 -0.00138657
35.846 75.5315 -1.84935 -0.339383 -0.940648 -0.000113955
36.4719 75.3069 -0.63446 -0.33861 -0.940926 1.82016e-05
36.3983 75.3265 0.913494 -0.357563 -0.933869 -0.00616914
35.4721 75.6636 1.68423 -0.321469 -0.94692 -0.000324748
34.4813 75.9924 1.74014 -0.307032 -0.951686 -0.0050564
33.1513 76.3928 1.81347 -0.258698 -0.96585 -0.00826295
32.1416 76.6515 1.75704 -0.230429 -0.973046 -0.00916118
30.7412 76.9666 1.71298 -0.196659 -0.980391 0.0049025
29.6297 77.1775 1.71445 -0.186178 -0.982516 0.000152706
28.435 77.3541 1.74373 -0.138745 -0.990302 0.00725303
27.468 77.4676 1.76957 -0.110939 -0.993811 -0.00413968
26.0259 77.5731 1.78672 -0.0370471 -0.999111 -0.0201397
25.1263 77.6264 1.78947 -0.0238837 -0.998913 0.0162663
23.9876 77.6279 1.79834 -0.00956975 -0.999953 -0.00164156
22.9798 77.6021 1.80147 0.0380398 -0.999198 -0.00397666
21.9878 77.5264 1.82556 0.103159 -0.994618 -0.00963662
22.0932 77.5379 2.54673 0.0980218 -0.995088 0.00178722
23.126 77.6029 2.53695 0.0225106 -0.999684 0.0112293
24.0713 77.6258 2.53859 0.0105664 -0.999697 -0.00744503
25.1564 77.6376 2.52187 -0.0238918 -0.998913 0.0162552
26.0707 77.5815 2.52607 -0.0618327 -0.998064 0.00663618
27.0097 77.517 2.51079 -0.100839 -0.994756 -0.00371843
28.56 77.3388 2.4927 -0.121791 -0.992459 -0.00433679
29.6334 77.1746 2.48386 -0.154357 -0.987916 -0.0140014
30.719 76.9719 2.45691 -0.193147 -0.981116 -0.00364994
31.8484 76.7162 2.48027 -0.23032 -0.973114 -0.00133476
33.1868 76.372 2.55153 -0.274748 -0.961459 0.0104942
34.2975 76.0471 2.4799 -0.305181 -0.952283 -0.00383993
35.3201 75.7165 2.47222 -0.322714 -0.946492 0.00304946
36.2707 75.3837 2.4316 -0.364535 -0.931174 -0.00254197
37.0014 75.0943 1.92772 -0.382821 -0.923813 0.00408429
37.1206 75.0424 0.826182 -0.380474 -0.924788 -0.00215693
37.169 75.0236 -0.206654 -0.379541 -0.925174 -0.000985247
37.1691 75.0277 -1.11105 -0.37403 -0.927416 0.00118887
37.0409 75.0792 -2.00501 -0.370998 -0.928623 -0.00454978
35.8563 75.5286 -2.6338 -0.341274 -0.939958 0.00159682
34.713 75.9211 -2.66433 -0.302694 -0.953087 -0.00095251
33.5858 76.2666 -2.60927 -0.271201 -0.962517 -0.00229024
32.664 76.5111 -2.51302 -0.237202 -0.971441 -0.00457144
31.7748 76.7306 -2.49471 -0.235174 -0.971903 -0.00864976
30.832 76.9541 -2.50785 -0.219094 -0.975586 4.0772e-05
29.4361 77.2118 -2.55029 -0.163293 -0.98649 0.000656946
28.523 77.3345 -2.59277 -0.130059 -0.991392 0.0150628
27.4324 77.4771 -2.62523 -0.122494 -0.992382 0.00827133
26.038 77.5951 -2.54801 -0.0536506 -0.998467 -0.0136211
24.6339 77.636 -2.54739 -0.00261868 -0.999943 0.0103118
23.325 77.6109 -2.55811 0.0552284 -0.998301 -0.0178168
22.3675 77.5538 -2.56474 0.0685199 -0.997431 -0.0185489
21.4213 77.46 -2.61354 0.114196 -0.993366 0.0135107
20.3641 77.3281 -2.61354 0.166472 -0.986034 0.00483756
19.0932 77.114 -2.52283 0.170579 -0.985253 0.0110753
18.5694 76.9963 -1.54162 0.191873 -0.981366 -0.0076496
18.493 76.9844 -0.538301 0.198752 -0.979951 0.0120253
18.4211 76.9645 0.766311 0.224163 -0.974442 -0.0145935
18.5109 76.9777 1.86256 0.224251 -0.9745 0.00785576
19.2394 77.1329 2.49083 0.206761 -0.978355 -0.00842242
20.5502 77.3569 2.58057 0.158528 -0.98726 -0.00937097
21.8622 77.5131 2.55212 0.107011 -0.994184 0.0121258
22.1227 77.5342 3.28614 0.0890274 -0.995993 -0.0085375
20.4327 77.3267 3.29349 0.153283 -0.988182 -0.000898652
19.5296 77.1866 3.27154 0.157072 -0.987572 -0.00314639
18.6397 77.0069 3.23082 0.19888 -0.979841 0.018936
17.8496 76.8277 2.77115 0.25074 -0.968048 -0.000863386
17.6616 76.7826 1.90305 0.237695 -0.971221 0.00187481
17.6778 76.7878 0.780744 0.246545 -0.969131 -0.000243232
17.7597 76.8088 -0.270689 0.246548 -0.96913 -0.000168345
17.821 76.8211 -1.29452 0.255296 -0.966862 -0.00107953
17.8525 76.8263 -2.21471 0.246739 -0.969001 0.0125108
18.3754 76.9392 -3.22471 0.232953 -0.972479 0.00427195
19.6791 77.2036 -3.34164 0.174672 -0.984474 0.017325
20.6767 77.3644 -3.34928 0.116236 -0.993174 0.00669328
22.0767 77.5312 -3.31977 0.0972185 -0.994975 0.00788126
23.0911 77.5995 -3.30209 0.0617129 -0.99805 0.00931901
24.295 77.6334 -3.29884 -0.000687125 -0.999999 0.000804011
25.4185 77.623 -3.30848 -0.0305871 -0.999458 0.0121704
26.4686 77.5826 -3.32262 -0.0821676 -0.996158 -0.00515611
27.6196 77.4567 -3.34553 -0.119235 -0.992858 -0.00396028
29.0814 77.2707 -3.32021 -0.150783 -0.98825 -0.00872824
30.0328 77.1048 -3.27538 -0.175814 -0.984423 0.000286019
31.0215 76.9067 -3.24489 -0.207591 -0.978169 0.00960278
32.1177 76.6519 -3.24349 -0.240712 -0.970578 -0.00544924
33.2907 76.3528 -3.33055 -0.263437 -0.964642 -0.000608198
34.2729 76.0589 -3.43449 -0.302233 -0.953232 0.00201014
35.432 75.6813 -3.40581 -0.334627 -0.942241 0.00778091
36.6861 75.2229 -3.29676 -0.343058 -0.93931 0.00198061
37.574 74.8633 -3.03031 -0.380363 -0.924836 0.00168431
37.8601 74.7477 -1.93758 -0.379776 -0.925078 0.00100721
37.8666 74.7404 -0.650008 -0.395209 -0.918577 -0.00504779
37.836 74.7487 0.406084 -0.386661 -0.922201 -0.00259146
37.7605 74.7783 1.60418 -0.38237 -0.923999 0.00440832
37.7151 74.8023 2.63122 -0.381911 -0.924187 0.00472398
36.993 75.097 3.15357 -0.363533 -0.931553 -0.00718641
35.8352 75.5351 3.23979 -0.346315 -0.938014 -0.0140113
34.8841 75.8587 3.27102 -0.303157 -0.952937 -0.00258811
34.0014 76.139 3.28979 -0.294327 -0.955657 -0.0036243
33.0622 76.4157 3.292 -0.256344 -0.966351 0.00105071
32.1471 76.6402 3.24951 -0.237942 -0.971243 -0.00839295
30.7673 76.9532 3.21672 -0.198808 -0.979972 -0.011386
29.539 77.1814 3.24999 -0.153141 -0.988171 -0.000782282
28.4442 77.3423 3.26301 -0.129468 -0.99147 -0.0150021
27.5248 77.4618 3.25806 -0.0922877 -0.995641 -0.00136389
26.611 77.5417 3.25901 -0.0875691 -0.996064 -0.0137341
25.6703 77.6113 3.27491 -0.0460223 -0.998736 -0.00493565
24.2806 77.631 3.28225 0.0122551 -0.999913 0.00480684
23.2833 77.6146 3.27028 0.0195284 -0.99977 0.00754462
22.2496 77.5456 3.28415 0.0890236 -0.995993 -0.00854184
22.3521 77.5567 4.01328 0.0870402 -0.996192 0.00496141
23.3477 77.6164 4.01464 0.0188219 -0.999821 -0.00187065
24.3733 77.6357 4.04557 0.0176879 -0.999838 0.000991951
25.5509 77.6066 4.02649 -0.0358685 -0.999209 -0.0116436
26.805 77.5275 4.00066 -0.0922789 -0.995642 -0.00136882
27.7108 77.4346 4.01684 -0.10185 -0.994742 -0.0107116
28.7497 77.2982 4.01603 -0.141642 -0.989902 -0.00558231
29.6608 77.1679 4.00899 -0.1455 -0.989333 0.000359604
30.5638 76.9931 3.98812 -0.203446 -0.979078 -0.00388475
31.6519 76.7615 3.99223 -0.226018 -0.974027 -0.0019189
32.6023 76.5297 4.08266 -0.237381 -0.971404 0.00498124
33.5543 76.2685 4.09155 -0.275527 -0.961215 -0.0122878
34.6749 75.9222 4.08987 -0.30274 -0.953067 -0.00337548
35.9666 75.4776 4.01184 -0.352334 -0.935874 -5.02217e-05
36.8578 75.1438 3.92806 -0.363539 -0.931551 -0.00717789
37.9416 74.7206 3.90823 -0.388155 -0.921188 -0.00177734
38.4691 74.4904 2.75164 -0.413253 -0.910593 -0.00530946
38.4652 74.4752 1.6319 -0.404827 -0.914278 0.0144859
38.5161 74.4574 0.654711 -0.404655 -0.914365 -0.0138013
38.5546 74.443 -0.301104 -0.391572 -0.920147 0.000825245
38.5469 74.4475 -1.43168 -0.399462 -0.916738 0.00471386
38.5483 74.46 -2.36363 -0.409668 -0.912137 -0.00696541
38.4657 74.4855 -3.31412 -0.401134 -0.915909 0.0142058
37.8622 74.7498 -3.87783 -0.392941 -0.919414 -0.0124374
36.6525 75.2324 -4.06528 -0.354068 -0.935202 0.0057887
35.5332 75.6341 -4.14763 -0.325958 -0.945254 0.0157039
34.6621 75.9339 -4.17947 -0.313527 -0.949422 0.00910466
33.6503 76.254 -4.14558 -0.279586 -0.959808 0.0101287
32.5884 76.537 -3.98344 -0.249078 -0.968448 -1.50003e-05
31.4353 76.8217 -3.98279 -0.219282 -0.975432 -0.00584537
30.2218 77.0703 -4.01736 -0.188984 -0.981862 -0.00271921
28.9673 77.2878 -4.0756 -0.159433 -0.987105 0.0075543
27.9379 77.4215 -4.08572 -0.119197 -0.992862 -0.0040851
26.7664 77.5519 -4.06948 -0.0942409 -0.995533 0.00565169
25.5367 77.6121 -4.04952 -0.0223969 -0.99973 -0.00616116
24.477 77.6327 -4.04244 0.0140106 -0.999634 0.013019
23.5656 77.6063 -4.0508 0.0287125 -0.999269 0.0252376
22.4263 77.5461 -4.06327 0.0761616 -0.996969 0.0158862
21.1551 77.4215 -4.08875 0.124275 -0.992185 0.00657914
20.2278 77.2996 -4.0924 0.156571 -0.987261 0.00527199
18.8342 77.0404 -4.09493 0.17877 -0.983804 0.00729365
17.6199 76.7479 -4.00849 0.239214 -0.970913 0.0102001
17.1555 76.6287 -3.24448 0.255783 -0.966607 0.0131384
17.0821 76.6297 -2.25138 0.250629 -0.968031 0.0043927
17.1092 76.6331 -1.28824 0.254905 -0.966962 -0.00240053
17.0375 76.6209 -0.239765 0.261921 -0.965021 0.00464554
16.9567 76.5994 0.731004 0.259128 -0.965837 -0.00329935
16.9007 76.583 1.68611 0.258122 -0.966109 0.00249455
16.9316 76.59 2.65035 0.25074 -0.968048 -0.000863056
17.2208 76.6675 3.78411 0.244743 -0.969555 -0.00255647
18.1684 76.8996 3.95551 0.234584 -0.97206 -0.00692804
19.0582 77.1054 4.073 0.157714 -0.987456 0.00131135
19.9804 77.2558 4.05015 0.157067 -0.987573 -0.00315374
21.4319 77.4695 4.03004 0.135926 -0.990641 -0.0124208
21.5712 77.4886 4.02943 0.111483 -0.993417 -0.0037297
21.6361 77.4932 4.77469 0.123201 -0.992234 0.00221337
23.0296 77.6091 4.74584 0.0495399 -0.998295 -0.00258631
24.1866 77.6227 4.77995 0.00954037 -0.999825 -0.016065
25.3448 77.6014 4.76591 -0.0416849 -0.999025 -0.00942408
26.2657 77.5665 4.72952 -0.0549487 -0.998269 -0.00809516
27.4839 77.4542 4.76678 -0.104161 -0.994545 0.00554135
28.6554 77.3124 4.75065 -0.137904 -0.990398 0.00975056
30.1915 77.0626 4.76637 -0.179145 -0.983511 -0.024744
31.2942 76.833 4.77869 -0.214642 -0.976653 -0.00880627
32.1784 76.6374 4.87316 -0.247353 -0.968841 -0.00226864
33.1626 76.3709 4.8618 -0.275527 -0.961215 -0.0122873
34.0716 76.1117 4.89269 -0.291017 -0.95646 -0.00239947
35.0925 75.7798 4.84244 -0.307548 -0.951484 -0.00962841
36.0884 75.4317 4.74882 -0.352335 -0.935874 -4.94267e-05
37.3024 74.967 4.70027 -0.366979 -0.930225 0.00283681
38.496 74.4699 4.67466 -0.413865 -0.910337 -0.000136477
39.1843 74.1599 3.49798 -0.416225 -0.909254 -0.00374189
39.1437 74.178 2.02582 -0.416551 -0.909101 0.0045087
39.2208 74.1448 0.703015 -0.414508 -0.909922 -0.00939674
39.2405 74.1414 -0.436817 -0.424112 -0.905601 -0.00398204
39.2255 74.1474 -1.544 -0.426029 -0.904707 0.000369413
39.2198 74.1511 -2.47322 -0.417832 -0.908524 2.68729e-05
39.1762 74.1686 -3.68186 -0.402304 -0.915421 0.00195936
38.8687 74.3137 -4.52215 -0.40303 -0.915134 -0.00979652
37.9804 74.7058 -4.66712 -0.402561 -0.915366 -0.00642376
37.0713 75.0692 -4.76942 -0.353904 -0.935257 0.00687185
35.9657 75.4828 -4.87086 -0.337888 -0.941096 0.00341851
35.0543 75.7997 -4.93071 -0.328129 -0.944626 -0.00373062
34.0871 76.1081 -4.93326 -0.301474 -0.953421 0.0100715
33.0571 76.4053 -4.80027 -0.258178 -0.96604 0.010579
31.7749 76.7381 -4.71347 -0.236833 -0.971544 -0.00209188
30.7983 76.9614 -4.73878 -0.188987 -0.981861 -0.00272288
29.731 77.1537 -4.78646 -0.174051 -0.984717 0.0047566
28.4731 77.3525 -4.83587 -0.148349 -0.988858 0.0123221
27.5662 77.4691 -4.81349 -0.107747 -0.994087 0.0024335
26.2159 77.6 -4.78466 -0.0952672 -0.995423 0.00729947
25.2778 77.6212 -4.79273 -0.0210196 -0.999777 -0.00184424
24.3223 77.6291 -4.81227 0.0156215 -0.999682 -0.00595017
23.2393 77.596 -4.80446 0.0428134 -0.998927 -0.00839355
21.9798 77.5117 -4.81665 0.0794881 -0.996651 -0.0192074
20.7897 77.3644 -4.84218 0.14532 -0.988949 -0.0293579
19.5674 77.1788 -4.8326 0.187541 -0.982225 0.00291834
18.5833 76.9862 -4.81737 0.21993 -0.975075 0.00161949
17.5893 76.732 -4.79957 0.243437 -0.969873 0.00242604
16.6836 76.4952 -4.6146 0.259581 -0.965701 0.00628159
16.3963 76.4252 -3.50348 0.258465 -0.966004 0.00552213
16.3564 76.4159 -2.35441 0.289395 -0.95721 5.40141e-05
16.3717 76.4246 -1.18062 0.292152 -0.956267 0.0105429
16.3027 76.414 -0.0166716 0.270857 -0.962603 0.00434227
16.1743 76.3879 1.20176 0.264723 -0.964288 0.00228424
16.1774 76.3836 2.43818 0.284053 -0.958797 -0.00463535
16.2442 76.3959 3.45468 0.278413 -0.960454 -0.00363631
16.7283 76.5263 4.65105 0.281076 -0.959596 -0.0118353
17.6579 76.7701 4.73334 0.237243 -0.971449 -0.00188255
18.6056 76.9891 4.7825 0.216817 -0.975982 -0.0208498
19.5017 77.1808 4.81109 0.154555 -0.987952 0.00801148
20.4005 77.3206 4.7916 0.144281 -0.989493 0.00657332
21.1287 77.4222 4.77555 0.138448 -0.990325 0.00945237
21.2842 77.4512 5.52692 0.123201 -0.992234 0.00221337
22.6092 77.5805 5.47124 0.0763618 -0.997044 0.00849475
23.5391 77.6206 5.50296 0.00904645 -0.999868 0.0134914
24.4621 77.6259 5.53663 -0.0329712 -0.999355 -0.0142195
25.6647 77.587 5.47994 -0.0287812 -0.999516 -0.0039315
26.6172 77.5284 5.4642 -0.0720361 -0.997255 -0.0171411
28.0539 77.3874 5.50981 -0.12237 -0.992458 -0.00012617
29.0939 77.2517 5.49167 -0.166406 -0.985961 0.000224002
30.0545 77.0792 5.52325 -0.177018 -0.984168 0.00886683
30.9643 76.9011 5.53035 -0.208339 -0.978007 -0.00723936
31.9746 76.68 5.57423 -0.232393 -0.972375 -0.0088568
33.0067 76.4063 5.58853 -0.272833 -0.962009 -0.00906381
33.9757 76.1344 5.59292 -0.270145 -0.962802 -0.00584427
34.956 75.8222 5.6074 -0.311891 -0.950117 0.00105984
35.9638 75.4798 5.50393 -0.349468 -0.936941 0.00357795
37.3166 74.9637 5.46144 -0.368698 -0.929542 -0.00026277
38.5043 74.4648 5.48447 -0.413843 -0.910345 -0.00251298
39.5914 73.9691 5.3079 -0.416122 -0.909308 -0.00119841
39.8834 73.8328 4.20042 -0.41993 -0.907536 0.00613568
39.879 73.839 3.24171 -0.428967 -0.903287 -0.00367202
39.82 73.8657 2.02904 -0.422921 -0.90615 0.00555387
39.8804 73.8339 1.11203 -0.423425 -0.905919 -0.00477654
39.9165 73.8223 0.131721 -0.428923 -0.903313 -0.00131054
39.9164 73.8229 -0.770333 -0.426992 -0.904255 0.000628811
39.9086 73.8267 -2.01039 -0.425767 -0.904832 -0.00146644
39.9047 73.8321 -2.97901 -0.432899 -0.901437 0.00108665
39.8857 73.8408 -4.16649 -0.431826 -0.901936 0.00540109
39.3166 74.1112 -5.31986 -0.432661 -0.901531 -0.00674859
38.3243 74.5576 -5.42488 -0.402526 -0.915402 -0.00354921
37.4063 74.9337 -5.48569 -0.363954 -0.931309 0.0141922
36.2794 75.3584 -5.59111 -0.347645 -0.937567 0.010553
35.3414 75.7028 -5.65964 -0.315039 -0.948946 0.00336921
34.3864 76.0061 -5.68985 -0.30353 -0.952822 0.000380612
33.4434 76.2985 -5.61989 -0.273416 -0.961876 0.00141057
32.4792 76.5631 -5.46354 -0.24645 -0.969154 0.00184491
31.4696 76.8156 -5.4643 -0.235501 -0.971863 -0.00465486
30.4871 77.018 -5.49284 -0.17581 -0.984375 -0.00985466
29.2689 77.2318 -5.56514 -0.155552 -0.987719 -0.00886392
27.9993 77.4191 -5.55323 -0.137126 -0.990449 -0.00932223
27.0243 77.5172 -5.52551 -0.0980051 -0.995177 0.00410302
26.102 77.604 -5.49569 -0.0237894 -0.999717 0.000253179
25.1353 77.6256 -5.53766 -0.0100665 -0.99988 0.00198294
23.9931 77.6243 -5.58053 -0.00164902 -0.99996 -0.00225792
23.0637 77.5872 -5.53918 0.0535193 -0.998503 -0.011328
22.0822 77.5283 -5.56002 0.0898601 -0.995862 -0.00197716
21.0155 77.4199 -5.59304 0.122917 -0.991939 -0.0164759
19.7286 77.2111 -5.57598 0.1863 -0.982394 -0.00478491
18.607 76.9843 -5.56397 0.195148 -0.980725 -0.000720676
17.6066 76.7441 -5.5248 0.242192 -0.970121 -0.0144523
16.6373 76.4878 -5.49075 0.25939 -0.965687 -0.0128895
15.785 76.2499 -5.08447 0.299262 -0.954072 -0.00171318
15.6469 76.1913 -3.64704 0.305303 -0.952202 -0.0100848
15.6089 76.1878 -2.38559 0.30122 -0.953529 0.00705683
15.597 76.1872 -1.24428 0.292153 -0.956267 0.0105429
15.5812 76.1984 -0.105582 0.326337 -0.944612 0.021587
15.4388 76.1757 0.99618 0.275783 -0.9612 0.00618053
15.4182 76.1653 1.9465 0.276913 -0.960871 -0.00678219
15.5041 76.1722 2.92758 0.314208 -0.949113 -0.0150723
15.5696 76.1906 4.28164 0.318077 -0.948033 0.00280927
15.8443 76.264 5.35821 0.267438 -0.963518 -0.0104934
16.8486 76.5532 5.54858 0.286007 -0.95818 -0.0095643
17.7481 76.7852 5.51457 0.21823 -0.975736 -0.0177616
18.8771 77.0346 5.57636 0.214951 -0.976467 -0.0175646
19.9331 77.2524 5.54684 0.154074 -0.988007 -0.00448258
20.755 77.3772 5.52908 0.144291 -0.989492 0.0065796
20.6277 77.3544 6.26474 0.165123 -0.986109 0.00345592
19.5092 77.1743 6.34972 0.189135 -0.981399 -0.00703834
18.1821 76.8774 6.30428 0.217068 -0.976149 0.00368309
17.1104 76.62 6.32303 0.286271 -0.957999 -0.0169219
16.1394 76.3393 6.25661 0.268462 -0.963283 -0.00344016
15.2502 76.0935 6.0882 0.289009 -0.95673 -0.0193354
14.769 75.9387 5.25141 0.356846 -0.934119 -0.00909482
14.8468 75.9524 4.33655 0.313579 -0.949526 0.00831175
14.8595 75.9511 3.40806 0.314217 -0.94911 -0.0150778
14.7435 75.943 2.3956 0.305121 -0.951976 -0.0252251
14.6763 75.9405 1.17663 0.375863 -0.926564 0.00811107
14.8235 75.9486 0.118662 0.325731 -0.944197 0.0489068
14.8433 75.949 -1.06254 0.330048 -0.943949 -0.00349175
14.8528 75.9508 -2.13913 0.301283 -0.953502 0.00794188
14.9333 75.9694 -3.04553 0.301388 -0.953476 0.00697503
14.9071 75.9583 -4.42279 0.311579 -0.950206 -0.00516009
14.9534 75.9794 -5.46436 0.311653 -0.950179 -0.00576991
15.5043 76.1635 -6.20715 0.298885 -0.954202 -0.000585768
16.4838 76.4573 -6.23668 0.272184 -0.961983 -0.00987497
17.5204 76.7305 -6.23765 0.255528 -0.966683 -0.0144477
18.6778 76.9999 -6.29045 0.220932 -0.975241 0.00974124
20.0129 77.2612 -6.33571 0.174513 -0.984655 0.000466794
21.119 77.4309 -6.34771 0.11089 -0.993752 0.012643
22.2191 77.5367 -6.2853 0.0774935 -0.996988 0.00303518
23.1931 77.6025 -6.27196 0.0407332 -0.99904 -0.0016987
24.2373 77.6311 -6.33924 0.0118812 -0.999758 -0.00119069
25.2859 77.6265 -6.28198 -0.0138926 -0.999786 -0.0112183
26.1853 77.5991 -6.21823 -0.0636633 -0.997924 0.00325358
27.1904 77.5135 -6.27364 -0.0890416 -0.995803 -0.0211733
28.0959 77.4091 -6.32794 -0.128169 -0.991747 -0.00318839
29.3495 77.22 -6.32009 -0.165037 -0.986285 -0.00226205
30.4614 77.0302 -6.24871 -0.192045 -0.981204 -0.000791279
31.426 76.8253 -6.20802 -0.20973 -0.977727 0.00765957
32.7292 76.4991 -6.21726 -0.255802 -0.966669 0.00109906
33.8634 76.1724 -6.39253 -0.290052 -0.956896 0.00343033
35.261 75.7259 -6.41384 -0.304558 -0.952491 0.00246701
36.6692 75.2123 -6.35155 -0.347703 -0.937605 -0.000588466
37.6436 74.8321 -6.23973 -0.366589 -0.930371 0.00470513
38.8313 74.3314 -6.16921 -0.410379 -0.911914 -0.00149243
39.7646 73.9011 -6.21107 -0.432344 -0.901662 0.00912052
40.4721 73.5546 -5.79194 -0.447672 -0.894193 0.00277359
40.5866 73.5021 -4.47699 -0.433769 -0.901017 0.00357874
40.5944 73.5002 -3.52248 -0.432904 -0.901435 0.00109084
40.5844 73.5071 -2.53069 -0.449785 -0.893118 -0.00376922
40.6123 73.4851 -1.42118 -0.443189 -0.896409 -0.00173037
40.5971 73.4933 -0.149418 -0.434236 -0.900795 -0.000418979
40.587 73.5009 1.00196 -0.439937 -0.898004 -0.000479655
40.502 73.5406 1.94438 -0.434626 -0.900608 -0.00239567
40.5534 73.5139 3.02421 -0.440331 -0.897799 -0.00350094
40.5845 73.4987 4.28576 -0.446809 -0.894502 0.0150726
40.4139 73.5917 5.71962 -0.416559 -0.909106 -0.00220899
39.3488 74.0783 6.28751 -0.415344 -0.909659 -0.00270485
38.5011 74.4641 6.24326 -0.413999 -0.910273 -0.00283334
37.606 74.8454 6.24945 -0.370781 -0.928717 -0.00254311
36.7434 75.1903 6.20266 -0.361643 -0.93226 -0.000857556
35.7617 75.5585 6.26932 -0.330739 -0.943506 0.00250418
34.8826 75.8471 6.34287 -0.311591 -0.950215 -0.000363274
33.6093 76.2354 6.31124 -0.272413 -0.962178 0.0022102
32.4867 76.5394 6.32933 -0.244263 -0.9697 -0.00418925
31.4928 76.783 6.27928 -0.208339 -0.978007 -0.00723879
29.8694 77.1195 6.29198 -0.190018 -0.981639 -0.00115554
28.8381 77.2856 6.24966 -0.155802 -0.987752 -0.00841245
27.7744 77.4243 6.28675 -0.107304 -0.994211 -0.00552989
26.5546 77.5446 6.16435 -0.0647552 -0.997699 0.00692051
25.5532 77.5945 6.22632 -0.0373298 -0.999206 0.000760082
24.0032 77.6327 6.2723 -0.0053355 -0.999747 -0.00600358
22.4464 77.5714 6.18905 0.0483559 -0.9988 -7.04753e-05
21.1589 77.4354 6.26437 0.115204 -0.9933 -0.00178469
20.9316 77.4075 6.25935 0.14722 -0.988671 0.00617945
20.7846 77.3834 7.07198 0.122227 -0.992476 -0.0072156
19.8805 77.2405 7.10507 0.172213 -0.984865 0.0195751
18.698 76.9958 7.22123 0.217538 -0.976022 0.00760688
17.8145 76.7988 7.15666 0.22538 -0.974232 0.000251568
16.8171 76.5259 7.26204 0.269753 -0.962925 -0.00312013
15.9597 76.2865 7.04072 0.268462 -0.963283 -0.00344016
14.7944 75.9097 7.02978 0.309328 -0.95063 -0.0155949
14.1173 75.6759 6.34192 0.357068 -0.933975 -0.0138574
14.0676 75.671 5.2291 0.35685 -0.934117 -0.00909745
14.1802 75.7126 3.77496 0.338741 -0.940789 0.0130483
14.0994 75.7077 2.86987 0.349946 -0.936263 -0.0157187
13.9353 75.643 1.53412 0.375871 -0.926561 0.00810851
14.0854 75.6797 0.310207 0.354539 -0.934537 0.00834328
14.0912 75.6827 -0.655389 0.333155 -0.942871 -0.00125106
14.046 75.676 -1.57043 0.328745 -0.944343 -0.0119225
14.1385 75.7171 -2.52784 0.339909 -0.94 -0.0029517
14.1687 75.7102 -3.51698 0.3157 -0.948841 0.0058279
14.0878 75.6774 -4.47381 0.322991 -0.9463 -0.00471879
14.1547 75.7087 -5.59507 0.347308 -0.93775 -0.00133566
14.2285 75.7377 -6.64854 0.338262 -0.940971 0.00473028
15.3737 76.1231 -7.15783 0.298885 -0.954202 -0.000585729
16.6222 76.5 -7.03818 0.289601 -0.957147 -0.000898334
18.2252 76.8958 -7.01571 0.215401 -0.976524 -0.00170415
19.7806 77.2196 -7.08548 0.180616 -0.983459 0.00884874
21.0315 77.4116 -7.09894 0.10722 -0.994084 0.0165209
22.0834 77.523 -7.00885 0.0906386 -0.995689 0.0125921
23.1136 77.6015 -7.0225 0.0503061 -0.998447 -0.000586843
24.7854 77.6373 -7.07224 0.00602704 -0.999899 -0.00347751
25.765 77.6171 -7.0733 -0.0548981 -0.998475 0.00588315
26.8622 77.5494 -7.06615 -0.0724227 -0.997374 0.000625717
28.3117 77.3823 -7.05071 -0.128873 -0.991661 -0.000536034
29.2698 77.2376 -7.06187 -0.165066 -0.98626 -0.00672495
30.5416 77.0075 -7.01681 -0.203064 -0.979112 0.00887004
31.6851 76.762 -7.02689 -0.211781 -0.977279 0.00859761
32.5675 76.5381 -7.09407 -0.265081 -0.964208 0.00595774
34.1781 76.0744 -7.08611 -0.292636 -0.956065 0.00220097
35.0651 75.7886 -7.15395 -0.319111 -0.947416 0.0108027
36.1288 75.4085 -7.16455 -0.34027 -0.940269 0.010522
37.203 75.0009 -7.19201 -0.364114 -0.931336 0.00522713
38.37 74.5365 -6.98843 -0.373277 -0.927668 0.00985126
39.3249 74.1032 -7.00763 -0.425543 -0.904897 0.0086023
40.5256 73.5285 -7.0188 -0.431894 -0.901881 0.00882628
41.2334 73.1747 -6.6031 -0.446796 -0.894626 -0.00413407
41.2564 73.1624 -5.6238 -0.447771 -0.894145 0.00262283
41.2888 73.1559 -4.47826 -0.448778 -0.893535 0.0139028
41.2994 73.1535 -3.4731 -0.451412 -0.892283 -0.00770329
41.2902 73.1534 -2.09937 -0.448155 -0.893956 0.000161554
41.2888 73.153 -0.984638 -0.442704 -0.89666 0.00381022
41.2913 73.1523 0.472134 -0.44847 -0.893789 -0.00132309
41.351 73.1194 1.39301 -0.445665 -0.895197 -0.00149836
41.1484 73.2188 2.40253 -0.450411 -0.89281 -0.00429818
41.3808 73.0946 3.91147 -0.446553 -0.894681 0.00422537
41.2312 73.1901 5.29159 -0.448966 -0.893463 0.0123883
40.8603 73.3683 6.70214 -0.445766 -0.894989 -0.0156538
39.6339 73.9454 7.1977 -0.41535 -0.909657 -0.00270458
38.2175 74.594 6.93775 -0.398195 -0.916982 -0.00285778
37.3762 74.9358 7.03749 -0.374335 -0.927253 -0.00644452
36.3408 75.3418 6.98286 -0.352123 -0.935954 1.60627e-05
35.1195 75.7681 7.07769 -0.317893 -0.947996 -0.010847
34.2122 76.0596 7.10931 -0.282263 -0.95932 -0.00579113
33.1206 76.3758 7.2235 -0.258343 -0.965938 -0.000986501
31.7013 76.7317 6.961 -0.230903 -0.972869 -0.0113267
30.6442 76.9619 7.05002 -0.204827 -0.978762 0.00846881
29.4543 77.1883 7.03397 -0.175758 -0.984389 -0.00931386
28.3893 77.3564 7.07687 -0.134626 -0.99052 0.00622872
27.3823 77.4654 7.02234 -0.104713 -0.994497 -0.00344516
26.4257 77.5556 6.8952 -0.0506497 -0.998649 0.0116419
25.3127 77.6019 6.99931 -0.0302846 -0.999541 -0.000757028
24.3983 77.6257 7.07783 -0.0053355 -0.999747 -0.00600358
23.3923 77.6127 7.03937 0.0273089 -0.999472 -0.00623778
22.3765 77.565 7.04669 0.0555986 -0.998449 -0.00292271
21.7953 77.5077 7.09828 0.115195 -0.993301 -0.00178722
21.4818 77.4691 7.09828 0.122223 -0.992476 -0.00721761
