24.3145 78.5397 0.317135 -0.0133242 -0.999904 -0.0031641
25.5355 78.5092 0.210604 -0.0334631 -0.999437 0.00262638
26.4317 78.47 0.299357 -0.0896322 -0.99597 0.00317203
27.5755 78.3669 0.246311 -0.0925744 -0.99567 -0.00379323
28.9233 78.1845 0.266967 -0.135785 -0.990726 0.00498113
29.8867 78.0231 0.210356 -0.174781 -0.984607 -0.000133751
30.8064 77.8534 -0.166543 -0.215913 -0.976395 -0.0059135
31.9754 77.5922 0.286018 -0.215748 -0.976431 -1.33199e-05
33.0065 77.3266 0.182083 -0.248917 -0.968487 0.00853283
33.9095 77.0682 0.292663 -0.288616 -0.957365 0.00939787
35.102 76.6898 0.321878 -0.32541 -0.945551 -0.00229872
35.8855 76.4156 0.0883397 -0.329757 -0.944065 0.000510873
35.0935 76.6923 -0.477868 -0.328578 -0.944475 0.000717608
34.0774 77.0163 -0.0352947 -0.291822 -0.95647 0.00212875
32.9696 77.331 -0.39848 -0.246896 -0.968965 0.0116213
31.9867 77.5895 0.274007 -0.240266 -0.970579 0.0150301
31.3453 77.7346 -0.385719 -0.235661 -0.971714 0.0153446
29.9385 78.0145 -0.282682 -0.173664 -0.984802 -0.0023008
28.7708 78.203 -0.210428 -0.136622 -0.990617 0.00274212
27.6218 78.3626 0.170135 -0.112916 -0.993297 0.000301565
26.6635 78.4476 -0.172881 -0.0890014 -0.996029 0.00164443
25.8809 78.4965 -0.202542 -0.0356947 -0.999336 -0.00343959
24.9778 78.5303 -0.146507 -0.0279045 -0.999538 -0.00445186
23.9899 78.5478 -0.401666 -0.0158545 -0.999866 -0.00222061
22.6667 78.4774 -0.400263 0.0552488 -0.99847 0.0023829
21.6301 78.3923 -0.443966 0.116213 -0.993215 -0.00429234
20.6966 78.2862 -0.375195 0.142037 -0.989239 0.00957644
20.6825 78.291 0.335092 0.142043 -0.989239 0.00957654
21.9957 78.4337 0.513286 0.09602 -0.995293 -0.00562435
23.0182 78.4975 0.323111 0.0528351 -0.998544 0.0108703
23.8998 78.5452 0.353604 0.0202067 -0.999211 -0.00277499
23.5618 78.5268 1.10467 0.0120137 -0.999713 -0.0207417
22.4433 78.4649 1.16474 0.0855364 -0.996274 -0.0110368
21.1732 78.3455 1.16022 0.106505 -0.994312 -0.000206862
20.2617 78.2179 1.08445 0.163743 -0.986278 -0.0104011
19.3272 78.048 0.193501 0.176634 -0.984249 0.0056513
19.5273 78.0786 -0.757488 0.172415 -0.98502 0.00254481
20.3631 78.2247 -1.10696 0.158749 -0.987108 0.010943
21.3721 78.3651 -1.13306 0.102801 -0.994573 0.00355266
22.4993 78.4665 -1.11622 0.0723191 -0.997201 0.00689052
23.9809 78.5436 -1.12343 0.0501035 -0.998702 0.00918604
25.3405 78.5232 -1.02661 -0.0185721 -0.999826 -0.000941279
26.4045 78.4731 -0.92237 -0.0702422 -0.997333 0.000299192
27.4396 78.38 -0.898794 -0.103937 -0.994403 0.00600802
28.8315 78.1952 -0.942403 -0.137112 -0.990554 -0.00163542
30.0753 77.9905 -1.04764 -0.171749 -0.985137 0.00265093
31.0404 77.7969 -1.12051 -0.239201 -0.970902 0.00665692
32.0683 77.549 -1.03617 -0.240271 -0.970578 0.0150302
33.5099 77.1902 -1.12233 -0.266239 -0.963361 -0.00450459
34.8084 76.79 -1.14703 -0.309856 -0.950598 0.00230335
35.7322 76.4696 -1.20055 -0.328582 -0.944474 0.000723056
36.5432 76.162 -0.933271 -0.36316 -0.931668 0.0104719
36.6345 76.1372 0.501757 -0.360541 -0.932626 -0.00750029
35.7899 76.4458 1.04302 -0.352984 -0.935458 0.000644033
34.8625 76.7664 1.04667 -0.320926 -0.947086 -0.0059353
33.8567 77.0958 0.975374 -0.275092 -0.961228 0.000900905
32.8764 77.3616 0.941473 -0.246613 -0.969111 -0.00235715
31.7503 77.6457 0.92352 -0.228907 -0.973338 0.000685968
30.8433 77.8456 0.860817 -0.202881 -0.979097 -0.000345728
29.7163 78.0524 0.969972 -0.175289 -0.984515 -0.00206149
28.4131 78.2484 0.930916 -0.125415 -0.992023 -0.00523824
27.5011 78.3665 0.937767 -0.112023 -0.99347 -0.0135815
26.2982 78.4829 1.02139 -0.0679838 -0.997194 -0.00588249
25.1997 78.5203 1.07358 -0.0320743 -0.999485 -0.000705878
24.3332 78.5364 1.08699 0.0120093 -0.999713 -0.0207382
24.1276 78.5229 1.84677 0.0108599 -0.99994 -0.00158734
25.5997 78.5015 1.80043 -0.0389343 -0.999212 -0.00280982
26.7411 78.4377 1.73141 -0.0967943 -0.9953 0.000343844
28.1017 78.2912 1.66705 -0.12044 -0.99271 0.00331191
29.1463 78.15 1.70927 -0.171981 -0.985089 -0.00465882
30.176 77.969 1.73474 -0.18273 -0.983122 -0.0043251
31.2194 77.7674 1.66012 -0.202887 -0.979096 -0.000352179
32.4633 77.4641 1.68948 -0.241876 -0.970301 -0.00304059
33.6094 77.1602 1.71685 -0.258703 -0.965952 0.00295982
34.554 76.8721 1.75065 -0.310059 -0.950584 -0.00700053
35.9429 76.395 1.80159 -0.328274 -0.944577 -0.00320258
36.8216 76.0692 1.69277 -0.363054 -0.931612 0.0108938
37.3702 75.8435 0.247716 -0.384694 -0.923044 0.00118293
37.4006 75.83 -0.671518 -0.384469 -0.92313 -0.00364262
37.1306 75.9475 -1.61454 -0.369563 -0.929004 -0.00850354
35.9222 76.3991 -1.91701 -0.342387 -0.939548 0.00450842
35.0538 76.7039 -1.89248 -0.32351 -0.946205 0.0034997
34.1046 77.0103 -1.86107 -0.297129 -0.954814 -0.00663365
32.9945 77.3168 -1.85721 -0.235351 -0.971908 -0.00235604
31.5999 77.6584 -1.84405 -0.239894 -0.970747 -0.00773858
30.3144 77.9402 -1.80388 -0.175917 -0.984325 0.012518
29.244 78.1277 -1.72527 -0.150878 -0.988552 -5.58713e-05
27.7958 78.3245 -1.68061 -0.11515 -0.993252 0.00360015
26.8652 78.4352 -1.69661 -0.103932 -0.994404 0.00600436
25.475 78.5186 -1.77671 -0.0536147 -0.99856 0.00163893
24.2085 78.5473 -1.87773 -0.0047005 -0.99985 0.00390016
23.2405 78.5049 -1.86598 0.0446084 -0.998923 -0.0127839
22.1918 78.436 -1.879 0.0878055 -0.996137 -0.00111374
21.0114 78.3191 -1.83403 0.11105 -0.993755 0.0109309
19.9759 78.1534 -1.79802 0.152119 -0.98815 0.00188554
18.7415 77.9224 -1.37894 0.1955 -0.980524 0.0187503
18.5788 77.873 -0.220551 0.238954 -0.970989 -0.00902553
18.7749 77.912 1.27335 0.215494 -0.976432 -0.00286941
19.7237 78.1206 1.76314 0.202198 -0.979278 0.000535358
21.2738 78.3555 1.90594 0.129959 -0.991292 0.00612034
22.3337 78.4531 1.90318 0.0897265 -0.995887 0.0125693
23.2729 78.5136 1.86661 0.0200012 -0.999702 -0.00822056
23.6999 78.5182 1.85363 0.0108643 -0.99994 -0.00159054
23.8105 78.5182 2.60771 0.0200025 -0.999702 -0.00820825
25.0142 78.5111 2.57804 -0.00889058 -0.999763 -0.0198858
26.0235 78.4874 2.5196 -0.0577393 -0.998067 -0.00833052
26.9752 78.4172 2.446 -0.0851146 -0.99621 -0.00911141
28.0172 78.3018 2.42501 -0.118592 -0.992943 0.00069594
29.1587 78.1488 2.45604 -0.164911 -0.986263 0.0018809
30.404 77.9233 2.49784 -0.189767 -0.981829 0.00075638
31.6471 77.6661 2.43945 -0.234778 -0.971997 -0.00587443
32.602 77.4269 2.47583 -0.251599 -0.967826 -0.00332094
33.4729 77.1992 2.48604 -0.279124 -0.95995 -0.00657468
34.8398 76.7734 2.51481 -0.301925 -0.953301 -0.00451465
35.9552 76.3932 2.55405 -0.328048 -0.944611 0.00975858
36.807 76.0778 2.54202 -0.372951 -0.927847 0.00260844
37.7715 75.6895 2.3139 -0.372982 -0.927834 0.00292922
37.9778 75.5906 1.39318 -0.391589 -0.920009 0.015532
38.0626 75.5549 0.464083 -0.389409 -0.921046 -0.00585928
38.0917 75.5441 -1.07136 -0.383608 -0.923492 -0.00260974
37.9412 75.6125 -2.2152 -0.384975 -0.922909 -0.00570084
36.892 76.0456 -2.61636 -0.356213 -0.934231 0.00135095
35.538 76.5355 -2.65612 -0.336353 -0.941717 0.000378305
34.5964 76.8535 -2.60746 -0.311025 -0.950347 0.00430434
33.5932 77.1718 -2.60507 -0.276893 -0.960531 0.00295543
32.3247 77.4925 -2.6293 -0.238979 -0.970923 -0.0138738
30.9583 77.8178 -2.59391 -0.206191 -0.978272 0.00539057
29.9135 78.0156 -2.5195 -0.184419 -0.982837 0.00179558
28.9056 78.1781 -2.46767 -0.148689 -0.988881 0.00236516
27.5343 78.3612 -2.45321 -0.11186 -0.99368 -0.00934066
26.2323 78.4783 -2.48396 -0.0514878 -0.998668 -0.00321808
25.0783 78.5386 -2.54823 -0.034778 -0.999202 -0.00305258
23.7843 78.5331 -2.61075 0.00653015 -0.999858 0.0155523
22.7893 78.4863 -2.6026 0.0828635 -0.996561 0.000833606
21.3732 78.3514 -2.57249 0.111052 -0.993754 0.0109369
20.3031 78.214 -2.54868 0.166458 -0.986037 -0.00487648
19.3055 78.0331 -2.55496 0.186138 -0.98252 -0.00279206
18.3572 77.8349 -2.47225 0.246573 -0.969038 0.0129428
17.8999 77.7194 -1.31755 0.248764 -0.968455 -0.00774477
17.8676 77.6996 -0.39121 0.236205 -0.971671 -0.00191346
17.8427 77.6953 0.900579 0.248914 -0.968494 0.00389779
17.8703 77.7106 1.91968 0.244947 -0.969512 0.00683823
18.8613 77.939 2.33345 0.217165 -0.976098 0.00426422
19.9999 78.1697 2.5536 0.193498 -0.981078 -0.0066372
21.001 78.3205 2.63556 0.113307 -0.993546 -0.00530553
21.9152 78.4247 2.6447 0.101517 -0.994716 0.00363172
22.866 78.4905 2.62189 0.0291413 -0.999465 -0.0148398
23.2336 78.5014 2.60907 0.0291414 -0.999465 -0.0148397
23.214 78.5048 3.34335 0.0387867 -0.999083 0.018106
22.103 78.4434 3.37649 0.0992625 -0.994796 -0.0128314
21.15 78.3349 3.38768 0.113186 -0.993574 9.54584e-05
19.9044 78.1543 3.29308 0.186108 -0.982391 0.0164823
18.8955 77.95 3.11461 0.220103 -0.975455 0.00502267
17.8211 77.7025 3.02644 0.240826 -0.970344 -0.00452764
17.0955 77.5086 2.5822 0.265278 -0.964165 -0.0036691
17.0909 77.5099 1.66046 0.284734 -0.958551 0.00552229
17.1264 77.5104 0.694299 0.248914 -0.968494 0.00389828
17.1394 77.5063 -0.605713 0.277467 -0.960603 -0.00178627
17.1529 77.5196 -1.66322 0.258751 -0.965932 -0.00421736
17.2222 77.5443 -2.60351 0.252366 -0.967559 0.00323756
18.0905 77.7553 -3.29006 0.246673 -0.968991 0.0144908
19.0697 77.9851 -3.32616 0.19201 -0.981316 0.0122713
19.9872 78.1644 -3.29605 0.176295 -0.984279 -0.00383988
20.8999 78.287 -3.28236 0.13147 -0.991122 0.0198386
22.2855 78.4448 -3.35189 0.0957529 -0.995285 0.004261
23.4106 78.5235 -3.3493 0.0193843 -0.999728 0.00480973
24.6475 78.5385 -3.33326 0.0121561 -0.999915 -0.00477417
25.9174 78.4965 -3.25157 -0.0503229 -0.998733 -0.000434797
27.3197 78.3886 -3.20631 -0.10727 -0.994223 -0.00377856
28.7165 78.2065 -3.233 -0.147463 -0.989065 -0.00237348
29.993 77.9963 -3.29099 -0.18619 -0.9825 0.00511971
30.9719 77.8107 -3.35429 -0.206194 -0.978271 0.00540032
32.4486 77.4667 -3.38648 -0.239479 -0.970805 0.00366762
33.6066 77.1656 -3.35417 -0.276899 -0.960529 0.00296492
34.6531 76.8324 -3.3562 -0.311053 -0.95036 0.00217387
35.5392 76.5315 -3.40109 -0.332529 -0.943082 0.00466423
36.6686 76.1296 -3.39521 -0.356212 -0.934232 0.00135234
37.9077 75.6333 -3.31172 -0.378612 -0.925509 0.000458775
38.5806 75.3432 -2.83687 -0.397817 -0.917462 -0.00128697
38.7651 75.2574 -1.48669 -0.403002 -0.915185 -0.00143984
38.8023 75.245 -0.17623 -0.410195 -0.911938 -0.00455774
38.7487 75.2628 0.776415 -0.389411 -0.921045 -0.00586232
38.7051 75.2868 1.73505 -0.395591 -0.918346 0.00977704
38.633 75.3221 2.63302 -0.398261 -0.917264 0.000528358
37.7696 75.6934 3.28761 -0.384803 -0.9229 7.34236e-05
36.7764 76.0882 3.32177 -0.358551 -0.933457 -0.00511755
35.7949 76.4569 3.32666 -0.340435 -0.940136 0.0011711
34.8692 76.7592 3.28294 -0.307588 -0.951502 -0.00585481
33.978 77.0383 3.25166 -0.296258 -0.955103 -0.00316506
33.0451 77.3074 3.2345 -0.255755 -0.966702 -0.00872954
32.1193 77.5472 3.22669 -0.234778 -0.971997 -0.00587406
31.0109 77.8066 3.2536 -0.208912 -0.977713 -0.00469911
29.8698 78.0271 3.29585 -0.176276 -0.98422 -0.0045883
28.7255 78.2144 3.23317 -0.139552 -0.990006 -0.00394735
27.4147 78.3698 3.15488 -0.105035 -0.994342 -0.0131801
26.212 78.468 3.24376 -0.0734486 -0.997294 0.0030403
25.1683 78.5105 3.31916 -0.0114738 -0.999878 0.0105663
23.4578 78.5119 3.34132 0.0109767 -0.999933 -0.0035974
23.3758 78.511 3.34046 0.0248817 -0.999508 0.00725432
23.0758 78.5063 4.07754 0.0363222 -0.998854 -0.0112008
24.5998 78.5224 4.08323 0.000516403 -0.999892 -0.00634634
26.1857 78.4722 3.99299 -0.0536506 -0.998329 -0.00409264
27.225 78.3766 3.92333 -0.0963973 -0.99523 -0.0150136
28.1625 78.2751 3.95973 -0.113669 -0.993454 -0.0113335
29.1839 78.1328 4.04062 -0.165498 -0.98618 -0.00576804
30.1782 77.9682 4.09224 -0.176277 -0.98422 -0.00459511
31.3187 77.7339 4.00769 -0.221552 -0.9751 -0.00275738
32.7662 77.3745 3.98458 -0.25616 -0.966599 -0.00822549
33.7988 77.0846 4.00225 -0.28876 -0.957347 -0.0102039
34.7889 76.7775 4.03911 -0.316291 -0.948562 -0.00866113
35.9477 76.3962 4.05099 -0.312409 -0.949767 -0.0185431
36.8873 76.0375 4.08741 -0.365836 -0.93064 -0.00859025
38.3547 75.4365 4.02812 -0.39846 -0.91718 -0.00332697
39.1836 75.0751 3.72252 -0.423154 -0.906044 -0.00494363
39.3377 75.0063 2.73025 -0.427828 -0.90386 0.000777407
39.3808 74.9851 1.46499 -0.427566 -0.903984 0.000243669
39.4667 74.939 0.113008 -0.419445 -0.907761 0.00602861
39.4724 74.9453 -1.10193 -0.402988 -0.915191 -0.00144632
39.4007 74.9747 -2.46344 -0.418398 -0.908234 -0.00198239
39.3127 75.0225 -3.37359 -0.403362 -0.91504 5.65511e-05
38.8861 75.2105 -3.97431 -0.401105 -0.916029 -4.68453e-05
37.8606 75.651 -4.11328 -0.381227 -0.92441 0.00269915
36.9669 76.0083 -4.13816 -0.368773 -0.929509 0.0025229
35.983 76.3716 -4.15011 -0.331868 -0.943321 0.00291754
35.0851 76.688 -4.12202 -0.325137 -0.945629 0.00212694
33.6294 77.1558 -4.09458 -0.279372 -0.959809 0.00648678
32.5245 77.4452 -4.12641 -0.239484 -0.970804 0.00367904
31.5601 77.6746 -4.16705 -0.233972 -0.972123 -0.0153135
30.1361 77.9652 -4.07322 -0.178035 -0.983915 -0.0146856
28.8828 78.1836 -4.01208 -0.145183 -0.9894 -0.000152592
27.9389 78.3199 -3.98725 -0.142916 -0.989733 0.00207926
26.5682 78.4638 -3.97127 -0.0710093 -0.997248 0.00379348
25.4558 78.52 -4.04493 -0.0494224 -0.998777 0.000789972
24.477 78.5401 -4.09808 -0.00290963 -0.999863 0.00127247
23.2653 78.509 -4.08746 0.0266126 -0.999542 0.0143936
22.1842 78.4264 -4.07801 0.109409 -0.993946 0.0100558
20.9773 78.2891 -4.01215 0.12816 -0.991717 -0.0050577
19.9825 78.1634 -3.99794 0.163574 -0.985768 0.000555676
18.8516 77.9331 -4.07644 0.218131 -0.975435 0.0149037
17.6456 77.64 -4.05185 0.255422 -0.966352 -0.0158087
16.636 77.3497 -3.73105 0.272578 -0.962133 -0.00128139
16.4677 77.314 -2.84471 0.303397 -0.952848 -0.00549602
16.4207 77.3013 -1.81006 0.304203 -0.952555 0.00911825
16.3933 77.2911 -0.740374 0.277458 -0.960605 -0.00178765
16.3974 77.301 0.4255 0.297505 -0.954688 0.00300755
16.3544 77.2909 1.57213 0.285254 -0.958447 -0.00314824
16.2923 77.2875 2.63112 0.274748 -0.96141 0.00525673
16.6525 77.374 3.80587 0.263008 -0.964743 -0.00994307
17.6351 77.6396 3.86971 0.257666 -0.966115 -0.0151888
18.6952 77.9085 3.84175 0.220107 -0.975454 0.00501477
19.5626 78.1012 3.99195 0.201173 -0.979362 0.0101972
20.4924 78.245 4.11573 0.150068 -0.988544 -0.016162
21.4023 78.3637 4.13884 0.0992598 -0.994796 -0.0128451
22.7345 78.485 4.0809 0.0806468 -0.996354 -0.00455808
22.6644 78.4621 4.82595 0.0620668 -0.997766 -0.0247276
21.4808 78.37 4.86287 0.104799 -0.99449 0.00265433
19.977 78.159 4.85943 0.148214 -0.988909 -0.00956366
19.0345 77.9794 4.66726 0.213355 -0.976904 -0.0117398
18.0405 77.7407 4.60418 0.256709 -0.966482 -0.00346329
16.9814 77.4542 4.79704 0.264322 -0.964397 -0.00846927
15.9791 77.1729 4.68451 0.303018 -0.952708 -0.00942394
15.6032 77.0464 3.84457 0.320212 -0.947345 -0.00163825
15.557 77.0371 2.86097 0.327312 -0.94487 -0.00923898
15.6309 77.0764 1.6232 0.305637 -0.9518 0.00182551
15.6535 77.0721 0.492622 0.294843 -0.955497 0.00963007
15.6712 77.0756 -0.409862 0.300165 -0.95388 -0.00360791
15.6929 77.0731 -1.51678 0.315713 -0.948798 0.0104168
15.7184 77.0732 -2.46666 0.306335 -0.951908 -0.00450668
15.7378 77.0829 -3.39643 0.309504 -0.950895 -0.00178652
15.7806 77.0912 -4.31159 0.305362 -0.952207 0.00748885
17.0221 77.4675 -4.76103 0.280398 -0.959793 -0.0131794
18.0447 77.7496 -4.84814 0.22447 -0.974374 -0.00937845
18.9433 77.9508 -4.83752 0.209914 -0.977679 -0.00146964
20.0087 78.1674 -4.7109 0.162705 -0.986225 0.000512655
21.4324 78.3578 -4.76799 0.114078 -0.993255 -0.011829
22.6878 78.4795 -4.81166 0.08278 -0.996472 0.00136868
23.9654 78.5344 -4.87543 0.0347316 -0.999274 -0.0156712
24.9746 78.5317 -4.83179 -0.0113622 -0.999912 0.00358688
26.0406 78.4905 -4.76198 -0.0494247 -0.998777 0.000800377
27.0448 78.4141 -4.7303 -0.0915503 -0.995771 0.00765209
28.3333 78.2651 -4.76434 -0.140085 -0.989994 -0.0169589
29.2546 78.1318 -4.78593 -0.162681 -0.986627 -0.00611179
30.2207 77.9616 -4.85418 -0.178038 -0.983914 -0.0146891
31.1619 77.7753 -4.9382 -0.214387 -0.976727 -0.0065274
32.1051 77.5512 -4.94205 -0.245874 -0.969302 -0.000171721
33.1376 77.2801 -4.85217 -0.262857 -0.964828 -0.00363683
34.2628 76.9496 -4.82758 -0.304312 -0.952559 0.00501873
35.5144 76.5334 -4.88988 -0.330132 -0.943914 0.00621597
36.5146 76.1823 -4.8776 -0.3491 -0.936896 0.00398133
37.6207 75.7469 -4.87106 -0.368773 -0.929509 0.0025229
38.858 75.2227 -4.84388 -0.404452 -0.914438 0.00246233
39.9115 74.7462 -4.51041 -0.415402 -0.909527 0.014188
40.0665 74.6753 -3.229 -0.441358 -0.897316 0.00517856
40.1212 74.6467 -1.82413 -0.425757 -0.904789 0.000889104
40.1448 74.6311 -0.523033 -0.433316 -0.901239 -0.00221223
40.1466 74.6267 0.392824 -0.42355 -0.905847 0.00100942
40.0707 74.6591 1.41263 -0.427232 -0.904142 -9.4724e-05
40.0273 74.6796 2.44155 -0.427827 -0.90386 0.000778515
39.9859 74.7006 3.69585 -0.425455 -0.904969 -0.00198579
39.7394 74.8149 4.5721 -0.419282 -0.907843 -0.00238353
38.3879 75.4193 4.81272 -0.39932 -0.916795 -0.00505827
37.0887 75.957 4.84595 -0.361809 -0.93225 -0.00200313
36.1802 76.3087 4.79092 -0.335822 -0.941743 -0.0012893
35.0129 76.7028 4.79475 -0.320174 -0.947358 0.00122082
34.1417 76.9795 4.77304 -0.285566 -0.958358 -0.00120918
33.2654 77.2367 4.7236 -0.267249 -0.963507 -0.00835692
31.8873 77.601 4.74036 -0.242882 -0.969941 -0.00335077
30.5153 77.9036 4.82504 -0.201628 -0.979374 -0.0031223
29.2009 78.1287 4.77517 -0.168198 -0.985752 -0.00155243
28.239 78.261 4.70544 -0.110665 -0.993835 -0.00673155
27.0289 78.3918 4.68756 -0.0995707 -0.995023 0.00381933
25.9126 78.4761 4.77229 -0.036334 -0.999314 -0.00710636
24.7115 78.5102 4.82513 -0.00954784 -0.999842 -0.0149939
23.465 78.5121 4.81949 0.0363191 -0.998854 -0.0112108
22.9886 78.4824 4.82302 0.0620668 -0.997766 -0.0247276
22.8078 78.4636 5.56547 0.0585092 -0.998277 -0.00435724
21.5511 78.3767 5.59185 0.0960657 -0.995362 -0.00509437
20.2934 78.1994 5.68366 0.16759 -0.985831 0.000332917
19.0865 77.9812 5.46388 0.214049 -0.976748 -0.0120512
17.7583 77.6628 5.41257 0.261059 -0.965292 -0.00584277
16.8187 77.4028 5.57539 0.26433 -0.964394 -0.00846745
15.4955 77.0105 5.55278 0.303018 -0.952708 -0.00942335
14.9147 76.8128 4.4036 0.334243 -0.942314 -0.00662593
14.8361 76.7883 3.39408 0.318233 -0.948011 -0.00193642
14.8807 76.8082 2.46197 0.321664 -0.946797 -0.00943295
14.9317 76.8371 1.5085 0.325404 -0.945509 -0.011212
14.9257 76.8353 0.596548 0.322279 -0.946643 0.00148193
14.9521 76.84 -0.487471 0.324649 -0.945731 0.00688226
14.9727 76.8296 -1.86951 0.312157 -0.949993 0.00407661
14.9986 76.8407 -2.88696 0.309268 -0.950968 -0.00349323
14.9408 76.8234 -4.12644 0.307552 -0.951514 0.00370449
15.0667 76.8681 -5.23536 0.313967 -0.949431 -0.00210258
15.991 77.1641 -5.49536 0.295448 -0.955344 -0.00538071
17.1599 77.5153 -5.54174 0.281603 -0.959495 -0.00828138
18.4099 77.8273 -5.61255 0.227451 -0.97361 0.0186969
19.5761 78.0789 -5.51821 0.191777 -0.981427 0.0048233
20.8093 78.2781 -5.44593 0.133632 -0.991024 -0.00379818
21.7488 78.3935 -5.50857 0.0949235 -0.995472 -0.0050514
22.9668 78.4931 -5.59817 0.0706421 -0.997471 0.00780381
24.0156 78.5326 -5.62557 -0.00429356 -0.999957 -0.000811738
24.9927 78.5306 -5.59424 -0.00494988 -0.999961 -0.00624711
26.1285 78.4889 -5.52196 -0.054085 -0.998492 -0.00543808
27.2672 78.4012 -5.48595 -0.0845901 -0.996342 -0.012134
28.5246 78.2514 -5.54738 -0.147443 -0.988959 -0.0118453
29.5904 78.0781 -5.57587 -0.170575 -0.98533 -0.0054665
30.5445 77.9137 -5.63822 -0.190738 -0.981343 -0.00126998
31.5182 77.697 -5.72901 -0.217907 -0.975967 0.00206536
32.6529 77.4124 -5.6697 -0.245579 -0.969376 0.000419529
33.6832 77.1309 -5.58734 -0.286129 -0.957989 0.00445143
34.6078 76.8352 -5.60634 -0.304427 -0.952523 0.00489093
35.7109 76.4601 -5.64687 -0.32945 -0.944165 0.00389853
36.9884 75.9905 -5.60516 -0.367081 -0.930159 0.00750371
38.3374 75.4406 -5.60535 -0.390819 -0.920457 0.00445463
39.6554 74.8553 -5.56229 -0.418487 -0.908218 0.00231245
40.6125 74.4048 -5.22913 -0.449787 -0.893123 0.0047924
40.7487 74.3374 -4.32329 -0.441319 -0.897341 -0.00414364
40.7583 74.3351 -3.21954 -0.441357 -0.897317 0.00517805
40.7892 74.3258 -1.89999 -0.440137 -0.897883 0.00166345
40.8043 74.3151 -0.990525 -0.433327 -0.901232 -0.00277431
40.7911 74.31 0.420822 -0.444086 -0.895943 -0.00394413
40.7411 74.3381 1.58806 -0.436665 -0.899617 -0.00370035
40.6784 74.3635 2.76763 -0.438124 -0.898909 -0.00178148
40.6765 74.3604 3.96962 -0.443614 -0.896184 -0.00777482
40.5837 74.4208 5.11935 -0.438645 -0.898438 0.0199932
39.5613 74.8919 5.49065 -0.412091 -0.911142 -0.000476354
38.4142 75.4021 5.57971 -0.401223 -0.915967 -0.0038958
37.3285 75.8611 5.63634 -0.361795 -0.932245 -0.0047861
36.4636 76.1963 5.57757 -0.356786 -0.934158 -0.00539916
35.247 76.6263 5.56322 -0.319153 -0.947694 0.004138
33.9313 77.0338 5.52032 -0.276746 -0.960902 -0.00322458
32.541 77.4235 5.48865 -0.253838 -0.967212 -0.00776821
31.5489 77.6757 5.52067 -0.213769 -0.976883 -0.00186252
30.5502 77.8889 5.56989 -0.201398 -0.979451 -0.0107277
29.5031 78.0769 5.55223 -0.167758 -0.985828 0.000597856
28.4833 78.2339 5.47369 -0.118916 -0.992896 0.00394411
27.4922 78.349 5.42077 -0.0983787 -0.995138 0.00471988
26.4721 78.4506 5.49329 -0.0679579 -0.997168 -0.0016514
25.1804 78.4972 5.5469 -0.0263962 -0.999572 -0.0076976
23.9127 78.5127 5.56899 -0.00951881 -0.999955 0.00047054
23.4703 78.5024 5.56704 0.0585092 -0.998277 -0.00435724
23.7277 78.5145 6.30731 0.035468 -0.999081 0.00759468
25.2262 78.4904 6.26979 -0.0263963 -0.999572 -0.0076975
26.4024 78.4529 6.23012 -0.0543063 -0.998215 0.000468557
27.6048 78.3408 6.18688 -0.106574 -0.994265 -0.000813969
28.6229 78.22 6.24075 -0.1413 -0.989701 -0.000974013
29.5513 78.0657 6.30724 -0.163223 -0.986578 -0.00466991
30.8052 77.8286 6.30933 -0.202504 -0.979271 -0.00454192
31.8419 77.5977 6.2864 -0.250569 -0.968071 -0.00460344
33.0145 77.2967 6.27822 -0.260029 -0.965529 0.000237474
34.2543 76.9455 6.30347 -0.290692 -0.956639 -0.00178363
35.5581 76.5247 6.29773 -0.313146 -0.949662 -0.00201189
36.6693 76.1132 6.3472 -0.356786 -0.934158 -0.00539916
37.5942 75.7555 6.42434 -0.373213 -0.92761 -0.00370964
38.6871 75.2841 6.30006 -0.401092 -0.916019 0.00595166
40.0122 74.6876 6.26039 -0.411926 -0.911212 0.00254703
40.8238 74.3114 6.19134 -0.43481 -0.900345 -0.00915825
41.3891 74.0207 5.47473 -0.463155 -0.886249 0.00706042
41.3965 73.9985 4.09819 -0.451322 -0.892325 -0.00162219
41.3442 74.034 3.14035 -0.45742 -0.889217 -0.0037355
41.4034 74.0156 1.83374 -0.43672 -0.899589 -0.00385021
41.4192 73.9971 0.652233 -0.455943 -0.889951 0.00463247
41.4279 74.0029 -0.259327 -0.454666 -0.890593 -0.0110643
41.4444 74.0029 -1.29295 -0.453801 -0.891057 0.00302195
41.4438 73.9951 -2.38035 -0.446681 -0.894681 0.00388947
41.4257 74.0025 -3.73652 -0.454085 -0.890901 0.00419636
41.4158 74.0026 -4.7641 -0.449844 -0.893095 0.00462353
41.0637 74.1731 -6.05134 -0.448671 -0.893689 0.00333855
39.6967 74.8331 -6.34339 -0.420001 -0.907519 0.00179325
38.5951 75.3303 -6.37594 -0.38947 -0.921032 -0.00352498
37.122 75.9321 -6.32218 -0.366837 -0.930276 0.0041738
36.2694 76.2623 -6.34596 -0.328269 -0.944553 0.00691417
35.0616 76.6799 -6.38801 -0.327079 -0.944945 0.00991102
33.6728 77.1306 -6.33195 -0.286124 -0.95799 0.00445136
32.7214 77.3936 -6.41315 -0.266191 -0.963905 0.00549553
31.6531 77.6645 -6.50004 -0.245026 -0.969516 0.000556803
30.4319 77.9322 -6.40257 -0.212764 -0.977073 0.00768787
29.3633 78.1231 -6.32895 -0.16061 -0.986951 -0.00256003
28.3376 78.2816 -6.29899 -0.148765 -0.988846 0.00602189
27.2074 78.409 -6.23841 -0.104778 -0.994433 -0.00842636
26.3013 78.4796 -6.27343 -0.0607233 -0.998153 -0.00158192
25.0545 78.533 -6.35534 -0.00804865 -0.99996 -0.00383945
24.0466 78.5393 -6.40349 0.0122375 -0.99977 0.00180783
22.9962 78.4954 -6.3717 0.0748738 -0.997171 -0.00655901
21.9539 78.4166 -6.28269 0.0821802 -0.996577 -0.00161718
21.0583 78.3063 -6.17713 0.123693 -0.9923 0.0064533
19.62 78.0862 -6.27541 0.188694 -0.982032 -0.0027837
18.4084 77.8214 -6.3529 0.238219 -0.971193 -0.00599044
17.2237 77.5215 -6.31247 0.252496 -0.967551 -0.00951811
16.1875 77.2281 -6.2941 0.298304 -0.95447 0.00131719
15.3239 76.958 -6.27306 0.305948 -0.952005 -0.00274954
14.266 76.6056 -5.78361 0.327862 -0.944556 0.00163346
14.1593 76.5592 -4.87651 0.336193 -0.941698 -0.0133948
14.2261 76.5783 -3.89333 0.338704 -0.940769 0.0152732
14.2575 76.6001 -2.94296 0.336957 -0.941018 -0.00531164
14.2524 76.586 -1.58812 0.363416 -0.931606 -0.00429789
14.248 76.5903 -0.0638551 0.334899 -0.942227 0.00544336
14.2416 76.596 1.23003 0.379155 -0.925332 -0.00148057
14.1992 76.5812 2.27953 0.349453 -0.936332 -0.00259605
14.1203 76.5336 3.72888 0.347051 -0.93761 -0.0210287
14.2326 76.5501 5.0146 0.347592 -0.937527 -0.0149353
14.4535 76.6258 5.97174 0.348918 -0.937127 0.00703532
15.6832 77.064 6.37057 0.308842 -0.950698 -0.00879743
16.5818 77.3322 6.35444 0.286226 -0.958162 0.000909436
17.5241 77.5947 6.22874 0.260639 -0.965425 0.00464254
18.7807 77.9048 6.18853 0.214725 -0.976596 -0.0123663
19.9004 78.1293 6.38097 0.172686 -0.984971 0.00333009
20.9262 78.3028 6.4212 0.158259 -0.987397 -0.000429857
22.0885 78.4249 6.31487 0.0981387 -0.995165 -0.00141029
22.9324 78.4719 6.30628 0.0534511 -0.998336 0.0216603
23.1222 78.4989 7.08201 0.0354776 -0.999081 0.00759072
24.0328 78.5149 7.0686 0.000607835 -0.999836 6.39159e-05
25.4674 78.4891 7.03726 -0.0192083 -0.999806 0.00446996
26.7977 78.4143 7.11908 -0.0772739 -0.996969 -0.0089898
27.7685 78.3199 7.00401 -0.115239 -0.993335 -0.00235447
29.1823 78.1238 7.06392 -0.162323 -0.986726 -0.00463524
30.2678 77.9343 7.12352 -0.200576 -0.979657 -0.00650578
31.5292 77.6754 7.06291 -0.223705 -0.974404 -0.004318
32.9812 77.3059 7.21408 -0.260033 -0.965528 0.000236194
33.9708 77.0269 7.00024 -0.280322 -0.959842 -0.00446091
35.4184 76.5743 7.0928 -0.319975 -0.947285 0.00224827
36.3475 76.2352 7.07058 -0.352761 -0.935712 0.00152054
37.1799 75.9188 7.27883 -0.373205 -0.927613 -0.00371669
38.6327 75.3131 7.10607 -0.393477 -0.919256 -0.00243774
39.5544 74.895 7.07022 -0.422697 -0.906245 -0.0068253
40.4511 74.4764 7.11742 -0.421877 -0.906623 -0.00733197
41.2436 74.0909 7.02314 -0.446316 -0.894833 -0.00794227
42.1202 73.6517 6.20761 -0.455209 -0.890338 0.00159337
42.0671 73.6683 5.11201 -0.448594 -0.893715 0.00611465
42.22 73.5826 3.78774 -0.451316 -0.892328 -0.00162447
42.0733 73.667 2.42552 -0.459943 -0.887904 -0.00825307
42.1232 73.6396 1.27544 -0.455945 -0.88995 0.00463101
42.1313 73.6386 0.159337 -0.452824 -0.891562 -0.00676396
42.1485 73.6375 -1.32112 -0.4606 -0.887608 -0.00053403
42.1413 73.6386 -2.69401 -0.462665 -0.886509 0.00650028
42.1427 73.6302 -3.74702 -0.460011 -0.887909 0.00278472
42.1024 73.6463 -5.18699 -0.459472 -0.888188 0.00248485
42.0289 73.6814 -6.41296 -0.458962 -0.888453 0.0022639
41.4073 74.0011 -6.96494 -0.446608 -0.894477 -0.00708258
40.4991 74.4515 -7.0306 -0.447163 -0.894421 0.00748535
39.6029 74.8767 -7.12293 -0.423183 -0.906018 0.00437064
38.4839 75.3803 -7.14702 -0.382417 -0.923937 0.00232291
37.4511 75.7988 -7.10912 -0.371096 -0.928561 0.00615829
36.1113 76.3142 -7.10782 -0.353182 -0.935434 0.0150047
35.1677 76.641 -7.15293 -0.318416 -0.947918 0.00133271
33.9349 77.044 -7.10583 -0.307184 -0.951648 -0.00195138
33.0415 77.3008 -7.12682 -0.266312 -0.963863 0.00674113
32.0528 77.5582 -7.20239 -0.239788 -0.970764 0.0109378
31.1321 77.7725 -7.21342 -0.213205 -0.976964 0.00919206
30.001 78.02 -7.11029 -0.183661 -0.982492 0.0126198
28.7695 78.2102 -7.19898 -0.152592 -0.988276 0.00512258
27.628 78.3796 -7.1442 -0.123803 -0.992008 -0.00432423
26.7053 78.4544 -7.04909 -0.060549 -0.998165 0.00100186
25.158 78.5373 -7.08307 -0.0268187 -0.999364 0.00436444
23.8391 78.5255 -7.1193 0.0276577 -0.999563 0.01047
22.5333 78.4658 -7.14709 0.0821854 -0.996577 -0.00162473
21.52 78.3751 -7.02411 0.0894968 -0.995982 0.00330944
20.6234 78.2654 -6.89154 0.122991 -0.992209 -0.0198505
19.6226 78.087 -7.13006 0.180145 -0.983626 0.00526032
18.5491 77.8609 -7.16739 0.2395 -0.970883 -0.00484615
17.6111 77.628 -7.09579 0.24078 -0.970573 -0.00369769
16.5114 77.3268 -7.11234 0.285334 -0.958413 0.00530875
15.5242 77.0194 -7.1454 0.298748 -0.954331 0.00149936
14.5315 76.6884 -7.13819 0.342463 -0.939523 0.00405305
13.674 76.3785 -6.80776 0.359011 -0.933134 0.00305468
13.4066 76.2661 -5.8964 0.37545 -0.926833 -0.00418058
13.3775 76.2712 -4.80495 0.376897 -0.925936 0.0243229
13.5361 76.3338 -3.65393 0.341593 -0.939772 0.0106053
13.4312 76.2729 -2.6146 0.360509 -0.932564 -0.0163494
13.4526 76.2758 -1.45784 0.361517 -0.932365 -0.000235579
13.5498 76.3202 -0.560972 0.37245 -0.927941 -0.00185737
13.5153 76.2996 0.609759 0.380092 -0.924948 -0.000910551
13.4677 76.2784 1.63309 0.379181 -0.925322 -0.00119861
13.4552 76.275 2.56943 0.383045 -0.92373 -0.000210768
13.4198 76.2601 3.49443 0.379998 -0.924953 -0.00523102
13.4428 76.2558 4.84597 0.366482 -0.930264 -0.0135745
13.5207 76.2692 5.76202 0.358322 -0.933593 -0.00306386
13.964 76.4537 6.92421 0.354535 -0.934876 0.0176522
14.9382 76.8015 7.11007 0.32958 -0.944122 0.00335856
16.3555 77.2643 7.14359 0.292088 -0.956371 -0.00631014
17.5254 77.599 7.04883 0.263492 -0.964627 0.00715463
18.5529 77.8612 6.93481 0.217407 -0.976043 0.00868
19.8033 78.1147 7.11327 0.172683 -0.984972 0.0033346
20.7624 78.2762 7.1646 0.1622 -0.986743 -0.00274381
21.6551 78.3817 7.1456 0.100954 -0.994891 0.000895476
22.2933 78.4464 7.09302 0.100954 -0.994891 0.000895476
22.4682 78.4641 7.09302 0.077205 -0.996613 0.0112769
