-6.76596 84.3233 0.0986261 0.0266793 -0.999618 0.00727077
-6.90751 84.3193 0.928119 0.0232247 -0.999729 -0.00180502
-7.95081 84.3185 0.908433 -0.0220881 -0.999726 -0.00772396
-9.17524 84.3622 0.960422 -0.0773622 -0.996838 0.0127918
-10.3805 84.489 0.833974 -0.140766 -0.990041 -0.00215587
-11.5788 84.701 0.888705 -0.221904 -0.974732 -0.0255987
-12.6755 84.9763 0.853356 -0.262228 -0.96493 -0.00839623
-13.9339 85.3647 0.896582 -0.33592 -0.941869 -0.00117806
-15.0563 85.7872 0.870915 -0.404291 -0.914627 0.00246372
-16.0438 86.2236 0.853725 -0.405337 -0.91416 -0.000857269
-17.388 86.8571 0.87045 -0.426332 -0.90456 0.00358289
-18.3091 87.3063 0.924094 -0.444133 -0.895959 -0.00102838
-19.3001 87.7988 0.877083 -0.445055 -0.895503 -5.95572e-05
-20.2238 88.2578 0.915027 -0.445398 -0.89533 -0.00188469
-21.4031 88.8414 0.847409 -0.443501 -0.896272 0.00190448
-22.2527 89.2507 0.876814 -0.42589 -0.90475 -0.00209471
-23.0965 89.6326 0.940252 -0.405598 -0.914017 -0.00798842
-23.9396 90.0052 1.00655 -0.379796 -0.925056 0.00119223
-24.809 90.3593 1.01445 -0.377742 -0.925786 0.0152276
-25.9476 90.7986 1.02927 -0.338286 -0.941038 0.0026433
-27.0814 91.1778 1.03261 -0.289746 -0.957097 -0.000313001
-28.1173 91.4781 1.12611 -0.266425 -0.963842 -0.0049416
-29.1288 91.7329 1.17135 -0.223217 -0.974759 0.0043017
-30.157 91.9712 1.11368 -0.226913 -0.973843 0.0118854
-31.5035 92.249 1.05417 -0.180685 -0.983517 -0.00690777
-32.3429 92.4016 0.276863 -0.163133 -0.986542 0.00256417
-32.268 92.3844 -0.86246 -0.172467 -0.98501 0.000488034
-31.3948 92.2333 -1.10578 -0.171232 -0.985228 -0.00247611
-29.9854 91.9416 -1.12733 -0.216249 -0.976267 0.00349795
-28.6677 91.6345 -1.04362 -0.230092 -0.973152 -0.00183272
-27.7782 91.38 -0.992016 -0.276039 -0.961146 -0.000802168
-26.8991 91.1274 -0.890004 -0.299687 -0.95368 0.00536369
-25.608 90.6714 -0.86315 -0.337776 -0.941216 -0.00448706
-24.7565 90.3492 -0.937421 -0.367752 -0.929818 -0.000911458
-23.8284 89.9641 -0.992585 -0.396009 -0.918186 -0.00255873
-22.7807 89.4947 -0.959327 -0.413674 -0.910398 0.0069732
-21.8132 89.0417 -0.924026 -0.438795 -0.898586 0.0004649
-20.8042 88.5493 -0.889493 -0.438531 -0.898716 -0.000567437
-19.9113 88.1067 -0.936562 -0.447509 -0.894278 -0.00143166
-18.9366 87.6202 -0.944928 -0.445744 -0.895158 -0.00222151
-18.0714 87.1929 -0.912508 -0.442147 -0.896943 -0.000408037
-16.7278 86.5495 -0.856652 -0.421924 -0.906626 -0.00318415
-15.6179 86.0465 -0.959725 -0.398395 -0.917213 -0.00127839
-14.6007 85.6139 -0.996021 -0.367261 -0.929842 -0.0141659
-13.6159 85.2457 -0.867409 -0.325281 -0.945313 -0.00129175
-12.4197 84.8654 -0.887479 -0.284219 -0.958336 0.0114801
-11.0113 84.5952 -0.829365 -0.185603 -0.982592 -0.00801482
-9.70393 84.4088 -0.836029 -0.0950199 -0.994874 -0.0141558
-8.43993 84.3264 -0.856526 -0.0579746 -0.998244 -0.00891372
-7.12889 84.3064 -0.89369 0.00904162 -0.99979 0.00401205
-5.8462 84.3496 -0.894986 0.0358306 -0.999358 0.000582626
-4.55187 84.4774 -0.867694 0.14294 -0.989676 -0.00286864
-3.3709 84.6589 -0.898367 0.164735 -0.986097 -0.0116381
-2.42505 84.871 -0.914296 0.231464 -0.972841 -0.00229755
-1.2082 85.2381 -0.898363 0.347451 -0.937698 -4.37059e-06
-0.350747 85.5558 -0.842471 0.350479 -0.936551 -0.00363498
0.765525 86.0626 -0.797183 0.431097 -0.902306 -0.000282662
1.69757 86.5171 -0.861444 0.449213 -0.893334 0.00515511
2.63956 87.027 -0.945157 0.48295 -0.875634 -0.00488038
3.84547 87.6908 -0.935567 0.486135 -0.873858 0.00017521
4.54095 88.0861 -0.209985 0.492373 -0.870361 -0.00194888
4.29884 87.9421 0.841246 0.496613 -0.867966 -0.0032692
3.43635 87.4505 1.03983 0.485295 -0.874336 -0.00450911
2.61421 86.9963 1.03253 0.478182 -0.878244 -0.00542757
1.67638 86.5019 1.06691 0.450359 -0.892719 -0.0137961
0.495752 85.9354 0.957985 0.417067 -0.908804 -0.0114207
-0.367859 85.5548 0.933974 0.359905 -0.932972 0.00569752
-1.40866 85.1755 0.818726 0.333244 -0.942821 0.006144
-2.60617 84.7997 0.832073 0.202171 -0.978287 0.00545035
-3.86787 84.5806 0.943651 0.157635 -0.987232 -0.0190241
-5.05354 84.4171 0.961892 0.0929893 -0.99458 -0.0239604
-5.96815 84.3619 0.931748 0.0719501 -0.997375 0.0081616
-6.39192 84.3313 0.930313 0.0475885 -0.998552 0.00318106
-6.38873 84.3307 1.66586 0.0355379 -0.999259 -0.00545615
-5.05491 84.399 1.70863 0.0929867 -0.99458 -0.0239704
-4.04789 84.5437 1.69502 0.146336 -0.989142 -0.0135353
-2.73722 84.7966 1.61841 0.235396 -0.971254 0.035419
-1.64814 85.096 1.6015 0.328706 -0.944408 0.00152585
-0.664852 85.4422 1.63204 0.362177 -0.932103 0.00353389
0.354327 85.8654 1.70335 0.41029 -0.911914 0.00860321
1.47326 86.3946 1.76884 0.448787 -0.893638 0.000812816
2.34515 86.8469 1.79408 0.47435 -0.880322 0.00506787
3.34783 87.3987 1.75989 0.486656 -0.873589 -0.00291393
4.48304 88.0404 1.63652 0.497235 -0.867572 -0.00875142
5.1275 88.417 1.13645 0.511376 -0.859345 -0.00395921
5.19959 88.4677 0.185048 0.511387 -0.85932 -0.00729339
5.02128 88.3617 -1.31847 0.502514 -0.864567 -0.00149628
4.33752 87.9649 -1.65091 0.496539 -0.867986 0.0017185
3.54407 87.5283 -1.66558 0.48128 -0.87656 -0.00359419
2.68815 87.0577 -1.64089 0.481937 -0.876174 -0.00701547
1.64473 86.4985 -1.62913 0.445215 -0.895302 -0.0147672
0.459675 85.9164 -1.58962 0.43156 -0.902084 0.00036704
-0.669417 85.4416 -1.64528 0.353497 -0.935407 -0.0072794
-1.81393 85.0491 -1.65319 0.280869 -0.959133 -0.0343128
-2.85753 84.7698 -1.62366 0.204492 -0.978323 -0.0135307
-4.09531 84.5465 -1.62502 0.164728 -0.986098 -0.0116468
-5.40959 84.367 -1.62678 0.107043 -0.993762 0.00694668
-6.38516 84.3301 -1.66954 0.0356013 -0.999366 -0.000264119
-7.30578 84.3013 -1.65457 -0.00332368 -0.999924 0.0118691
-8.70155 84.3494 -1.58911 -0.0508526 -0.998619 -0.0132108
-9.81735 84.4411 -1.5898 -0.124946 -0.99188 -0.0237089
-10.7835 84.5622 -1.60301 -0.146603 -0.988596 -0.0226977
-12.0173 84.7947 -1.62234 -0.187261 -0.982222 -0.0131457
-13.3409 85.1636 -1.64871 -0.302876 -0.953005 -0.00689879
-14.3699 85.5335 -1.70469 -0.367266 -0.929841 -0.0141573
-15.2044 85.8795 -1.7125 -0.382771 -0.923628 -0.0199136
-16.2928 86.3499 -1.66145 -0.421386 -0.906878 -0.00233838
-17.4908 86.9056 -1.63669 -0.42084 -0.907133 -0.00149413
-18.3388 87.3235 -1.66307 -0.444852 -0.8956 0.00151048
-19.1703 87.7378 -1.68761 -0.445884 -0.895091 -7.70419e-05
-20.1918 88.2458 -1.66567 -0.444322 -0.895866 -0.00169008
-21.4184 88.8496 -1.65508 -0.438795 -0.898587 -0.000406068
-22.2425 89.2461 -1.69847 -0.412387 -0.910997 0.00455562
-23.241 89.698 -1.71811 -0.413031 -0.910698 0.00576856
-24.3653 90.1957 -1.70509 -0.379158 -0.925 0.000657788
-25.6753 90.6964 -1.63196 -0.35612 -0.934425 -0.00447881
-26.7964 91.0827 -1.67888 -0.323343 -0.946212 0.0115205
-27.8863 91.4116 -1.75941 -0.275989 -0.961161 -0.000743341
-28.7639 91.6585 -1.79804 -0.223917 -0.974604 -0.00265625
-29.8403 91.9059 -1.82655 -0.225546 -0.974228 1.72327e-07
-31.2725 92.2121 -1.83583 -0.193588 -0.980945 -0.000386884
-32.1725 92.3687 -1.82906 -0.169762 -0.985485 -0.000294469
-33.1352 92.5253 -1.33598 -0.157204 -0.987561 -0.000204793
-33.1814 92.5299 -0.42981 -0.154106 -0.98805 -0.00064022
-33.1024 92.5147 0.80051 -0.14513 -0.989377 -0.00844925
-32.6117 92.4434 1.70475 -0.143688 -0.98962 0.00262061
-31.1631 92.1811 1.82022 -0.183291 -0.98302 -0.00819663
-29.8491 91.9088 1.87986 -0.228033 -0.973584 0.0115767
-28.958 91.6995 1.9207 -0.231243 -0.972857 0.00768298
-28.066 91.461 1.86149 -0.265457 -0.964115 -0.00396532
-26.9591 91.1425 1.75612 -0.291321 -0.956622 0.00266962
-25.9125 90.7863 1.75196 -0.336966 -0.941511 -0.00339839
-24.7977 90.3673 1.77818 -0.38178 -0.924176 0.00955095
-23.7356 89.923 1.75344 -0.385813 -0.922569 0.00386672
-22.8441 89.5247 1.69213 -0.413683 -0.910359 0.00606682
-21.9409 89.0982 1.62407 -0.432387 -0.901688 -0.000524645
-21.0457 88.6662 1.60443 -0.444719 -0.895667 0.00026122
-19.6744 87.9829 1.65089 -0.445395 -0.895332 -0.00187231
-18.6038 87.4529 1.66144 -0.442952 -0.896542 0.00233015
-17.5564 86.9417 1.65093 -0.437256 -0.899322 0.00496834
-16.7091 86.541 1.64856 -0.425174 -0.905094 0.00558678
-15.8525 86.1429 1.64849 -0.405565 -0.914054 0.00478514
-14.7986 85.6754 1.67506 -0.404928 -0.914341 0.00362443
-13.8098 85.3208 1.66664 -0.325649 -0.945391 0.0137131
-12.9337 85.0339 1.6749 -0.281967 -0.959147 5.18782e-05
-12.0105 84.7893 1.66651 -0.230173 -0.973044 -0.0143477
-10.7338 84.5415 1.61918 -0.147231 -0.989093 0.004273
-9.21723 84.3809 1.66168 -0.0689921 -0.997362 0.0225839
-8.28892 84.3202 1.65589 -0.00820228 -0.999814 0.0025764
-7.34471 84.3235 1.66924 0.00247208 -0.999942 -0.0105087
-6.61539 84.3254 1.66891 0.0129674 -0.999833 -0.00470246
-6.77881 84.3224 2.42317 0.0234627 -0.999724 0.00110382
-7.72687 84.3146 2.42658 -0.00760634 -0.999882 -0.00201465
-8.9447 84.3597 2.40964 -0.0530266 -0.998551 0.00917398
-9.91145 84.4333 2.38809 -0.129769 -0.991404 0.0166653
-11.0779 84.5961 2.38943 -0.174667 -0.984172 0.00960057
-12.1352 84.8149 2.4329 -0.205059 -0.978498 0.0211142
-13.0256 85.0752 2.42016 -0.297773 -0.9545 0.0161571
-13.8983 85.3623 2.42177 -0.332392 -0.942802 0.0225664
-14.7905 85.6841 2.4224 -0.368469 -0.928751 0.0248086
-15.6378 86.0517 2.42797 -0.401685 -0.915672 0.0114857
-16.6352 86.5104 2.42224 -0.423363 -0.905958 0.00197212
-17.641 86.9851 2.41656 -0.435382 -0.90023 0.00288326
-18.6594 87.4829 2.42183 -0.440917 -0.897541 0.00236894
-19.7724 88.0335 2.41822 -0.445166 -0.895441 0.00328681
-20.6025 88.4473 2.42589 -0.446045 -0.895006 0.00291403
-21.8144 89.0371 2.39509 -0.431076 -0.902313 0.00101103
-22.7284 89.4712 2.46729 -0.419293 -0.907851 -4.97192e-05
-23.6612 89.8956 2.51352 -0.387713 -0.921764 0.00466173
-24.7818 90.3652 2.5199 -0.386448 -0.922284 0.00704073
-25.641 90.6864 2.51216 -0.336006 -0.941856 -0.00218537
-26.686 91.0469 2.50506 -0.30481 -0.952353 -0.010697
-27.7857 91.3897 2.56211 -0.274808 -0.961475 0.00676838
-29.217 91.7646 2.62361 -0.233318 -0.972392 0.00408615
-30.7227 92.0911 2.57452 -0.186698 -0.982406 0.0047937
-32.1369 92.3528 2.51763 -0.176708 -0.984244 0.00622309
-33.3634 92.5511 2.34936 -0.136262 -0.990663 -0.00437783
-33.8021 92.6155 1.43638 -0.139974 -0.990141 -0.000878542
-33.872 92.6296 0.517083 -0.116958 -0.993136 0.00102442
-33.92 92.6331 -0.547759 -0.117981 -0.993008 0.00396374
-33.9259 92.632 -1.77178 -0.121511 -0.99259 -0.000216265
-33.2541 92.5418 -2.46911 -0.158997 -0.987276 0.00225443
-32.1177 92.3585 -2.55666 -0.158885 -0.987294 0.00240625
-31.0868 92.1736 -2.55279 -0.178925 -0.983841 0.00650694
-30.1788 91.9834 -2.55451 -0.216856 -0.976201 -0.00209595
-29.2466 91.7718 -2.56377 -0.224751 -0.974408 -0.00406694
-28.1956 91.501 -2.54364 -0.27593 -0.961177 -0.000724646
-27.3093 91.2465 -2.46429 -0.280188 -0.95993 0.00172222
-26.083 90.8426 -2.39049 -0.314869 -0.949117 -0.00583592
-25.2074 90.5204 -2.37497 -0.354869 -0.934914 -0.00194946
-24.2346 90.1358 -2.43508 -0.39502 -0.91866 -0.000511656
-23.1058 89.6386 -2.48398 -0.409748 -0.912196 -0.00198036
-22.2351 89.2429 -2.4645 -0.421205 -0.906902 0.000909319
-21.2734 88.7788 -2.4208 -0.43904 -0.898467 -5.8181e-05
-20.1667 88.2348 -2.42306 -0.445318 -0.895371 -0.00100188
-19.2155 87.7604 -2.4311 -0.446103 -0.894982 -0.000188663
-18.2416 87.275 -2.40381 -0.446178 -0.894944 2.15839e-05
-16.9197 86.6438 -2.39098 -0.418852 -0.908003 -0.0096427
-15.6868 86.0786 -2.45286 -0.397697 -0.917269 -0.00104369
-14.5439 85.6079 -2.45204 -0.368744 -0.92939 -4.7054e-05
-13.6258 85.2743 -2.41722 -0.327951 -0.944693 0.00192695
-12.4379 84.9275 -2.40024 -0.24359 -0.969102 -0.0387949
-11.1768 84.6528 -2.36905 -0.171574 -0.98476 -0.02846
-9.92435 84.4695 -2.34654 -0.121637 -0.99243 -0.0169551
-8.39301 84.3422 -2.37391 -0.0499503 -0.998739 0.00500349
-7.46664 84.2956 -2.40855 -0.0231101 -0.999252 -0.00817296
-6.5331 84.3252 -2.43117 0.0348988 -0.999384 -0.00287333
-5.52673 84.3785 -2.39198 0.086292 -0.995778 -0.031292
-4.43823 84.5064 -2.3996 0.153387 -0.987997 -0.0183012
-3.22069 84.7154 -2.38415 0.18267 -0.983155 -0.0061835
-2.22789 84.9476 -2.3723 0.283066 -0.958985 -0.00756058
-1.3174 85.211 -2.41632 0.314059 -0.948416 -0.0188443
-0.0776144 85.6696 -2.37378 0.376147 -0.92558 -0.011247
0.9135 86.1375 -2.37724 0.433759 -0.901019 -0.00423251
1.99966 86.6884 -2.43737 0.463066 -0.88601 -0.0119575
2.81477 87.1292 -2.38591 0.477123 -0.878813 -0.00093963
4.04859 87.8083 -2.42653 0.490083 -0.871572 -0.00770609
5.07368 88.3974 -2.35401 0.498467 -0.866843 -0.010527
5.75659 88.8063 -1.73243 0.528141 -0.849126 -0.00725063
5.82635 88.8419 -0.68026 0.528779 -0.848741 -0.00554031
5.82531 88.8393 0.273403 0.511919 -0.859008 -0.00659108
5.76915 88.7966 1.61531 0.51139 -0.859336 -0.00396177
5.04706 88.369 2.35492 0.505906 -0.862589 -0.000234964
4.23822 87.8925 2.44727 0.501092 -0.865305 -0.00752007
3.25632 87.3402 2.48729 0.488542 -0.872464 -0.011592
2.32024 86.8366 2.51694 0.469279 -0.88305 -0.000259831
1.46898 86.3931 2.48506 0.436262 -0.899583 0.0112016
0.46488 85.922 2.43188 0.417014 -0.908721 0.0150914
-0.633089 85.465 2.38182 0.379202 -0.925203 0.00868837
-1.57401 85.1165 2.36425 0.326769 -0.945055 -0.00964988
-2.4653 84.8613 2.38352 0.237603 -0.971195 -0.0180096
-3.98451 84.5435 2.42469 0.158778 -0.987174 -0.00177545
-4.89064 84.4089 2.4577 0.117158 -0.992549 0.0027942
-5.98428 84.341 2.41109 0.0355295 -0.999259 -0.00546161
-6.20024 84.3359 2.41555 0.0234581 -0.999724 0.00110128
-6.33549 84.331 3.16984 0.0238095 -0.999661 -0.0105498
-7.44438 84.3116 3.18299 -0.00894587 -0.999888 -0.00031284
-8.83366 84.3575 3.17047 -0.0500852 -0.998731 -0.00525691
-10.0851 84.4654 3.15158 -0.131847 -0.99126 0.00446885
-10.9818 84.586 3.12135 -0.184314 -0.982011 0.00509106
-12.1915 84.8476 3.1727 -0.208015 -0.977744 0.0273133
-13.1057 85.1111 3.16477 -0.299531 -0.953988 0.0137194
-14.0439 85.4299 3.1705 -0.347921 -0.937491 -0.00782928
-14.899 85.7471 3.18845 -0.363199 -0.931449 0.00579132
-15.7446 86.1062 3.18437 -0.391866 -0.920018 0.00287388
-16.743 86.5624 3.18611 -0.422037 -0.906564 0.00431998
-17.9419 87.133 3.1737 -0.435373 -0.900234 0.00287892
-18.8022 87.5564 3.15477 -0.442655 -0.896684 0.0037259
-19.7451 88.0231 3.17386 -0.444287 -0.895877 0.00365771
-20.724 88.5088 3.20562 -0.443405 -0.896321 0.00088825
-21.6643 88.9678 3.15769 -0.429754 -0.902943 0.00254138
-22.5133 89.3719 3.22113 -0.427279 -0.904118 0.000795318
-23.3487 89.7617 3.24901 -0.422344 -0.906422 0.00495806
-24.1787 90.116 3.27306 -0.388969 -0.921248 0.00227609
-25.0666 90.4814 3.26689 -0.335645 -0.94198 0.00232775
-26.1877 90.8815 3.2425 -0.326756 -0.945046 0.00396046
-27.3764 91.2777 3.2638 -0.295198 -0.955179 0.00596742
-28.7117 91.6411 3.34087 -0.255565 -0.966699 -0.0133843
-29.6719 91.874 3.33963 -0.220691 -0.975327 -0.00565594
-30.8118 92.1116 3.30727 -0.186498 -0.982444 0.00461189
-32.2755 92.3823 3.25536 -0.170074 -0.985395 0.0012765
-33.3645 92.5493 3.23529 -0.134651 -0.990893 -0.000604934
-34.3751 92.6795 2.85511 -0.122999 -0.992383 0.00688937
-34.6165 92.7137 1.76707 -0.115035 -0.993342 -0.00510221
-34.6017 92.7146 0.492596 -0.11281 -0.993616 -0.00102563
-34.6543 92.7207 -0.458622 -0.117476 -0.993071 0.00248905
-34.6885 92.7248 -1.52113 -0.12109 -0.992641 -0.000999745
-34.587 92.712 -2.72594 -0.120525 -0.992706 0.00279744
-33.4911 92.5776 -3.2582 -0.132921 -0.991039 0.00357007
-32.3334 92.3961 -3.30837 -0.156303 -0.987692 -0.00585738
-31.2752 92.2063 -3.27742 -0.18241 -0.983219 -0.00271586
-30.1643 91.9817 -3.28549 -0.217273 -0.976101 -0.00403935
-28.9681 91.7005 -3.31428 -0.244704 -0.969406 0.019289
-27.7614 91.377 -3.3049 -0.280188 -0.95993 0.00172274
-26.4211 90.9599 -3.17136 -0.31519 -0.949006 -0.00657865
-25.5678 90.6574 -3.11749 -0.357361 -0.933963 -0.000193384
-24.5771 90.2792 -3.16543 -0.374844 -0.926874 0.00289744
-23.7325 89.9159 -3.21539 -0.395894 -0.918265 0.00756298
-22.7885 89.4971 -3.23464 -0.410873 -0.911689 0.00114309
-21.9198 89.0867 -3.21197 -0.428613 -0.903454 0.00788444
-21.0274 88.6579 -3.16404 -0.438477 -0.898742 0.00128081
-19.7745 88.0399 -3.1767 -0.446385 -0.894837 -0.00265741
-18.7603 87.5348 -3.18057 -0.444389 -0.895825 -0.00387713
-17.7943 87.0551 -3.13073 -0.444562 -0.895739 -0.00414295
-16.9137 86.6489 -3.13012 -0.417351 -0.908709 -0.00776461
-16.0109 86.2358 -3.18991 -0.414607 -0.909925 -0.0117362
-15.0757 85.819 -3.21619 -0.368752 -0.929387 -4.10001e-05
-13.8511 85.351 -3.17941 -0.342327 -0.93943 -0.0038981
-12.932 85.0609 -3.16204 -0.266574 -0.963338 -0.0175727
-11.8715 84.7861 -3.15616 -0.253361 -0.96737 0.00174667
-10.5509 84.5605 -3.12853 -0.153063 -0.988185 0.00772821
-9.30113 84.398 -3.10396 -0.12796 -0.99175 -0.00756278
-7.84364 84.3107 -3.17706 -0.0231154 -0.999252 -0.00818059
-6.41621 84.3333 -3.21677 0.0411621 -0.999076 -0.00949443
-5.38013 84.405 -3.15794 0.0903974 -0.995832 -0.0121204
-4.38175 84.5225 -3.16717 0.165398 -0.986164 0.0111513
-3.41847 84.6836 -3.15983 0.179992 -0.983653 -0.00416922
-2.25974 84.9351 -3.14102 0.289076 -0.957299 0.00360728
-1.33267 85.2116 -3.16278 0.313016 -0.949044 0.0147144
-0.30934 85.5849 -3.14569 0.376147 -0.92558 -0.0112578
0.822859 86.0975 -3.1445 0.423056 -0.905867 -0.0139932
2.00117 86.6956 -3.1907 0.46181 -0.886932 -0.00140737
3.30738 87.4019 -3.16345 0.483387 -0.875401 -0.00278486
4.36238 87.9946 -3.13743 0.499894 -0.866087 -0.000466531
5.34665 88.562 -3.1063 0.513165 -0.858075 -0.00753092
6.12529 89.0435 -2.92961 0.52554 -0.850769 5.71738e-05
6.42582 89.2243 -1.92121 0.528426 -0.848951 -0.00695192
6.45589 89.2351 -0.830413 0.529245 -0.848453 -0.00521746
6.44002 89.22 0.0720825 0.529696 -0.848172 -0.00509061
6.44433 89.2174 1.09374 0.528932 -0.848655 -0.00389509
6.38698 89.1775 2.16534 0.52748 -0.84956 -0.000333604
5.72998 88.77 3.15502 0.519429 -0.854457 -0.00743848
4.52738 88.0547 3.20577 0.509322 -0.860516 -0.0101755
3.56204 87.5051 3.23032 0.49408 -0.869385 -0.00694372
2.63349 87.0014 3.24583 0.469369 -0.882987 -0.00520705
1.60659 86.4647 3.21559 0.438318 -0.898729 -0.00252766
0.749671 86.0571 3.1892 0.429791 -0.902865 -0.0107285
-0.607363 85.4737 3.13919 0.370546 -0.928713 0.00320762
-1.69798 85.0659 3.12142 0.29417 -0.955119 -0.00395556
-2.90012 84.7402 3.17299 0.249577 -0.968192 -0.00813444
-4.51778 84.4567 3.19201 0.161089 -0.986868 0.000916449
-5.55033 84.3586 3.15384 0.0746328 -0.997009 0.00066222
-5.8028 84.3438 3.1581 0.0410853 -0.99894 0.000883937
-5.79455 84.3538 3.92843 0.0583612 -0.99822 0.0123045
-7.09242 84.3162 3.94039 0.00170918 -0.999985 0.00523506
-8.3606 84.3358 3.91866 -0.0388306 -0.99924 0.00348952
-9.46721 84.3976 3.9601 -0.104464 -0.994471 0.0107444
-10.5065 84.5283 3.93129 -0.145502 -0.989245 0.0149665
-11.8577 84.7825 3.92029 -0.223127 -0.974778 -0.00477728
-12.9608 85.0769 3.91853 -0.29927 -0.953995 0.0178491
-13.9391 85.3848 3.91545 -0.324064 -0.945628 0.0033058
-15.1001 85.8451 3.94217 -0.378478 -0.925407 0.0194115
-15.9599 86.2047 3.93567 -0.421319 -0.906877 0.00790298
-16.8941 86.6397 3.95488 -0.421913 -0.90659 0.00914166
-18.0937 87.2129 3.92632 -0.438775 -0.898534 0.00966423
-19.3165 87.8146 3.91565 -0.441729 -0.897126 0.00579762
-20.3216 88.3118 3.98377 -0.44228 -0.896869 0.00377552
-21.3403 88.8147 3.90606 -0.442135 -0.896943 0.00296513
-22.432 89.334 3.95737 -0.428935 -0.903335 0.000851404
-23.3311 89.7572 4.00074 -0.423635 -0.905823 -0.00219242
-24.5586 90.2717 4.01383 -0.385052 -0.922857 -0.00842266
-25.4352 90.6152 3.99289 -0.358786 -0.933282 -0.0160108
-26.3896 90.9509 3.97766 -0.317282 -0.948329 0.0022926
-27.3462 91.2704 3.98454 -0.298286 -0.95427 -0.00548941
-28.5637 91.6002 4.07318 -0.256355 -0.966509 0.0119485
-29.6066 91.859 4.07165 -0.219866 -0.975505 0.00707287
-30.4879 92.0552 4.05087 -0.198205 -0.98004 0.00624644
-31.7266 92.2885 4.00914 -0.176097 -0.984288 0.00342559
-32.9395 92.4898 3.96479 -0.159754 -0.987137 -0.00448735
-34.4665 92.6983 3.94972 -0.13129 -0.991332 -0.00141055
-35.3194 92.7878 3.06556 -0.101366 -0.994846 -0.00268638
-35.3812 92.8003 1.73241 -0.104405 -0.994483 -0.00549068
-35.3503 92.7999 0.165556 -0.107206 -0.994211 0.00264711
-35.3977 92.7992 -0.888414 -0.09931 -0.995056 -0.000446013
-35.4506 92.8037 -1.93041 -0.0945201 -0.995513 0.00449077
-35.414 92.7994 -2.88435 -0.0922109 -0.995734 -0.00322874
-34.8813 92.7433 -3.87535 -0.117744 -0.99303 0.00535291
-33.5914 92.5882 -4.0254 -0.132931 -0.991038 0.00355973
-32.6959 92.4566 -4.04663 -0.14556 -0.989332 0.00583734
-31.7707 92.3003 -4.00422 -0.175654 -0.984426 -0.00147434
-30.677 92.0949 -4.00127 -0.185516 -0.982641 0.000187463
-29.6434 91.8627 -4.02196 -0.235697 -0.971789 0.00854309
-28.7458 91.6349 -4.06649 -0.247419 -0.968881 0.00724273
-27.4392 91.2791 -4.06192 -0.287337 -0.957808 -0.00640123
-26.5185 90.9978 -3.96483 -0.322938 -0.946369 -0.0013314
-25.129 90.491 -3.8753 -0.358107 -0.933678 -0.00235446
-24.2164 90.1258 -3.94369 -0.399966 -0.916453 -0.0118546
-23.3172 89.7339 -3.98339 -0.402026 -0.915579 -0.00864686
-22.293 89.2709 -4.00469 -0.422779 -0.906147 -0.00219105
-21.1164 88.7026 -3.91766 -0.43985 -0.898049 -0.00482445
-19.6447 87.9775 -3.9353 -0.443214 -0.896402 0.000709725
-18.8044 87.5596 -3.92798 -0.444215 -0.895913 -0.00360772
-17.8772 87.0998 -3.89457 -0.444389 -0.895826 -0.00387786
-17.0519 86.7155 -3.87421 -0.418147 -0.908379 -0.000248895
-16.1676 86.3104 -3.93591 -0.414997 -0.909823 -0.00045364
-14.9783 85.7751 -3.97729 -0.380184 -0.924472 0.0032862
-14.0499 85.4222 -3.94045 -0.332349 -0.942695 -0.00221151
-13.0722 85.1133 -3.90466 -0.291302 -0.956592 -0.00863098
-11.9435 84.8035 -3.93409 -0.257344 -0.966274 -0.00503107
-10.9863 84.6222 -3.92047 -0.152058 -0.988349 0.00664215
-9.75884 84.4576 -3.88871 -0.110698 -0.993768 0.0130963
-8.71292 84.3583 -3.88952 -0.0624872 -0.998038 -0.00382384
-7.52416 84.3188 -3.97437 -0.000718876 -0.999742 0.022721
-6.52103 84.3352 -3.98752 0.0544424 -0.998515 0.00178825
-5.22029 84.4277 -3.92747 0.0883254 -0.996037 -0.0104579
-4.02945 84.5759 -3.9394 0.174282 -0.984696 -0.000686794
-3.08317 84.7452 -3.92805 0.177848 -0.984058 -0.00096882
-1.97666 85.0099 -3.91631 0.281259 -0.959493 0.0163612
-0.918671 85.3533 -3.90571 0.344774 -0.938594 0.0130811
0.0176362 85.7428 -3.90204 0.411783 -0.911245 -0.00822239
1.33577 86.3565 -3.90759 0.442565 -0.896552 -0.00915972
2.2856 86.8493 -3.90694 0.469692 -0.882825 -0.00295629
3.20945 87.3529 -3.89069 0.482711 -0.875718 -0.0103871
4.10624 87.8471 -3.8543 0.491973 -0.870558 -0.00230609
5.31483 88.5472 -3.86807 0.501324 -0.865252 -0.00372046
6.52845 89.2925 -3.77079 0.524733 -0.85126 -0.0021613
7.02253 89.5993 -2.57113 0.527309 -0.849673 0.000441568
7.06875 89.6218 -1.43897 0.530534 -0.847653 -0.00410506
7.07975 89.6229 -0.516716 0.530247 -0.847827 -0.00509948
7.06427 89.6078 0.398808 0.529689 -0.848175 -0.00529833
7.0623 89.6007 1.70755 0.53059 -0.847623 -0.00308595
6.98993 89.5519 2.65445 0.530575 -0.847632 -0.00309226
6.74885 89.3949 3.78156 0.530048 -0.847954 -0.00476711
5.65022 88.7185 3.92197 0.514336 -0.857541 -0.00811717
4.73709 88.1701 3.93805 0.512042 -0.85892 -0.00714413
3.55085 87.4911 3.96017 0.495294 -0.868679 -0.0090063
2.61107 86.9853 3.95763 0.469685 -0.88282 -0.00491609
1.42984 86.381 3.9305 0.446843 -0.894594 0.00567012
0.252529 85.8356 3.9293 0.390844 -0.920447 0.00422101
-0.91353 85.3635 3.87749 0.359016 -0.933254 0.0119981
-1.79072 85.0339 3.86761 0.301475 -0.952588 -0.000369028
-2.74998 84.765 3.9239 0.223445 -0.97348 -0.0122129
-4.0015 84.5439 3.94104 0.171821 -0.985121 -0.00386515
-4.99527 84.4006 3.93311 0.0746336 -0.997009 0.000648627
-5.50905 84.3705 3.92359 0.058366 -0.998219 0.0123011
-5.4754 84.3799 4.672 0.0660214 -0.997656 0.0179642
-4.30794 84.497 4.64053 0.150934 -0.988531 0.0050629
-3.42759 84.6408 4.74894 0.175052 -0.984549 -0.00277253
-2.25129 84.8878 4.61151 0.301477 -0.952587 -0.000378262
-1.26087 85.2394 4.61953 0.346681 -0.937724 0.0170056
-0.227663 85.6292 4.65457 0.348622 -0.937246 0.00563345
0.904286 86.1164 4.69836 0.43487 -0.900361 -0.00487327
2.07951 86.7051 4.67811 0.450947 -0.892525 -0.00475543
3.0567 87.2188 4.73983 0.469725 -0.882807 -0.0031881
3.97454 87.7273 4.71137 0.498086 -0.867125 -0.00202555
4.90154 88.2623 4.67058 0.501786 -0.864991 -0.000694113
5.71144 88.7443 4.68836 0.519738 -0.85425 -0.00836927
6.50702 89.2356 4.72565 0.528122 -0.849138 -0.00628304
7.4928 89.8573 4.25088 0.530358 -0.847748 -0.0063583
7.57866 89.9176 3.31393 0.532506 -0.846403 -0.0062739
7.68832 89.991 2.13726 0.530582 -0.847628 -0.00310049
7.71351 90.0208 1.03679 0.540583 -0.841216 -0.0112477
7.70415 90.0143 -0.316714 0.535284 -0.844666 -0.000385289
7.70949 90.0219 -1.25457 0.530524 -0.847659 -0.00410171
7.63485 89.9808 -2.54323 0.537233 -0.843421 -0.00115074
7.60541 89.9614 -3.63618 0.528058 -0.849209 -0.000230918
7.19976 89.7071 -4.45014 0.528382 -0.849 0.00345132
6.44342 89.2463 -4.59065 0.524928 -0.851117 -0.00707007
5.39809 88.6021 -4.64556 0.521772 -0.852977 -0.0120669
4.52431 88.093 -4.61714 0.500872 -0.865508 -0.00480136
3.72187 87.6392 -4.62689 0.476253 -0.879308 0.000195334
2.80261 87.1375 -4.63738 0.479621 -0.877404 -0.0106372
1.93814 86.6689 -4.64196 0.477773 -0.878448 -0.00614174
1.02891 86.2255 -4.67383 0.431202 -0.902066 -0.018461
0.182289 85.824 -4.65456 0.396446 -0.917735 -0.0159747
-1.35139 85.1889 -4.66311 0.339426 -0.939178 -0.0186725
-2.25673 84.9289 -4.6823 0.270379 -0.962752 -0.00208388
-3.42511 84.6841 -4.71209 0.185652 -0.982526 -0.0079884
-4.59671 84.4805 -4.68698 0.167945 -0.985774 -0.00668396
-6.21963 84.3502 -4.72589 0.0597822 -0.998193 -0.000606509
-7.14439 84.2998 -4.79841 0.0268645 -0.999128 0.0122536
-8.10605 84.3214 -4.68694 -0.0438139 -0.99885 -0.000575197
-9.21917 84.3858 -4.66171 -0.0826588 -0.996035 0.0124438
-10.209 84.4977 -4.65778 -0.131379 -0.991058 0.00986932
-11.38 84.678 -4.6843 -0.152433 -0.988297 0.00583929
-12.3082 84.9111 -4.66242 -0.261806 -0.965059 -0.0108968
-13.1799 85.1526 -4.63181 -0.300105 -0.953757 -0.0132963
-14.5198 85.5897 -4.72671 -0.332349 -0.942695 -0.00220222
-15.564 86.0401 -4.73994 -0.40451 -0.91451 -0.00656986
-16.514 86.4691 -4.65517 -0.415322 -0.909674 -0.000694923
-17.963 87.1488 -4.64128 -0.432369 -0.901596 -0.0135057
-18.8482 87.5856 -4.67217 -0.442811 -0.896603 -0.00399604
-19.7983 88.055 -4.64915 -0.444764 -0.895645 -0.00213538
-20.8389 88.5706 -4.63362 -0.43985 -0.898049 -0.00482319
-22.0186 89.1429 -4.77777 -0.430777 -0.902435 0.000823333
-23.1168 89.6499 -4.77012 -0.416698 -0.909025 -0.0059887
-24.2675 90.158 -4.70576 -0.40202 -0.915582 -0.00865537
-25.3635 90.5828 -4.61852 -0.357585 -0.933876 -0.00277463
-26.3599 90.9404 -4.70142 -0.332694 -0.943035 0.00018738
-27.2588 91.2306 -4.78584 -0.284496 -0.958617 -0.0107786
-28.5748 91.5986 -4.81543 -0.236964 -0.971456 -0.0109869
-29.491 91.821 -4.76783 -0.235893 -0.971752 -0.00702064
-30.3661 92.0345 -4.72655 -0.212631 -0.976781 0.000629146
-31.4874 92.2456 -4.7319 -0.183178 -0.983054 0.00691524
-32.8645 92.4768 -4.75772 -0.145613 -0.989318 0.00676697
-34.1287 92.6509 -4.76634 -0.116949 -0.993138 0.000357949
-35.1984 92.7769 -4.68846 -0.117491 -0.993074 -0.000294621
-36.0446 92.8543 -4.10287 -0.0865547 -0.996243 0.00282554
-36.1623 92.8662 -3.07836 -0.0866359 -0.996236 -0.000285865
-36.2218 92.8732 -2.15829 -0.0845349 -0.9964 0.00633722
-36.1474 92.8737 -1.07568 -0.0895243 -0.995957 0.00541471
-36.0942 92.8718 -0.141648 -0.0874046 -0.996169 0.002614
-36.114 92.8744 1.30967 -0.08671 -0.996231 -0.00207162
-36.1372 92.8707 2.49549 -0.0990455 -0.995083 -0.000479795
-36.1267 92.8692 3.40958 -0.10021 -0.994964 -0.00158111
-36.0012 92.8596 4.30216 -0.0942547 -0.995546 0.00210161
-34.9591 92.7583 4.67113 -0.11613 -0.99312 0.00311442
-33.5609 92.5772 4.70654 -0.13129 -0.991332 -0.0014106
-32.5603 92.425 4.70462 -0.159754 -0.987137 -0.0044862
-31.4678 92.2412 4.74853 -0.16675 -0.985988 -0.00462884
-30.4016 92.0373 4.78012 -0.210967 -0.977493 0.00101188
-29.0658 91.7294 4.82579 -0.238479 -0.971145 -0.00222117
-27.7561 91.3816 4.78179 -0.280665 -0.959749 -0.0104144
-26.5512 91.0053 4.71126 -0.315907 -0.94879 -0.000564316
-25.3218 90.5631 4.74531 -0.358831 -0.933392 0.00450656
-24.3402 90.1767 4.77678 -0.382408 -0.923993 0.000337404
-23.4648 89.8151 4.76404 -0.401739 -0.915488 -0.00282223
-22.5066 89.3697 4.72976 -0.418648 -0.908127 0.000135722
-21.5437 88.9157 4.70189 -0.426704 -0.904382 0.00406755
-20.6201 88.4624 4.7743 -0.442283 -0.896867 0.00378318
-19.5792 87.9495 4.68933 -0.44291 -0.896552 0.00475375
-18.3532 87.3487 4.66953 -0.441018 -0.897463 0.00762427
-17.1886 86.7849 4.72187 -0.433132 -0.901284 0.00886584
-16.0178 86.2324 4.69171 -0.426987 -0.904256 -0.00180661
-15.1777 85.8779 4.71867 -0.375889 -0.926658 -0.00347576
-14.306 85.5244 4.67833 -0.342516 -0.938477 0.0167512
-12.8742 85.0657 4.63245 -0.282027 -0.958785 0.0290798
-11.6968 84.7421 4.66168 -0.244425 -0.96906 0.0160701
-10.7836 84.5807 4.7003 -0.146022 -0.989187 0.0135964
-9.87654 84.449 4.71203 -0.104316 -0.994475 0.011771
-8.88462 84.3614 4.68362 -0.0575344 -0.997829 0.0214157
-7.48115 84.3157 4.68847 -0.0286014 -0.999499 0.0135545
-6.30379 84.3324 4.70849 0.0390286 -0.999129 0.0147901
-5.48316 84.3794 4.67247 0.0660161 -0.997657 0.0179651
-5.36399 84.4011 5.44041 0.0660161 -0.997657 0.0179651
-4.29046 84.5033 5.44258 0.151505 -0.988447 0.00443436
-3.14228 84.6894 5.4843 0.176878 -0.984204 -0.00755095
-1.99628 84.9798 5.37855 0.335978 -0.941575 -0.0235811
-0.918435 85.3687 5.38432 0.346779 -0.937786 -0.0173496
0.0174757 85.7149 5.42391 0.365531 -0.930511 -0.00735831
1.05631 86.1856 5.49072 0.434873 -0.90036 -0.00486573
2.24287 86.787 5.42853 0.454136 -0.890931 -0.00161982
3.04854 87.2116 5.51475 0.468224 -0.883605 -0.00199005
4.19618 87.8537 5.43732 0.491827 -0.870671 -0.00135874
5.37546 88.5356 5.42845 0.506891 -0.861976 -0.00246569
6.21385 89.0496 5.48795 0.525566 -0.850722 -0.00717497
7.27867 89.7106 5.50012 0.529078 -0.848549 -0.00636351
8.02938 90.1801 5.35561 0.533615 -0.845631 -0.0116175
8.21781 90.316 4.38572 0.537796 -0.842965 -0.0136361
8.22228 90.3233 3.40552 0.539773 -0.841795 -0.00487544
8.2691 90.3598 2.4348 0.538888 -0.842358 -0.00567122
8.32586 90.4128 1.15081 0.540591 -0.841211 -0.0112407
8.34442 90.4229 0.170979 0.536681 -0.843782 0.00237979
8.32249 90.4063 -0.751873 0.535294 -0.844659 -0.000380508
8.31016 90.4073 -1.76666 0.537502 -0.843237 -0.00636788
8.23002 90.3577 -2.8451 0.536125 -0.844133 0.00307904
8.28664 90.389 -3.78426 0.535836 -0.844306 0.00514454
8.16596 90.3116 -4.85409 0.535816 -0.844335 -0.000756539
6.9833 89.5782 -5.32847 0.519288 -0.854583 0.00532604
6.16629 89.0812 -5.3933 0.519119 -0.854663 0.00786575
4.92171 88.3271 -5.34787 0.50974 -0.860175 -0.0109299
3.83268 87.699 -5.37958 0.487924 -0.872774 -0.00272777
2.87694 87.1819 -5.40194 0.476591 -0.879124 -0.000814222
2.0454 86.7287 -5.38807 0.479009 -0.877809 -0.00140592
0.895419 86.1613 -5.44904 0.423573 -0.905805 -0.00498382
-0.183051 85.6804 -5.41517 0.384671 -0.923022 -0.00757452
-1.18035 85.2652 -5.38944 0.339429 -0.939178 -0.0186826
-2.14383 84.9693 -5.43851 0.301194 -0.953279 -0.0120089
-3.38097 84.6959 -5.47373 0.199266 -0.979932 0.00510882
-4.7645 84.456 -5.43644 0.158039 -0.987353 -0.00560346
-5.6735 84.3876 -5.45682 0.0641232 -0.997828 0.0150998
-6.59274 84.3279 -5.50237 0.0371354 -0.998543 0.0265043
-7.90241 84.3148 -5.45358 -0.00450094 -0.999439 0.0252166
-8.85633 84.3599 -5.44725 -0.0525733 -0.99858 0.00865928
-9.81422 84.4425 -5.47121 -0.133155 -0.991095 0.000765483
-10.925 84.6029 -5.44578 -0.152995 -0.988201 0.0071828
-12.1209 84.8617 -5.41107 -0.254726 -0.966858 0.0173283
-13.4572 85.2391 -5.39215 -0.299636 -0.953911 0.00966604
-14.3253 85.5196 -5.46466 -0.308844 -0.950926 0.0188377
-15.2183 85.8923 -5.49753 -0.40444 -0.914544 -0.00617268
-16.3214 86.3849 -5.42034 -0.412617 -0.91088 -0.00661384
-17.4839 86.9275 -5.39069 -0.431737 -0.901995 -0.0030188
-18.4713 87.4022 -5.41264 -0.439394 -0.89828 -0.00451289
-19.3826 87.8506 -5.42513 -0.441312 -0.897348 -0.00332614
-20.4024 88.3565 -5.41524 -0.44457 -0.895743 -0.0015106
-21.2462 88.7698 -5.50511 -0.43598 -0.899955 -0.00172363
-22.3211 89.2824 -5.53563 -0.425441 -0.904981 0.00317162
-23.3332 89.75 -5.4964 -0.400593 -0.916228 0.000574675
-24.232 90.139 -5.47803 -0.397095 -0.917754 0.00659313
-25.2217 90.529 -5.38194 -0.35994 -0.932969 -0.00110768
-26.1561 90.8703 -5.41598 -0.325525 -0.945454 -0.012265
-27.5113 91.3141 -5.54827 -0.283173 -0.959031 -0.00781646
-28.6674 91.6277 -5.5479 -0.236948 -0.971503 -0.00544509
-29.7187 91.8816 -5.47769 -0.234465 -0.972094 -0.00772232
-30.8066 92.1131 -5.46499 -0.186256 -0.982476 0.00685024
-31.7098 92.2806 -5.46538 -0.180455 -0.983528 0.0104337
-32.898 92.4763 -5.49588 -0.145677 -0.989303 0.00763069
-33.9048 92.6243 -5.52139 -0.131199 -0.991239 0.00370455
-35.0698 92.7624 -5.51391 -0.118029 -0.99301 -0.000941038
-36.2907 92.8757 -5.33048 -0.0912245 -0.995802 -0.00464138
-36.7995 92.9147 -4.68463 -0.0826649 -0.996555 -0.0023178
-36.8606 92.923 -3.73747 -0.080335 -0.996763 0.00325209
-36.947 92.9327 -2.76399 -0.0780983 -0.996914 0.00145502
-36.9563 92.9329 -1.53462 -0.0712789 -0.997456 -0.000785839
-36.8584 92.937 -0.225049 -0.068669 -0.997481 0.0177663
-36.8949 92.9427 1.18485 -0.0867093 -0.996231 -0.00207731
-36.8963 92.9368 2.33142 -0.0754376 -0.997138 0.000976817
-36.907 92.9353 3.25682 -0.0787981 -0.996887 -0.00257858
-36.8717 92.9345 4.58276 -0.0748178 -0.997183 0.00526999
-36.4187 92.9014 5.31389 -0.0945668 -0.995511 0.00367915
-35.4439 92.8096 5.39849 -0.0940333 -0.995564 0.00312463
-34.5327 92.7089 5.436 -0.128154 -0.991681 0.012056
-33.1594 92.5217 5.4332 -0.152119 -0.988335 0.00409406
-31.9078 92.3136 5.45826 -0.168274 -0.985738 -2.03967e-05
-30.9869 92.1578 5.49748 -0.184871 -0.982561 -0.00621779
-29.6512 91.8745 5.52928 -0.211309 -0.977419 -0.00118374
-28.2738 91.5316 5.56254 -0.261398 -0.964931 -0.00225793
-27.0988 91.183 5.47544 -0.282678 -0.959194 0.00429546
-25.9588 90.8071 5.45787 -0.316328 -0.948649 -0.00109157
-24.7339 90.3409 5.54955 -0.370919 -0.928568 0.00285007
-23.7307 89.9249 5.52501 -0.384131 -0.92327 -0.00193103
-22.7619 89.4907 5.46989 -0.415632 -0.909517 0.00540668
-21.578 88.9353 5.4659 -0.426378 -0.904538 0.00359006
-20.7658 88.5363 5.54953 -0.442443 -0.896795 0.00173865
-19.8885 88.1039 5.4782 -0.441711 -0.897156 0.00138638
-18.9473 87.6428 5.45908 -0.439555 -0.89821 0.00300035
-18.0348 87.1973 5.4458 -0.436912 -0.899496 0.00380738
-17.0482 86.7219 5.44978 -0.430415 -0.902618 0.0048267
-16.208 86.3212 5.43717 -0.421443 -0.906721 0.0109312
-15.3763 85.968 5.5055 -0.389575 -0.920993 0.00153986
-13.9755 85.4367 5.39269 -0.319582 -0.947462 -0.0135508
-12.8434 85.0781 5.39051 -0.269146 -0.962945 0.017032
-11.9656 84.8358 5.43797 -0.268576 -0.963159 0.0135989
-10.8788 84.5949 5.47781 -0.14315 -0.989658 -0.00920471
-9.72935 84.4376 5.45061 -0.0967758 -0.994884 -0.0125093
-8.6467 84.3561 5.40235 -0.0538858 -0.998084 -0.0157918
-7.67835 84.3284 5.42839 -0.0274488 -0.999606 -0.0058311
-6.5579 84.3329 5.48043 0.0385073 -0.999203 0.0104672
-5.60702 84.3852 5.45352 0.0689163 -0.997527 0.0121196
-5.54209 84.3945 6.17787 0.0713979 -0.997437 0.00424033
-4.41095 84.4866 6.21354 0.131648 -0.991036 0.0107417
-3.48122 84.6277 6.31165 0.167846 -0.985813 -0.00102962
-2.37774 84.8657 6.2177 0.269748 -0.962758 0.018241
-1.16535 85.2639 6.14396 0.346024 -0.938075 -0.0168466
-0.0322342 85.6967 6.17163 0.383537 -0.92352 0.00312987
0.847762 86.0875 6.229 0.422867 -0.906191 0.000439285
1.69666 86.5064 6.25192 0.456888 -0.889481 -0.00873827
2.69124 87.0211 6.26188 0.462503 -0.886568 -0.00940883
3.55292 87.4855 6.27729 0.486843 -0.873484 -0.00323733
4.52182 88.0367 6.18767 0.498326 -0.866981 -0.0037843
5.6472 88.6985 6.20915 0.512554 -0.858655 0.000711814
6.51801 89.2318 6.27591 0.527646 -0.849445 -0.0057575
7.37494 89.7648 6.27449 0.53305 -0.846057 -0.00173373
8.33657 90.3766 6.15913 0.537018 -0.843566 0.00289196
8.86394 90.7207 5.42867 0.544901 -0.838477 -0.00627998
8.87414 90.7355 4.33989 0.541345 -0.840723 -0.00995214
8.83734 90.7185 3.43972 0.540655 -0.841235 -0.00408314
8.86189 90.737 2.48797 0.529845 -0.848037 -0.00341577
8.93115 90.7923 1.3366 0.532276 -0.846532 -0.00806045
8.96522 90.8165 0.425455 0.53293 -0.846159 0.000110763
8.9671 90.8168 -0.569217 0.53797 -0.842955 -0.00401791
8.94074 90.806 -1.48257 0.536827 -0.843661 -0.00730021
8.91073 90.7866 -2.51503 0.523509 -0.852018 0.00170887
8.89433 90.7751 -3.61184 0.535078 -0.844782 0.00591869
8.96576 90.8192 -4.82749 0.535429 -0.844579 -0.00134936
8.64736 90.6048 -5.98213 0.540562 -0.841274 0.00711725
7.77596 90.0565 -6.13475 0.521283 -0.853373 0.00426554
6.7352 89.4224 -6.13928 0.520135 -0.854062 0.0061063
5.85057 88.8819 -6.21185 0.519111 -0.854667 0.00786957
4.84793 88.2902 -6.12372 0.505458 -0.862823 -0.0070247
3.85539 87.7183 -6.1849 0.490611 -0.871302 -0.0095173
2.97716 87.237 -6.21194 0.476591 -0.879124 -0.000814222
1.87447 86.6474 -6.1523 0.460508 -0.887632 -0.00648391
0.799575 86.1241 -6.21299 0.412395 -0.91089 0.0145097
-0.186415 85.6854 -6.19159 0.384644 -0.923033 -0.00765172
-1.04946 85.3254 -6.1472 0.351423 -0.935474 -0.011149
-2.17979 84.9521 -6.21436 0.259349 -0.964451 -0.0021561
-3.43187 84.6817 -6.22065 0.20522 -0.978659 -0.00301324
-4.33732 84.5328 -6.20986 0.151364 -0.988371 -0.0145654
-5.66103 84.3773 -6.19277 0.0634436 -0.997883 0.0142225
-6.99435 84.2922 -6.28575 0.0371411 -0.998543 0.0265179
-8.21792 84.313 -6.21701 -0.0205152 -0.999731 0.0107735
-9.54815 84.4115 -6.28373 -0.119443 -0.99262 -0.0196477
-10.6301 84.5515 -6.2266 -0.143074 -0.989648 0.00397837
-11.7087 84.7656 -6.18978 -0.206773 -0.977934 -0.0298207
-13.1422 85.1431 -6.12542 -0.290433 -0.956895 0.000498673
-14.0221 85.4067 -6.18963 -0.321544 -0.945784 0.0121716
-14.8858 85.7673 -6.24042 -0.390043 -0.920735 0.0106804
-15.7745 86.1433 -6.2351 -0.395685 -0.918168 -0.0151749
-16.7124 86.566 -6.13217 -0.411523 -0.911384 -0.00532977
-17.8512 87.1064 -6.23406 -0.429723 -0.902939 -0.00626936
-18.8613 87.5974 -6.29032 -0.439402 -0.898276 -0.00451734
-19.8903 88.1043 -6.21266 -0.443441 -0.896299 -0.00295955
-20.7881 88.5494 -6.29843 -0.440274 -0.897849 -0.00162349
-21.8127 89.0452 -6.31301 -0.435332 -0.900269 -0.00106339
-23.1782 89.6848 -6.29155 -0.406839 -0.913347 -0.00291208
-24.2507 90.1415 -6.25282 -0.394531 -0.918859 0.000616397
-25.1659 90.5097 -6.14043 -0.362549 -0.93196 -0.0029792
-26.4323 90.9757 -6.20861 -0.322224 -0.946616 -0.00721127
-27.4283 91.2949 -6.29364 -0.278869 -0.960272 -0.0105098
-28.4229 91.5701 -6.29603 -0.238948 -0.971019 -0.00476142
-29.5289 91.8413 -6.23157 -0.234542 -0.972086 -0.0062298
-30.4643 92.0455 -6.18583 -0.190245 -0.981733 -0.00256103
-31.4965 92.2359 -6.20581 -0.174811 -0.9846 -0.00180522
-32.8162 92.4586 -6.23641 -0.147843 -0.988992 0.00258362
-33.8186 92.6108 -6.29344 -0.135709 -0.990637 0.00110551
-34.8445 92.7363 -6.28336 -0.119719 -0.992801 0.00186453
-35.8847 92.8394 -6.23461 -0.0969712 -0.995281 -0.00350553
-36.9831 92.9393 -6.0444 -0.078569 -0.996856 0.00161841
-37.6781 92.9947 -5.30963 -0.0851548 -0.996343 -0.00696801
-37.6122 92.9815 -4.38327 -0.0826746 -0.996554 -0.00231874
-37.6296 92.9758 -3.15945 -0.0586173 -0.99823 -0.0100008
-37.7412 92.9887 -2.1258 -0.0665463 -0.997761 0.00368781
-37.6474 92.9816 -0.848606 -0.0603291 -0.998109 -0.00433099
-37.6855 92.9974 0.464055 -0.0412822 -0.999098 0.00963343
-37.665 92.9901 1.81958 -0.0713001 -0.997413 -0.00376842
-37.6902 92.9963 2.802 -0.064597 -0.997876 0.000969639
-37.6385 92.9914 3.74567 -0.0785176 -0.996908 -0.00318574
-37.6756 92.996 5.03467 -0.0733657 -0.997301 0.00274231
-37.2559 92.9681 6.07822 -0.0731689 -0.997315 0.00302946
-36.2515 92.889 6.15326 -0.0952156 -0.995445 0.0047498
-35.2616 92.7947 6.14863 -0.104593 -0.994456 0.00175313
-34.0695 92.6562 6.19729 -0.120869 -0.992637 -0.00578056
-32.8944 92.4839 6.15462 -0.152117 -0.988336 0.00409333
-32.0022 92.3311 6.18827 -0.16974 -0.985488 0.00163199
-30.3312 92.014 6.24024 -0.204483 -0.978836 0.00815083
-29.3891 91.8131 6.26996 -0.244755 -0.969564 0.00612219
-28.3676 91.5559 6.31412 -0.257273 -0.966228 0.00183353
-27.3454 91.2619 6.23888 -0.280926 -0.959692 0.00845184
-26.4862 90.9824 6.21091 -0.316867 -0.94847 -0.000272727
-25.3069 90.5629 6.2683 -0.357444 -0.933933 0.0019132
-24.4001 90.2 6.3309 -0.388034 -0.921632 -0.00157758
-23.4776 89.8104 6.3055 -0.408159 -0.912875 -0.00811564
-22.4549 89.3491 6.21024 -0.425506 -0.904936 -0.00447582
-21.4999 88.8936 6.28489 -0.43682 -0.899536 -0.00473826
-20.5491 88.4308 6.31186 -0.44259 -0.896722 0.00196816
-19.521 87.9256 6.24892 -0.43897 -0.898498 0.00258891
-18.5355 87.4439 6.25136 -0.438228 -0.898856 0.00339646
-17.5005 86.9409 6.22912 -0.432305 -0.901706 0.0032086
-16.6014 86.5135 6.21828 -0.421443 -0.906721 0.0109326
-15.7026 86.1072 6.27067 -0.401099 -0.915874 0.00895113
-14.8591 85.7697 6.25608 -0.362095 -0.931691 0.0289463
-13.7062 85.3355 6.11852 -0.295505 -0.954872 0.00244207
-12.6676 85.0393 6.18776 -0.274421 -0.9616 -0.00148944
-11.6165 84.7474 6.23793 -0.235694 -0.971011 0.0170286
-10.4442 84.525 6.24066 -0.130183 -0.991379 -0.00273449
-9.16564 84.3738 6.16628 -0.0967769 -0.994883 -0.0125232
-8.19265 84.3398 6.13262 -0.031434 -0.999502 -0.00282828
-6.95458 84.3319 6.23836 0.0316632 -0.999334 0.0181442
-5.99375 84.362 6.18765 0.0551645 -0.998301 0.00837026
-5.90795 84.371 6.94722 0.0679606 -0.997681 0.00375879
-6.91247 84.3382 6.99397 0.0253184 -0.999629 0.00777507
-7.89801 84.3253 6.90399 -0.0269231 -0.999606 -0.00673393
-8.82944 84.3534 6.90072 -0.03005 -0.999501 -0.00970665
-10.2137 84.4909 6.9836 -0.121014 -0.992545 -0.0144913
-11.3819 84.7144 7.00268 -0.202279 -0.979207 0.015395
-12.3944 84.9677 7.02684 -0.263736 -0.964587 0.0039202
-13.3338 85.2293 6.88223 -0.277769 -0.960641 -0.00361352
-14.4922 85.632 6.98364 -0.356677 -0.934116 0.00912613
-15.3454 85.9652 7.01697 -0.363754 -0.931495 0.000841141
-16.6461 86.5435 7.02749 -0.414484 -0.910045 0.00455843
-17.4699 86.9294 7.12015 -0.432301 -0.901708 0.00320753
-18.8121 87.5808 6.99234 -0.437879 -0.89903 0.00214234
-19.7212 88.0252 7.02155 -0.439965 -0.89801 0.00260393
-20.7426 88.5284 7.15755 -0.438249 -0.898838 0.000924741
-22.0316 89.1475 6.97141 -0.423782 -0.905712 0.000385934
-23.0303 89.6106 7.11117 -0.412308 -0.910948 -0.00361942
-23.9511 90.011 7.12589 -0.392823 -0.9196 -0.00208138
-24.7829 90.3642 7.15887 -0.374127 -0.927201 0.00190503
-26.0267 90.825 6.94885 -0.340446 -0.940173 -0.0131189
-27.1457 91.2021 6.99898 -0.316798 -0.948486 -0.00341171
-28.0312 91.4585 7.05878 -0.270126 -0.962817 -0.00399325
-29.1876 91.7681 7.00206 -0.232087 -0.972594 0.00206277
-30.7572 92.1093 6.9886 -0.192109 -0.981272 0.00215628
-32.2571 92.3767 6.92246 -0.169699 -0.985493 0.00230368
-33.2403 92.5385 6.90304 -0.146835 -0.989151 0.00448519
-34.323 92.6823 6.944 -0.125691 -0.992037 -0.00800205
-35.5069 92.8216 6.90575 -0.105781 -0.994324 0.000891558
-36.9477 92.9498 6.94453 -0.0833569 -0.99652 -0.000304798
-38.3277 93.0422 6.61182 -0.0592051 -0.998245 -0.000290852
-38.4519 93.048 5.07793 -0.0620507 -0.998069 0.00271999
-38.4069 93.0388 4.14076 -0.05344 -0.998562 0.00435904
-38.4354 93.0383 3.13142 -0.0569264 -0.998378 -0.000181613
-38.446 93.0412 2.16978 -0.0496704 -0.998722 0.00240742
-38.4763 93.0341 1.05887 -0.0410149 -0.999133 0.00714694
-38.4145 93.0199 -0.175165 -0.0441257 -0.998979 0.00869231
-38.4389 93.0239 -1.14659 -0.0501572 -0.998707 -0.00830251
-38.4861 93.0244 -2.43892 -0.0414691 -0.999122 0.00600461
-38.3608 93.0218 -3.55784 -0.0560179 -0.998387 -0.00928507
-38.5356 93.0375 -4.56348 -0.0445266 -0.999005 0.00234738
-38.4221 93.0303 -5.48421 -0.0445277 -0.999005 0.00235121
-38.1741 93.0097 -6.70989 -0.0425733 -0.999055 0.00868177
-36.8649 92.9302 -6.89478 -0.0700957 -0.997496 -0.00943177
-35.853 92.8364 -6.99362 -0.0975717 -0.995228 0.000778689
-34.2191 92.6564 -7.02598 -0.122943 -0.992409 0.00291935
-32.9958 92.4877 -6.99982 -0.150001 -0.988683 -0.00246573
-31.6869 92.2711 -6.96191 -0.174572 -0.984643 -0.00148743
-30.5337 92.0611 -6.99442 -0.199611 -0.979815 0.00211482
-29.5254 91.8455 -7.00929 -0.221765 -0.97499 0.000274466
-28.6631 91.634 -6.99164 -0.239633 -0.970842 -0.00647846
-27.726 91.3892 -7.00712 -0.266034 -0.963829 -0.00160567
-26.7262 91.0765 -7.02873 -0.318934 -0.947774 -0.00215559
-25.8367 90.7763 -6.87901 -0.343809 -0.938632 -0.00789952
-24.8731 90.4014 -6.92488 -0.361867 -0.932186 -0.00906476
-24.0404 90.0559 -7.02135 -0.38656 -0.922264 0.00107848
-22.847 89.5312 -7.07167 -0.42171 -0.906731 -0.000477151
-22.0153 89.1444 -7.01266 -0.429473 -0.903034 -0.00214782
-20.7472 88.5298 -7.08051 -0.435559 -0.900159 0.00154008
-19.5925 87.96 -7.1445 -0.442315 -0.896854 -0.00310122
-18.6604 87.502 -7.00878 -0.43913 -0.898416 -0.00322265
-17.5222 86.9552 -6.98058 -0.429378 -0.903103 -0.00623864
-16.5145 86.4798 -6.99801 -0.414814 -0.909906 0.000834868
-15.3898 85.9741 -7.01773 -0.408353 -0.912818 -0.0034068
-14.4011 85.5602 -7.02778 -0.358396 -0.933527 -0.00894086
-13.4163 85.2019 -6.90069 -0.284698 -0.958039 0.033275
-12.4574 84.9331 -6.83456 -0.234141 -0.972189 -0.00329708
-11.0021 84.6115 -6.989 -0.204771 -0.978553 0.0224455
-9.94561 84.4767 -7.16022 -0.119448 -0.99262 -0.0196452
-8.52664 84.3115 -6.98656 -0.0856206 -0.995718 -0.00111671
-7.52836 84.2893 -6.98994 -0.0217619 -0.999667 0.013833
-6.55324 84.3051 -7.01008 0.0171607 -0.999735 -0.0153131
-5.51292 84.3716 -6.93185 0.0792242 -0.996568 0.0147488
-4.59462 84.4825 -6.97603 0.146774 -0.988794 0.0272718
-3.34019 84.6911 -6.97166 0.203138 -0.978979 0.0148862
-1.78539 85.0916 -6.9256 0.298541 -0.953702 -0.0324468
-0.494984 85.563 -6.93193 0.384607 -0.923048 -0.0077305
0.478977 85.967 -6.96266 0.397576 -0.91736 0.00422521
1.64682 86.5349 -6.96403 0.46251 -0.886597 -0.00557601
2.75473 87.1159 -6.96314 0.478273 -0.878211 0.000692854
3.55386 87.5618 -7.04538 0.484963 -0.874468 -0.010845
4.49638 88.0928 -7.03884 0.493288 -0.869837 -0.00556857
5.43766 88.6407 -6.96147 0.504188 -0.863587 -0.00343926
6.27401 89.13 -6.98695 0.504917 -0.863159 -0.00395868
7.12266 89.6534 -6.93652 0.528862 -0.848638 0.00602041
8.35294 90.4064 -6.93165 0.531649 -0.846875 0.00578661
9.39331 91.0794 -6.63411 0.535752 -0.844309 0.000720734
9.50971 91.1526 -5.37089 0.524932 -0.85113 0.00490713
9.58123 91.208 -4.42362 0.531694 -0.846897 0.00400259
9.57144 91.2009 -3.48564 0.52858 -0.848848 -0.00777611
9.54648 91.1771 -2.57917 0.526049 -0.85043 -0.00302987
9.57768 91.2014 -1.57275 0.523032 -0.852294 0.00552495
9.63002 91.2346 -0.310564 0.531192 -0.847239 -0.00462552
9.57155 91.193 1.20378 0.524215 -0.851533 -0.00902269
9.55153 91.1709 2.19988 0.533868 -0.845555 0.00460144
9.48095 91.1298 3.30574 0.537535 -0.843236 -0.0031372
9.57444 91.181 4.99501 0.537317 -0.843366 -0.00489066
9.48786 91.12 5.91164 0.535203 -0.844708 -0.00507366
9.24273 90.9566 6.88354 0.538908 -0.84234 -0.00642896
8.46806 90.4606 6.96649 0.538457 -0.842629 -0.00630744
7.51362 89.8509 7.00792 0.538122 -0.842839 -0.0068556
6.68724 89.3344 7.01317 0.528213 -0.849111 -0.000463253
5.70503 88.7338 6.98796 0.51197 -0.859002 0.000245934
4.93258 88.2727 6.96271 0.510383 -0.859942 0.00162745
4.0858 87.7822 6.99246 0.49396 -0.869464 -0.00215535
2.96208 87.153 7.15109 0.474676 -0.880024 -0.00632238
1.88674 86.5968 6.98546 0.457998 -0.888917 -0.00791358
0.943143 86.1324 6.98571 0.422867 -0.906191 0.000439285
-0.152071 85.649 6.89097 0.383605 -0.923494 0.00247687
-1.35517 85.1797 6.914 0.346021 -0.938064 -0.0174814
-2.45632 84.8608 6.96035 0.27012 -0.962559 0.0227127
-3.52488 84.6194 7.17726 0.158077 -0.987377 -0.000596352
-4.80458 84.458 6.99034 0.114974 -0.993133 0.0216471
-5.64997 84.3884 6.92144 0.0694673 -0.997578 0.00298305
-4.95491 84.432 0.264626 0.102678 -0.994256 0.00983758
-3.69154 84.6111 0.147208 0.162997 -0.986514 0.00756048
-2.81691 84.7636 -0.00861714 0.174073 -0.984637 0.0137613
-1.93646 84.9802 -0.00334166 0.332827 -0.9429 0.0128723
-0.407563 85.5338 -0.0237079 0.347533 -0.937667 -0.00156153
-1.3355 85.1901 -0.167845 0.340177 -0.940285 0.00564719
-2.70581 84.787 -0.233977 0.232105 -0.972121 -0.0332981
-3.70024 84.6094 -0.163815 0.151925 -0.988391 0.00136224
-4.85996 84.4383 -0.0808025 0.102676 -0.994256 0.00982227
-5.26169 84.4086 0.201495 0.0752939 -0.997159 0.00224929
-7.69947 84.312 0.0476357 -0.0134747 -0.999875 0.00508314
-8.67166 84.331 0.164361 -0.0423771 -0.998751 -0.00153809
