-7.79647 90.5237 0.486721 -0.0443583 -0.998952 0.0112599
-6.53283 90.5521 0.463067 0.0606899 -0.998144 0.00502452
-5.40751 90.6565 0.302076 0.129177 -0.991621 -0.000539565
-4.03553 90.8789 0.4325 0.209312 -0.977463 -0.00892518
-4.50269 90.8065 -0.249013 0.190525 -0.981326 -0.026443
-5.41319 90.6561 -0.27982 0.107636 -0.993798 -0.0127412
-6.87354 90.528 -0.206235 0.0733949 -0.997059 -0.00995994
-7.79821 90.5174 -0.0773459 -0.0221769 -0.999452 0.000708222
-8.8438 90.5722 -0.129581 -0.09329 -0.995003 0.00167801
-9.37759 90.6417 0.338028 -0.128673 -0.991687 0.000632667
-8.31982 90.5469 0.48061 -0.0443583 -0.998952 0.0112599
-8.13902 90.5449 1.16554 -0.0444395 -0.999007 0.00328002
-7.10172 90.5189 1.16842 0.0463809 -0.998736 0.00898329
-6.12084 90.5767 1.1522 0.0698996 -0.997482 0.00143522
-5.06637 90.6956 1.10976 0.133161 -0.990945 -0.0172322
-3.85589 90.9267 1.08496 0.230159 -0.973085 -0.00247873
-2.86993 91.1691 0.629097 0.280127 -0.959891 -0.0117829
-3.10199 91.1047 -0.833398 0.274036 -0.96169 0.00758605
-4.37983 90.8194 -0.974843 0.174897 -0.984016 0.0335106
-5.6289 90.6431 -0.973148 0.0943123 -0.995531 0.00334768
-6.8673 90.5279 -0.995071 0.0925195 -0.995692 0.00618476
-7.974 90.5248 -0.920951 -0.0261911 -0.999158 -0.0081033
-9.06031 90.5948 -1.02734 -0.0705763 -0.997356 -0.0173396
-9.94398 90.7107 -1.15508 -0.165566 -0.98616 -0.00868863
-10.9657 90.8949 -1.20399 -0.210626 -0.977441 -0.0156445
-12.1011 91.1722 -1.12398 -0.260931 -0.965264 0.013458
-13.0232 91.4591 -0.912116 -0.310819 -0.950467 -0.00187477
-13.6114 91.65 -0.203387 -0.311729 -0.950134 -0.00674213
-13.3763 91.5651 0.738364 -0.341984 -0.939665 0.00873984
-12.3824 91.2539 1.04406 -0.267071 -0.963675 -0.00194026
-10.9846 90.9066 1.06006 -0.207279 -0.978146 0.0163202
-9.56967 90.6638 1.05875 -0.124645 -0.992192 -0.00430045
-8.7125 90.5704 1.14626 -0.0485235 -0.998782 0.00699237
-8.74284 90.5795 1.84828 -0.0526075 -0.998558 0.0107157
-7.52017 90.5198 1.89195 -0.00523886 -0.999106 0.0120586
-6.42052 90.557 1.88264 0.0463771 -0.998736 0.00897076
-5.38275 90.6406 1.82813 0.107086 -0.99382 -0.00574102
-4.32588 90.822 1.80431 0.180885 -0.983341 0.0179104
-3.40437 91.025 1.77162 0.241449 -0.97031 -0.00366793
-2.26528 91.3688 1.49296 0.322813 -0.946293 -0.00103317
-2.07756 91.4134 0.407007 0.346852 -0.93723 -0.00171963
-2.11391 91.4086 -0.555601 0.32039 -0.947198 -0.0129237
-2.32957 91.347 -1.43628 0.318786 -0.947819 -0.00373102
-3.36921 91.0351 -1.71145 0.251959 -0.967733 0.00300875
-4.39392 90.8113 -1.71753 0.162385 -0.986664 -0.00668668
-5.51483 90.6537 -1.74883 0.0960998 -0.995372 0.000495795
-6.51606 90.557 -1.77747 0.0933175 -0.995599 -0.00555169
-7.42202 90.5333 -1.72453 0.00433186 -0.999961 -0.00768507
-8.50953 90.5684 -1.74773 -0.0687397 -0.99755 -0.0114194
-9.44012 90.6313 -1.83722 -0.116401 -0.991933 -0.00602571
-10.7013 90.842 -1.88355 -0.188747 -0.981613 0.00641827
-11.8602 91.0979 -1.84195 -0.212894 -0.976966 -0.00129414
-13.2305 91.5285 -1.76436 -0.306048 -0.951988 -0.00456549
-14.349 91.9207 -1.34343 -0.332404 -0.943137 0.000608352
-14.3539 91.9252 -0.305255 -0.365743 -0.93054 0.0181199
-14.2312 91.8872 0.807915 -0.371511 -0.928419 0.00428612
-13.5424 91.6342 1.6774 -0.34202 -0.939654 0.00847919
-12.4988 91.2878 1.80305 -0.266342 -0.96387 0.0040145
-11.1548 90.9373 1.82478 -0.241506 -0.970277 0.0154414
-10.0237 90.728 1.81169 -0.129626 -0.991461 0.014258
-8.92628 90.5891 1.84036 -0.0876461 -0.995491 0.00865317
-8.85082 90.5893 2.5613 -0.0654733 -0.997751 0.000639995
-7.73097 90.5301 2.60931 -0.0244312 -0.999216 0.00601316
-6.59012 90.5519 2.60451 0.025641 -0.99967 -0.00151367
-5.61255 90.6207 2.55783 0.0823323 -0.996597 -0.0040328
-4.14535 90.8524 2.51387 0.183863 -0.982685 -0.0229065
-3.12176 91.1029 2.51084 0.257289 -0.966183 -0.0075234
-2.00308 91.4416 2.44952 0.343266 -0.938919 0.000334851
-1.43607 91.6514 1.77955 0.322807 -0.946295 -0.00103926
-1.38982 91.6944 0.321656 0.376156 -0.926353 -0.0194275
-1.44276 91.6693 -0.833284 0.379864 -0.925026 0.00438751
-1.57683 91.615 -1.94712 0.344706 -0.938606 -0.0140187
-2.18491 91.3998 -2.49103 0.331746 -0.943213 -0.00887755
-3.14647 91.1004 -2.47787 0.296146 -0.954939 -0.0197206
-4.05767 90.8787 -2.45109 0.168064 -0.985683 -0.0135777
-4.98448 90.7213 -2.49016 0.169067 -0.985536 -0.0114043
-6.04282 90.6085 -2.50798 0.0880216 -0.996093 0.00714755
-7.08578 90.5323 -2.49763 -0.000418905 -0.999989 -0.000264271
-8.09555 90.5353 -2.51161 -0.0373621 -0.998671 0.00374033
-9.22397 90.6159 -2.56862 -0.0941441 -0.995046 -0.00914309
-10.1834 90.7569 -2.58586 -0.162313 -0.986739 -0.000237268
-11.3122 90.9672 -2.58143 -0.22915 -0.973218 0.00173133
-12.8071 91.3869 -2.50372 -0.303279 -0.952777 0.0154045
-13.8279 91.7325 -2.49646 -0.332723 -0.94299 0.00808435
-14.8135 92.1175 -2.36104 -0.39996 -0.916483 -0.00776631
-15.1051 92.2326 -0.929609 -0.38763 -0.921793 -0.00443667
-15.0167 92.194 -0.0110285 -0.382136 -0.924091 0.0053223
-14.8876 92.1515 1.22055 -0.371114 -0.92858 0.00369912
-14.3902 91.9618 2.31127 -0.364494 -0.931124 0.0123526
-13.2367 91.5303 2.49553 -0.32337 -0.945933 0.0147114
-12.2318 91.2172 2.57027 -0.253918 -0.967075 0.00972163
-11.251 90.9732 2.5779 -0.241093 -0.970334 0.0179014
-9.81448 90.7092 2.56581 -0.13072 -0.991419 -0.000714009
-8.98675 90.6 2.56327 -0.104527 -0.994161 0.00315589
-8.95499 90.6027 3.29392 -0.0783177 -0.996904 0.00701245
-9.8745 90.7185 3.31577 -0.142007 -0.989794 0.0118711
-11.2945 91.0007 3.32969 -0.236753 -0.971259 0.0245752
-12.1758 91.2187 3.32462 -0.257626 -0.965911 0.0253798
-13.0643 91.4818 3.26414 -0.308473 -0.951223 -0.00437532
-14.031 91.831 3.20308 -0.358975 -0.933213 0.000357067
-14.9858 92.208 3.12594 -0.366215 -0.930426 0.0139633
-15.5199 92.4425 2.41811 -0.409224 -0.912407 -0.00699479
-15.5661 92.4503 1.3257 -0.409211 -0.912276 0.0172905
-15.6473 92.4674 0.307163 -0.416813 -0.908345 0.0342997
-15.7553 92.5056 -0.662188 -0.431111 -0.902123 -0.0178208
-15.8063 92.5422 -1.63764 -0.419973 -0.907427 -0.0103155
-15.7151 92.5149 -2.53394 -0.411936 -0.911103 -0.0141722
-14.9887 92.1979 -3.19493 -0.403829 -0.914822 -0.0046032
-13.9428 91.7664 -3.2681 -0.325056 -0.945643 0.00408178
-12.8823 91.4115 -3.25619 -0.319718 -0.947469 0.00623976
-11.7454 91.0809 -3.28737 -0.243162 -0.969982 -0.00251312
-10.6106 90.8311 -3.31008 -0.166295 -0.985839 -0.0178496
-9.51615 90.6723 -3.30421 -0.116538 -0.992737 -0.0298546
-8.56587 90.5602 -3.28596 -0.0941502 -0.995046 -0.00913604
-7.63092 90.5432 -3.26428 0.0200359 -0.999002 -0.0399279
-6.16815 90.6034 -3.24584 0.0600834 -0.997237 -0.0436938
-4.68911 90.779 -3.20866 0.170079 -0.985387 -0.00924279
-3.6638 90.9557 -3.16374 0.18527 -0.982394 -0.0182233
-2.39385 91.3423 -3.26992 0.291931 -0.956402 -0.00841255
-1.19648 91.7629 -3.10927 0.34696 -0.937866 0.00521381
-0.823818 91.915 -2.00469 0.382639 -0.923819 0.0120979
-0.761246 91.9516 -0.695665 0.382266 -0.924049 0.00240169
-0.709821 91.9754 0.222514 0.399751 -0.91659 -0.00714815
-0.722542 91.9567 1.581 0.402469 -0.915391 -0.00884879
-0.80458 91.9057 2.63858 0.379904 -0.924594 0.00276298
-1.87771 91.4972 3.22116 0.357868 -0.933772 -0.000909348
-2.98826 91.1234 3.23618 0.246566 -0.968833 -0.00738487
-4.20169 90.8352 3.23269 0.221896 -0.974973 0.000107424
-5.10547 90.6992 3.24206 0.13422 -0.99093 -0.00651691
-6.23978 90.574 3.31632 0.0620575 -0.998064 0.00414075
-7.31598 90.5445 3.33234 0.00376723 -0.999835 0.0177457
-8.48858 90.566 3.29452 -0.0654733 -0.997751 0.000639986
-8.62409 90.5767 3.28936 -0.0783258 -0.996903 0.00701647
-8.64963 90.5814 4.00827 -0.0782354 -0.996924 -0.00471262
-7.6816 90.5433 4.04776 -0.00418481 -0.999846 -0.0170413
-6.63995 90.5541 4.05256 0.0385821 -0.999225 0.00776022
-5.22366 90.679 3.96345 0.130254 -0.991479 -0.00190186
-4.2958 90.8208 3.96418 0.210725 -0.977514 0.00781009
-3.25255 91.0568 3.99051 0.233082 -0.972427 -0.00759596
-2.33614 91.3409 3.98295 0.336109 -0.941791 0.00777654
-0.862953 91.8951 3.97218 0.368593 -0.92959 0.00149058
-0.131219 92.1996 3.25632 0.420904 -0.906694 -0.0273036
-0.0555117 92.252 2.05492 0.425136 -0.90513 0.000258052
-0.029141 92.2669 0.716462 0.397021 -0.917793 -0.00545082
-0.0874686 92.2432 -0.565442 0.406156 -0.913738 -0.00231052
-0.152593 92.2235 -1.59203 0.416871 -0.908935 -0.00278646
-0.214427 92.2017 -3.00614 0.427557 -0.903919 -0.0111902
-0.566417 92.0522 -3.77657 0.414843 -0.909875 0.00571558
-1.77329 91.5608 -4.02078 0.322446 -0.946581 -0.00365272
-2.87761 91.1922 -4.00564 0.305872 -0.95196 0.0146455
-3.92822 90.9202 -3.93846 0.18527 -0.982394 -0.0182233
-4.98343 90.7378 -3.97832 0.158333 -0.986983 -0.0231758
-5.89987 90.6293 -3.98256 0.0479563 -0.9988 0.00990378
-6.86475 90.583 -3.98365 0.0441635 -0.99899 0.00659146
-7.79823 90.5526 -4.02826 0.0298053 -0.99953 0.00715956
-8.73991 90.5814 -4.05144 -0.087965 -0.995177 -0.00957151
-9.66647 90.6958 -4.04963 -0.130315 -0.991473 -0.000261214
-10.6568 90.8544 -4.034 -0.196875 -0.980052 0.0271605
-11.5903 91.0439 -4.02159 -0.246589 -0.969096 -0.00522077
-12.5768 91.2982 -3.96908 -0.28602 -0.957429 0.00222548
-13.8112 91.7176 -4.00841 -0.32555 -0.945475 0.0047467
-14.8605 92.1464 -4.03136 -0.406088 -0.913816 -0.000242492
-15.6874 92.5118 -3.96885 -0.420559 -0.90708 -0.000708805
-16.3449 92.8349 -3.11733 -0.431054 -0.901729 -0.0205782
-16.4766 92.8743 -1.87742 -0.467473 -0.883878 -0.0151046
-16.4423 92.8393 -0.891674 -0.469788 -0.882686 -0.0122212
-16.2868 92.7633 0.371805 -0.432032 -0.901376 0.0180813
-16.2332 92.7574 1.35298 -0.444551 -0.895542 0.0194502
-16.2452 92.7754 2.48783 -0.431731 -0.901981 -0.00254505
-16.1012 92.708 3.58119 -0.42739 -0.904067 0.000526405
-15.3059 92.3426 3.95229 -0.380821 -0.924538 0.00727043
-14.2259 91.9076 4.00184 -0.373533 -0.927614 -0.00223051
-13.1038 91.4935 4.02945 -0.347068 -0.937814 0.00576503
-12.1163 91.2152 4.07086 -0.259513 -0.965699 -0.0048708
-11.159 90.9815 4.08087 -0.232959 -0.972439 -0.00957103
-9.86976 90.7239 4.06483 -0.145573 -0.989303 -0.0093731
-8.77114 90.5909 4.00898 -0.0782273 -0.996924 -0.00471474
-8.9322 90.6001 4.73485 -0.0975002 -0.995035 0.000221658
-10.0866 90.7486 4.81769 -0.175036 -0.984018 0.00342693
-11.1192 90.9646 4.82908 -0.218722 -0.975587 0.00333368
-12.37 91.2803 4.79606 -0.253095 -0.96744 -0.00173972
-13.6147 91.6841 4.7796 -0.343017 -0.939313 0.00557167
-14.7813 92.1363 4.75631 -0.388109 -0.921461 0.0167718
-15.9301 92.6355 4.72428 -0.406329 -0.913475 0.0214611
-16.7081 92.997 4.37179 -0.446357 -0.894839 0.00528827
-16.9136 93.0974 3.44277 -0.468752 -0.883294 -0.00421402
-16.9299 93.1072 2.48568 -0.436064 -0.899898 -0.00563025
-16.8838 93.0786 1.27134 -0.45473 -0.890448 0.011005
-16.9449 93.1076 0.188545 -0.46491 -0.885354 0.0025595
-17.1305 93.212 -1.27821 -0.472118 -0.881486 -0.00933391
-17.1124 93.2184 -2.45471 -0.46181 -0.886932 -0.00693547
-16.9753 93.1512 -3.63901 -0.457648 -0.889133 -0.00108387
-16.701 93.0168 -4.55375 -0.448324 -0.893871 6.1427e-05
-15.7599 92.5489 -4.77281 -0.427159 -0.903998 -0.00711898
-14.8522 92.1383 -4.79403 -0.409947 -0.912088 -0.000493195
-13.6485 91.6632 -4.7454 -0.329059 -0.944305 -0.00291109
-12.7571 91.3511 -4.69098 -0.29748 -0.95402 -0.000907726
-11.8433 91.1122 -4.75819 -0.251554 -0.967843 -0.000443556
-10.6735 90.8456 -4.77053 -0.218629 -0.975684 -0.0149008
-9.77856 90.7095 -4.7854 -0.131235 -0.991343 0.00412991
-8.46006 90.5884 -4.80563 -0.0400002 -0.999159 -0.0089855
-7.3496 90.5609 -4.74201 0.0350869 -0.999355 0.0052141
-6.22752 90.6063 -4.71466 0.0441635 -0.99899 0.00659147
-5.29243 90.7176 -4.73352 0.145892 -0.988743 -0.03322
-4.18526 90.8857 -4.69157 0.185281 -0.982392 -0.018227
-3.11359 91.1052 -4.73336 0.252822 -0.965763 -0.00433701
-2.15004 91.4349 -4.79136 0.324609 -0.945846 -0.00225708
-0.809671 91.947 -4.67027 0.391452 -0.919917 -0.0227615
0.263083 92.4367 -4.43744 0.437235 -0.899345 -0.0020984
0.440905 92.519 -3.41298 0.433906 -0.900902 -0.00971782
0.493983 92.5271 -2.10596 0.453536 -0.890835 0.00360237
0.523796 92.5383 -1.06281 0.458303 -0.888773 -0.00641817
0.625814 92.5909 0.335219 0.462921 -0.886321 0.0116619
0.63078 92.6036 1.27751 0.450593 -0.892327 -0.026806
0.623988 92.5712 2.24195 0.437864 -0.898728 -0.0132739
0.602639 92.5524 3.24163 0.451642 -0.892199 0.000623894
0.379544 92.4508 4.45667 0.446119 -0.894745 0.0202397
-0.586956 92.0058 4.74612 0.376492 -0.926256 -0.00994545
-1.78778 91.5409 4.75314 0.326991 -0.945023 0.0028778
-2.66697 91.2433 4.74379 0.302934 -0.952741 0.022701
-3.8702 90.9173 4.71838 0.211831 -0.977305 0.00138676
-4.88193 90.7276 4.66102 0.121356 -0.992456 0.00712902
-5.96771 90.5851 4.74914 0.0849322 -0.99518 0.0125534
-7.25607 90.5361 4.79525 0.038381 -0.999239 0.00687228
-8.37884 90.564 4.74336 -0.0390993 -0.999191 0.00938211
-8.56199 90.5711 4.73286 -0.0586633 -0.998058 0.0023337
-8.64985 90.5815 5.45154 -0.0274541 -0.999481 -0.00164489
-7.61623 90.5425 5.52899 -0.0385088 -0.999198 0.0109544
-6.42268 90.5723 5.52195 0.0344529 -0.999316 0.0116421
-5.45162 90.6603 5.42045 0.111028 -0.993805 -0.00485811
-4.38086 90.8131 5.4579 0.173033 -0.984814 0.014188
-2.98843 91.1257 5.48826 0.231922 -0.972655 0.0124432
-2.01334 91.4594 5.4922 0.335247 -0.942005 -0.014814
-1.03069 91.8045 5.5278 0.36323 -0.930804 0.00801172
0.0332177 92.295 5.46588 0.449313 -0.893346 0.00711958
0.90528 92.7328 5.36776 0.447599 -0.89411 0.0133947
1.27848 92.8998 4.38577 0.465874 -0.884468 -0.00151383
1.26111 92.9043 3.1235 0.489434 -0.872028 -0.00454964
1.30011 92.9349 1.90648 0.478971 -0.877649 -0.0178942
1.29143 92.9478 0.942919 0.472546 -0.88126 0.00678288
1.21748 92.8917 -0.468641 0.461246 -0.887225 0.00188884
1.14576 92.8801 -1.60864 0.479045 -0.877359 -0.0275247
1.13499 92.8495 -3.08985 0.453536 -0.890835 0.00360237
1.10183 92.842 -4.03561 0.463114 -0.885577 -0.011533
1.09426 92.8554 -5.04745 0.464087 -0.885638 -0.0163842
0.0779622 92.3546 -5.34213 0.424298 -0.905208 -0.0238511
-0.745897 91.9853 -5.42127 0.386728 -0.922184 -0.00418368
-1.75716 91.5756 -5.53785 0.331038 -0.943187 -0.024611
-2.62534 91.2828 -5.55358 0.316985 -0.94824 -0.0186617
-3.73475 90.9866 -5.42748 0.198362 -0.980087 -0.00900989
-5.33627 90.6954 -5.49212 0.14502 -0.988718 0.0374841
-6.29603 90.6087 -5.4876 0.0427609 -0.99902 -0.0114408
-7.69822 90.5582 -5.51082 -0.00912821 -0.999081 -0.00885859
-9.07619 90.6197 -5.54323 -0.04243 -0.999045 0.00106671
-10.2558 90.7805 -5.50683 -0.141493 -0.989869 -0.0117899
-11.2828 90.9921 -5.53042 -0.220871 -0.975242 -0.0109462
-12.4738 91.2808 -5.47148 -0.263174 -0.96471 -0.00861484
-13.6604 91.663 -5.49827 -0.331785 -0.94333 0.00679875
-14.9168 92.1728 -5.5603 -0.412621 -0.910885 -0.00573471
-16.0489 92.6985 -5.57152 -0.442026 -0.896967 -0.00799843
-16.9727 93.1531 -5.49656 -0.445173 -0.89542 -0.00397011
-17.5503 93.4519 -4.47925 -0.463864 -0.885904 -0.0019329
-17.6925 93.5198 -3.19631 -0.457642 -0.889133 -0.00227329
-17.8172 93.5801 -1.85626 -0.460212 -0.887802 -0.00334114
-17.7266 93.5226 -0.707805 -0.465513 -0.884992 -0.00929695
-17.5344 93.4194 0.601375 -0.468482 -0.883466 0.00337422
-17.5839 93.4525 2.14316 -0.470054 -0.88263 0.00325695
-17.6357 93.4823 3.09291 -0.468745 -0.883297 -0.00421333
-17.4771 93.3816 4.53929 -0.456375 -0.889678 -0.00257148
-17.1018 93.2053 5.35143 -0.450714 -0.892543 0.0149827
-16.1677 92.755 5.51287 -0.403619 -0.914897 0.00742795
-15.1138 92.2898 5.48046 -0.406361 -0.913689 0.00187266
-14.2862 91.9391 5.54411 -0.346006 -0.938146 0.0127431
-12.9462 91.4443 5.5036 -0.344508 -0.93873 0.00915488
-12.0472 91.1952 5.54104 -0.252023 -0.967717 0.0030127
-10.9684 90.9321 5.57946 -0.204072 -0.978633 -0.0251415
-9.81759 90.7041 5.55756 -0.143446 -0.989233 -0.00268906
-8.86691 90.5943 5.45223 -0.109372 -0.993953 -0.00526585
-8.76259 90.5835 5.44088 -0.0596384 -0.997229 -0.00723199
-8.76848 90.584 6.18202 -0.102877 -0.994694 -0.000220008
-10.1808 90.7711 6.33203 -0.171007 -0.985257 0.0049488
-11.3779 91.0244 6.30292 -0.250131 -0.968204 0.00387224
-12.257 91.2522 6.27842 -0.264704 -0.964088 0.0135094
-13.6994 91.7277 6.31211 -0.351693 -0.936113 -0.00198986
-14.8361 92.176 6.30187 -0.386251 -0.922387 0.00345788
-15.886 92.6329 6.25335 -0.40909 -0.912486 -0.00368121
-17.0891 93.2063 6.23748 -0.450196 -0.892912 -0.00567116
-17.8884 93.6145 6.02485 -0.467122 -0.884189 -0.00230357
-18.1238 93.7352 4.92415 -0.476954 -0.878888 0.00837745
-18.246 93.8005 4.03028 -0.476055 -0.879399 -0.00538286
-18.3131 93.8443 2.84426 -0.477197 -0.878784 -0.00452598
-18.2114 93.7846 1.92381 -0.468985 -0.883194 0.00451295
-18.136 93.7395 0.882042 -0.468843 -0.883276 0.00307368
-18.3743 93.8616 -0.541924 -0.46736 -0.884038 -0.0032606
-18.4898 93.9283 -1.71325 -0.460202 -0.887807 -0.00333916
-18.4382 93.908 -2.61525 -0.47318 -0.880909 -0.0100068
-18.2952 93.8401 -3.75713 -0.472367 -0.881392 -0.00421593
-18.2328 93.8137 -4.9277 -0.468128 -0.88363 -0.00737233
-18.0558 93.7251 -5.77483 -0.467796 -0.883835 -0.00176732
-17.2616 93.306 -6.24147 -0.467674 -0.883899 -0.00214568
-16.3269 92.8381 -6.32488 -0.438814 -0.898578 0.000406829
-15.2989 92.3503 -6.29701 -0.412645 -0.910883 -0.0037885
-14.0125 91.8104 -6.25971 -0.358824 -0.933111 -0.0234142
-13.0642 91.4483 -6.19276 -0.29748 -0.95402 -0.000907741
-11.989 91.149 -6.24129 -0.268892 -0.96317 0.000276753
-10.9073 90.9074 -6.28655 -0.207328 -0.978157 -0.00253127
-9.96821 90.7473 -6.25021 -0.142236 -0.989787 -0.00949726
-8.78323 90.6133 -6.3261 -0.0831731 -0.996162 -0.027253
-7.3943 90.5879 -6.25993 0.0265924 -0.99923 -0.0288474
-6.33767 90.6156 -6.24568 0.0346747 -0.999125 -0.0201362
-5.40312 90.6902 -6.26635 0.110675 -0.993847 -0.00428312
-4.27482 90.8585 -6.18275 0.228863 -0.973104 0.0228718
-3.39618 91.0623 -6.20633 0.212265 -0.977061 0.000607568
-2.19816 91.438 -6.33475 0.331044 -0.943219 0.014634
-1.13706 91.8249 -6.21049 0.36451 -0.930608 -0.0183212
-0.18197 92.2501 -6.10144 0.413946 -0.910267 -0.00794913
1.07663 92.8516 -6.15775 0.460783 -0.88751 -0.00235953
1.72827 93.1893 -5.69655 0.461461 -0.88716 -0.00107358
1.8269 93.2421 -4.54451 0.483405 -0.875274 0.0146601
1.76217 93.206 -3.47843 0.492869 -0.869963 -0.0156487
1.84987 93.2581 -2.38625 0.488877 -0.872262 0.0125786
1.80566 93.2341 -1.11489 0.502644 -0.864262 -0.0200003
1.91469 93.276 -0.201943 0.502617 -0.864257 -0.0208735
1.94133 93.2936 0.795272 0.470049 -0.882639 0.00163946
1.95123 93.2925 1.79154 0.483308 -0.875345 -0.0093761
1.9058 93.2658 3.18473 0.488537 -0.872537 -0.00270581
1.94234 93.2623 4.36028 0.478414 -0.877825 -0.0233058
1.92416 93.2454 5.39834 0.449325 -0.893365 0.00259056
1.08066 92.8271 6.20173 0.448212 -0.893902 0.00671721
0.18535 92.3774 6.20884 0.449091 -0.89346 0.00686048
-0.711238 91.9655 6.26828 0.394736 -0.918325 0.0293627
-1.73064 91.5482 6.24439 0.335247 -0.942005 -0.0148141
-2.61604 91.2304 6.18687 0.330084 -0.943673 -0.0205622
-3.93599 90.9088 6.24202 0.237468 -0.971365 0.00412791
-5.10234 90.6959 6.12007 0.142029 -0.98931 0.00465653
-6.22337 90.5808 6.27953 0.0608684 -0.997315 0.00412198
-7.37908 90.5561 6.28353 0.0260361 -0.99957 0.00644881
-8.50855 90.5688 6.18438 -0.0163993 -0.999764 -0.0142441
-8.64419 90.5711 6.17548 -0.0596384 -0.997229 -0.00723208
-8.65613 90.5774 6.96341 -0.115614 -0.993112 0.0179954
-7.41176 90.556 7.00066 0.0108231 -0.99993 0.00474893
-6.40948 90.573 7.14624 0.0608671 -0.997315 0.00412169
-5.20834 90.6839 6.82706 0.102792 -0.994584 0.000772642
-4.29725 90.8187 6.95746 0.204132 -0.978029 -0.0112637
-3.35249 91.0548 7.03277 0.237467 -0.971365 0.00413813
-2.41322 91.3011 6.91947 0.311681 -0.949768 0.00988958
-1.03892 91.8306 7.01882 0.385078 -0.922683 0.00920069
-0.192418 92.1943 6.98901 0.406021 -0.913774 -0.00161796
0.75328 92.6538 6.95306 0.445772 -0.895012 -0.0154819
1.98424 93.2593 7.05521 0.478645 -0.87696 -0.00633
2.558 93.5992 6.38161 0.515032 -0.857157 0.00478196
2.58234 93.6139 5.34985 0.51273 -0.858541 -0.00394426
2.59826 93.6322 4.44329 0.500574 -0.865392 -0.0228487
2.5747 93.6449 3.18226 0.495406 -0.868642 -0.00414159
2.5964 93.6577 2.14241 0.502441 -0.864554 -0.00534734
2.5687 93.6489 0.80353 0.512822 -0.858494 0.00133634
2.58594 93.6646 -0.125665 0.502617 -0.864257 -0.0208734
2.52289 93.6491 -1.0224 0.497621 -0.867258 -0.0109925
2.53233 93.6479 -2.1468 0.49331 -0.869708 0.0159122
2.5358 93.6469 -3.10851 0.502255 -0.86472 -0.000244481
2.54444 93.6504 -4.0735 0.503906 -0.863752 0.00341579
2.49438 93.6277 -5.39911 0.513189 -0.85824 -0.0078499
2.27891 93.5114 -6.71708 0.516461 -0.856281 -0.00478894
1.16671 92.8906 -6.94308 0.460241 -0.887725 0.0110536
0.345911 92.486 -6.85416 0.421679 -0.906395 0.00478622
-0.53523 92.0891 -6.90016 0.411875 -0.911201 0.00853368
-1.46171 91.7045 -7.01376 0.363617 -0.93137 0.00143303
-2.70131 91.2643 -7.02246 0.300623 -0.953646 0.00512462
-3.56626 90.9999 -6.93138 0.261771 -0.964294 0.0159598
-4.44286 90.7965 -7.01052 0.15063 -0.987603 0.00879791
-5.93741 90.6301 -6.95697 0.0731774 -0.996206 0.0201079
-7.72847 90.5701 -7.02694 0.0321251 -0.998964 0.032217
-8.83801 90.6246 -7.08026 -0.0905457 -0.995888 0.00280479
-9.88456 90.7383 -7.0083 -0.135964 -0.990713 -0.00118357
-11.042 90.9472 -7.10776 -0.199145 -0.97986 -0.0147141
-12.2972 91.2338 -6.98331 -0.267145 -0.963648 0.00396374
-13.3101 91.5435 -6.9635 -0.315625 -0.948678 -0.0197582
-14.2783 91.9084 -6.99042 -0.361933 -0.93211 0.0132284
-15.1844 92.3003 -7.00431 -0.405816 -0.913855 -0.00920611
-16.1008 92.7287 -7.06769 -0.438252 -0.898851 -0.00130176
-17.1469 93.2437 -7.03604 -0.4544 -0.890681 -0.00276218
-18.3168 93.8677 -6.84277 -0.478376 -0.878149 -0.00339424
-18.9157 94.1879 -6.1278 -0.474584 -0.880177 -0.00765386
-18.9449 94.196 -5.14499 -0.471721 -0.881741 -0.00133757
-19.0109 94.2234 -3.66087 -0.473567 -0.880739 -0.00567568
-19.1075 94.2642 -2.31997 -0.47318 -0.880909 -0.0100019
-19.129 94.2673 -1.35563 -0.472516 -0.88132 -0.00183725
-18.9004 94.155 0.0128745 -0.481036 -0.87663 0.00953376
-18.7865 94.0993 1.17961 -0.484739 -0.874644 0.00503279
-18.9547 94.1951 2.12793 -0.476954 -0.878922 -0.00325126
-19.0571 94.2474 3.02974 -0.477189 -0.878788 -0.00452868
-18.9768 94.1972 4.01437 -0.47695 -0.878907 -0.00632284
-18.8637 94.1305 4.97543 -0.468819 -0.883292 0.00213393
-18.8294 94.1128 5.87112 -0.467613 -0.883928 -0.00295716
-18.4285 93.8977 6.9432 -0.466764 -0.88438 -0.00152843
-17.5135 93.4146 7.13165 -0.45841 -0.888683 -0.00365915
-16.1934 92.7764 6.97914 -0.425314 -0.904907 0.0158881
-15.3343 92.3885 7.06106 -0.39333 -0.919231 0.0132224
-14.4214 92.0168 7.11299 -0.364134 -0.931173 0.0179519
-13.2638 91.5625 7.02982 -0.357918 -0.933642 0.00797391
-12.2183 91.2599 7.01331 -0.276893 -0.960567 0.0253309
-11.2799 91.0024 7.05559 -0.250061 -0.968221 0.00430105
-10.3079 90.7997 7.06293 -0.158012 -0.986963 0.0234906
-9.31707 90.6505 6.95735 -0.127478 -0.991213 0.0293961
-8.87552 90.6019 6.97661 -0.110094 -0.993702 0.0208532
-9.73932 90.6886 0.252391 -0.126655 -0.99194 -0.00184164
-10.6222 90.8197 0.224198 -0.177011 -0.984208 -0.00114549
-11.5163 91.0221 0.115735 -0.259126 -0.965819 -0.00684758
-12.2619 91.2258 -0.397074 -0.260035 -0.96554 0.00330943
-11.1817 90.9313 -0.570824 -0.235775 -0.971353 -0.00109493
-10.0782 90.7274 -0.493719 -0.14485 -0.98912 0.00523594
-9.57285 90.6666 -0.365829 -0.126399 -0.991884 0.0098941
